ply
format ascii 1.0
element vertex 401
property double x
property double y
property double z
property uchar blue
property uchar green
property uchar red
end_header
43.6769 -44.4046 267.706 159 231 211
42.0896 -46.5205 264.743 99 153 146
41.7146 -49.1301 262.602 217 240 226
33.2696 -55.6651 254.058 188 242 237
31.5195 -43.8268 259.056 197 201 229
26.5978 -43.368 258.846 200 225 241
26.4572 -43.8676 258.429 190 209 236
24.9281 -48.0215 254.321 212 227 255
24.7726 -48.0927 254.488 91 121 200
25.0704 -58.2058 249.371 207 240 233
24.0093 -45.9536 254.946 166 221 255
24.8768 -56.3018 251.602 109 184 168
23.9154 -46.0015 254.899 178 225 255
24.2343 -54.2833 253.512 249 255 251
23.9721 -51.3499 256.008 128 123 144
23.3053 -53.1927 254.364 151 228 207
23.0857 -56.6447 250.828 83 163 132
22.784 -51.3382 255.958 130 172 217
22.777 -51.6765 255.717 64 136 144
22.7957 -52.2734 255.09 127 209 174
22.9225 -56.8638 250.631 140 227 193
22.7691 -52.6751 254.669 68 170 128
22.6122 -53.5638 253.852 74 162 122
22.554 -54.6587 252.81 140 218 187
22.5488 -65.5546 240.09 74 140 129
22.1069 -51.7974 255.394 54 149 115
21.9889 -56.935 250.255 80 151 131
21.2217 -48.7949 253.163 191 220 255
22.1848 -66.399 238.655 61 136 108
21.8791 -56.7838 250.425 73 135 121
21.8008 -55.7757 251.527 214 255 247
21.8361 -65.491 240.201 142 213 193
21.4008 -62.5259 243.87 102 178 166
21.453 -64.4329 241.536 70 135 113
21.381 -62.5973 243.621 165 207 206
21.1015 -63.3343 242.842 71 150 131
21.1632 -65.8644 239.436 194 241 245
21.1138 -65.535 239.826 70 147 133
20.2585 -63.6239 242.379 57 134 120
20.3189 -66.1503 238.806 72 147 126
20.3434 -66.2356 238.582 76 147 130
20.2171 -67.2097 236.365 133 198 177
19.7651 -65.4177 238.851 68 79 69
19.5725 -62.7679 243.258 106 178 172
19.5803 -63.0481 242.852 75 150 134
19.4606 -63.3818 242.364 74 153 140
19.613 -66.449 237.21 141 199 175
19.1702 -64.8734 239.468 76 150 126
19.1893 -64.8948 239.415 156 230 204
18.0883 -52.9533 253.732 77 162 117
19.0285 -63.2933 241.646 75 149 115
19.0714 -65.4494 238.642 136 211 183
18.6825 -61.7964 243.473 177 242 226
18.9932 -65.5655 238.442 63 125 107
18.2744 -59.3383 246.706 191 247 242
18.4672 -61.544 243.77 83 157 133
18.2263 -59.1443 246.795 176 244 233
18.3633 -61.0413 244.387 168 235 220
18.3193 -62.2168 242.896 63 148 116
17.8883 -59.2116 246.555 170 230 212
17.3095 -54.2573 252.143 86 163 149
17.737 -58.3382 247.521 159 224 208
17.5811 -58.2838 247.516 76 150 132
18.0753 -64.1064 240.383 87 150 140
17.6491 -62.5036 242.439 193 236 225
16.3928 -53.1897 253.041 184 233 235
17.2482 -61.4237 243.459 89 153 141
15.9828 -52.1574 254.277 181 223 236
17.8109 -66.8199 237.002 130 224 183
17.259 -63.0486 242.504 189 228 226
15.4157 -48.1291 252.659 202 241 255
17.055 -62.2995 243.105 66 115 107
17.2888 -64.219 240.948 71 150 123
16.656 -60.1058 245.39 96 120 112
16.6965 -60.203 245.16 108 128 123
16.9403 -62.2939 243.114 157 228 212
16.9049 -62.2175 243.314 94 158 139
16.8335 -61.7515 243.65 181 235 222
16.9611 -62.9048 242.544 77 156 135
16.802 -62.2664 243.194 170 227 212
16.8319 -64.0075 241.123 132 223 200
15.8864 -57.5816 248.282 96 128 117
16.2969 -61.9026 243.398 58 136 99
15.3119 -55.6066 250.349 97 163 138
15.8917 -61.8384 243.401 168 240 220
14.6927 -53.8689 252.217 154 236 224
14.279 -52.4165 253.812 141 231 208
16.0812 -64.9357 239.919 158 217 203
15.5041 -64.6621 240.039 167 229 205
14.9306 -64.6445 240.012 76 145 134
11.549 -49.4378 251.542 205 232 255
10.127 -46.7087 257.955 74 89 168
10.8982 -51.8032 254.293 98 138 167
11.5176 -54.8742 250.679 128 165 163
11.5221 -54.858 250.635 128 165 163
9.76505 -46.4614 254.27 119 140 185
9.7364 -51.8939 254.032 92 171 182
13.4442 -67.7206 234.384 67 116 114
9.96834 -55.9325 249.139 133 162 146
9.91314 -55.9087 249.231 128 155 139
9.2769 -57.103 247.744 126 158 139
9.16535 -57.0261 247.852 134 169 149
9.02581 -57.4447 247.39 163 233 226
7.11966 -53.4956 252.2 167 242 221
5.35492 -54.2642 250.862 133 203 166
4.41307 -54.3403 250.946 131 198 177
4.32672 -54.4053 250.812 112 177 151
43.1533 -48.6336 263.635 163 244 229
44.6397 -33.5865 277.791 99 164 148
42.5729 -44.7686 266.956 180 225 209
41.699 -48.9909 262.742 174 197 182
41.6746 -49.0869 262.604 239 255 245
41.7179 -46.547 264.584 79 147 136
41.1591 -50.3137 261.29 106 167 181
32.9882 -44.6531 258.487 177 209 244
33.0304 -55.8958 253.791 226 255 250
31.3513 -43.4639 259.376 184 219 245
30.9071 -45.6616 257.366 147 177 212
30.8 -60.8949 247.795 172 232 221
30.6127 -45.7951 257.126 183 223 241
30.0918 -45.5025 257.378 184 214 243
29.2396 -45.0411 256.852 187 220 246
29.5233 -56.6167 252.216 188 216 223
28.8477 -41.209 261.245 151 171 202
28.6766 -41.23 261.239 151 169 198
27.1609 -48.4141 254.999 157 215 255
26.8707 -48.4554 254.845 196 197 218
27.0659 -59.3311 248.696 162 202 221
27.0272 -59.6897 248.27 213 245 240
26.4608 -43.8706 258.449 196 217 244
25.7253 -52.781 249.78 64 87 167
25.8011 -36.9505 264.763 185 226 255
25.8977 -58.6771 249.106 245 255 251
25.8029 -58.3827 249.4 187 218 227
25.7498 -57.5256 250.456 214 249 245
24.8957 -48.0091 254.265 244 252 255
24.5193 -47.0218 254.411 193 234 255
25.1612 -56.65 251.23 203 247 248
25.0704 -58.2058 249.371 207 240 233
24.1597 -42.7242 259.737 121 149 214
23.8847 -46.0051 254.869 185 232 255
23.531 -46.1311 254.738 138 176 234
24.3366 -52.914 254.841 160 218 224
24.0653 -66.049 239.706 81 143 125
23.1112 -46.161 254.628 139 170 231
23.8002 -50.6118 256.764 112 98 110
23.7431 -55.2048 252.532 182 238 227
23.3053 -53.1877 254.352 151 228 207
22.402 -48.1682 253.605 206 250 255
22.7844 -51.6875 255.76 49 113 118
21.8338 -39.5488 261.961 205 245 255
22.699 -51.6786 255.497 165 227 227
22.7288 -51.9947 255.257 149 235 193
22.6273 -51.6749 255.766 101 171 170
22.1206 -51.6648 255.527 91 172 157
21.5996 -56.8731 250.326 82 143 133
21.457 -65.8022 239.631 66 129 113
21.1167 -65.5398 239.836 70 147 133
19.4314 -48.8657 252.842 190 226 255
19.468 -56.3969 250.398 79 166 152
19.8724 -64.2601 241.398 65 137 124
19.9048 -66.5099 237.356 100 159 139
19.759 -65.4099 238.879 78 86 79
19.1057 -63.3115 241.422 75 146 106
19.0004 -62.7816 242.323 74 135 99
18.4703 -58.4031 247.852 198 254 249
18.6758 -61.8189 243.509 176 240 221
17.3114 -54.2604 252.156 88 164 152
18.0914 -64.1055 240.399 86 156 139
15.9877 -45.0675 256.191 158 184 231
16.6883 -52.4383 254.058 227 248 245
15.7718 -44.7016 256.705 162 204 255
16.0084 -48.2617 252.645 193 233 255
16.6409 -55.4266 250.609 183 230 234
15.7169 -47.5228 252.959 211 243 255
17.5434 -65.6119 239.072 82 161 134
17.287 -64.2172 240.943 59 140 113
17.4064 -65.3448 239.473 78 150 120
16.9391 -62.3094 243.139 152 225 209
15.9059 -55.6772 250.346 181 242 228
16.2521 -58.4017 247.286 184 236 242
16.9807 -64.4336 240.622 75 154 127
16.7443 -64.5597 240.343 132 216 191
16.2656 -62.2883 242.99 203 246 237
14.2277 -46.3638 254.076 165 208 255
15.5565 -62.8264 242.378 95 170 154
15.5064 -64.6708 240.056 167 229 205
14.6787 -65.7352 238.358 188 237 255
11.8483 -52.9113 253.097 148 213 191
10.8978 -51.8053 254.301 98 138 167
13.5639 -67.8253 234.203 164 219 228
10.09 -56.0261 249.045 118 158 146
9.94672 -55.8985 249.131 110 140 121
9.31185 -57.0946 247.649 126 158 139
8.93482 -56.8375 248.072 103 151 139
9.0327 -57.423 247.337 170 239 229
7.68931 -49.8793 250.853 208 242 255
7.47983 -54.0797 251.451 73 140 109
42.7232 -39.2557 272.526 82 137 120
43.2446 -33.3876 277.574 100 160 152
38.0218 -49.4661 260.845 106 169 149
40.2552 -35.0346 275.442 95 138 129
39.753 -39.0076 271.865 88 148 130
36.8916 -46.8045 262.712 52 134 169
34.4796 -44.4961 258.944 135 155 190
33.8807 -44.7355 258.654 199 220 248
33.3121 -51.0391 257.501 184 233 255
32.4153 -43.9635 259.2 119 134 160
32.126 -44.6374 258.368 135 157 199
31.8326 -44.0523 258.943 139 148 181
31.9123 -58.9809 250.214 212 243 242
31.303 -42.6849 260.153 151 171 206
31.1779 -43.7829 259.126 178 209 242
30.1707 -44.5456 258.263 138 157 202
30.1011 -45.5054 257.405 187 219 248
30.2362 -58.5527 250.375 237 252 255
29.7153 -39.4351 263.111 180 191 223
29.239 -45.0436 256.858 187 220 246
29.1944 -44.4809 258.226 160 165 196
29.2026 -42.0312 260.522 136 144 173
29.5517 -56.6339 252.241 168 206 211
28.9598 -55.3442 253.462 124 180 175
28.183 -43.1929 259.253 156 168 208
27.1299 -50.6934 251.525 162 195 241
27.1876 -48.4412 255.121 154 221 255
26.7094 -51.1387 251.155 167 199 240
26.624 -43.7429 258.48 131 138 171
27.0634 -59.3326 248.695 162 202 221
27.0265 -59.6936 248.275 213 245 240
26.7284 -59.4122 248.476 165 201 217
25.7247 -52.7867 249.79 64 87 167
25.8372 -37.1871 264.45 168 222 255
25.5842 -45.0298 257.252 204 225 252
25.8612 -58.2224 249.624 157 206 208
25.8194 -58.7969 248.997 227 255 254
25.7496 -57.5205 250.447 214 249 245
25.5384 -56.7297 251.35 175 212 210
24.4891 -46.7414 254.469 192 229 255
24.5294 -47.0314 254.464 191 233 255
24.381 -46.0619 254.915 116 155 223
25.1316 -58.3186 249.62 248 255 254
24.1761 -46.0861 254.907 119 144 218
24.307 -44.0934 257.893 158 192 246
25.062 -57.0026 250.867 85 169 144
24.1963 -44.292 257.516 53 66 142
24.1552 -42.7223 259.715 121 149 214
24.1103 -43.6181 258.763 173 201 248
23.8571 -45.8723 255.009 68 89 171
23.9946 -43.5811 258.849 80 93 139
23.7524 -46.1409 254.828 109 140 219
23.7414 -44.6366 257.031 155 190 246
23.7426 -42.4315 259.826 222 244 255
24.5435 -56.3777 251.45 92 173 146
23.5519 -43.6634 258.659 165 203 255
24.0397 -56.5335 251.275 86 160 142
22.9122 -46.2034 254.549 139 176 234
23.7325 -54.8631 252.86 185 245 239
23.3804 -53.2667 254.276 85 152 131
22.4862 -47.9341 253.751 93 120 206
23.2353 -60.3436 246.718 88 160 154
21.9969 -38.1014 262.701 96 114 197
23.1778 -61.7652 245.087 189 235 236
22.935 -51.548 255.835 70 77 94
21.8689 -38.422 262.597 175 219 255
23.0291 -59.7452 247.325 74 131 132
22.6966 -51.679 255.493 165 227 227
22.1803 -54.3051 253.137 67 115 97
21.1146 -48.073 253.437 86 110 192
21.7988 -59.8515 246.891 200 231 255
21.383 -62.619 243.656 144 186 185
21.1059 -65.8066 239.409 222 251 255
19.457 -48.6805 252.844 203 247 255
20.4375 -64.5031 241.176 56 134 110
19.8679 -64.0998 241.588 100 168 157
17.7632 -44.2301 257.577 189 238 246
18.9037 -62.6301 242.313 147 234 184
18.9337 -62.9027 242.112 76 147 130
17.3629 -47.8676 253.057 211 249 255
18.5544 -61.1866 244.316 118 169 155
18.5001 -61.7701 243.479 87 174 141
18.7357 -64.2813 240.195 51 93 68
18.8189 -67.1414 236.218 54 73 52
18.7653 -66.6744 236.806 242 255 252
18.3207 -64.6683 239.722 163 230 209
18.5468 -67.267 236.122 70 153 115
18.2977 -65.2513 238.914 205 236 233
18.0869 -64.104 240.391 81 147 135
16.6787 -52.3538 254.078 234 255 254
16.3687 -50.9925 255.564 223 252 255
15.9688 -47.7302 252.853 219 250 255
17.4094 -64.5162 240.58 46 133 100
17.5433 -66.5879 237.393 65 142 104
16.9791 -64.4376 240.626 75 154 127
15.8866 -57.5635 248.226 64 107 92
16.7446 -64.5614 240.346 132 216 191
16.2122 -61.8093 243.559 198 238 227
16.2168 -62.0741 243.413 86 166 149
15.9532 -61.8794 243.322 94 170 146
15.8881 -61.8349 243.391 168 240 220
13.727 -45.6051 255.264 167 204 255
15.5002 -63.9828 240.907 74 146 126
11.4211 -47.6679 252.365 113 158 231
11.5671 -52.4215 253.787 178 213 253
11.0383 -52.2708 253.789 143 209 198
10.2901 -48.9845 251.58 108 156 234
13.5672 -67.825 234.217 164 219 228
10.0814 -56.0579 249.131 118 158 147
12.7409 -66.9004 235.955 180 222 251
12.3957 -65.9255 237.462 87 154 147
9.93799 -55.9156 249.168 135 163 143
12.7599 -67.496 234.59 97 144 158
10.6665 -61.4847 242.704 131 177 201
9.29467 -57.1448 247.77 127 166 150
7.69253 -49.8768 250.851 204 242 255
5.6896 -49.5036 250.803 110 159 233
5.17745 -54.2242 251.155 35 86 59
37.6597 -37.7716 271.961 83 148 122
33.5663 -43.1108 260.18 140 155 194
31.4143 -43.5099 259.385 175 220 253
31.1675 -43.9738 258.86 137 151 187
31.1643 -43.7758 259.076 174 205 238
30.7903 -43.7136 259.044 144 153 196
30.1759 -44.5468 258.278 135 150 196
28.7063 -43.3662 259.167 130 152 194
28.9569 -55.4056 253.466 132 197 188
25.8137 -58.7919 248.982 227 255 254
25.5102 -56.7062 251.422 146 196 192
25.2003 -58.316 249.611 252 254 254
24.3404 -41.1705 260.566 90 126 204
23.4926 -53.0168 254.519 110 183 145
22.714 -51.4432 256.008 236 250 255
19.9119 -38.4824 262.771 113 145 221
21.1485 -67.6946 235.706 65 122 113
20.9065 -66.1061 239.037 52 108 85
20.5616 -67.0628 236.958 63 121 110
20.345 -64.2295 241.603 68 143 115
19.0108 -67.3464 235.572 214 235 237
18.7745 -65.5615 238.463 255 255 254
18.7611 -66.6631 236.787 242 253 250
18.822 -67.1966 236.287 55 73 56
18.2958 -65.2446 238.903 205 236 233
16.6772 -52.3396 254.028 226 255 253
17.9316 -63.5928 240.969 69 139 109
16.2362 -58.6333 246.934 69 103 97
16.6877 -62.1529 243.314 95 169 157
17.3232 -67.8728 235.28 85 129 130
16.1296 -61.7376 243.63 209 252 249
15.1721 -65.4374 239.018 150 222 240
11.6301 -52.4328 253.725 173 218 255
11.5939 -52.589 253.487 48 89 81
11.3212 -52.2453 254.151 124 220 196
13.8111 -67.7531 234.45 175 213 247
13.1984 -67.6744 234.472 158 206 242
9.82962 -55.7626 249.33 47 75 56
12.7862 -67.2114 235.028 97 156 148
9.66743 -57.342 247.242 133 173 162
9.6722 -57.3239 247.197 108 148 137
6.22265 -54.0868 251.291 53 111 86
5.1816 -54.2132 251.113 35 86 59
11588.9 -18030.3 21137.9 124 145 166
31.8301 -42.9913 259.923 146 163 189
30.5234 -56.2324 252.755 149 188 203
26.9148 -59.3929 248.487 231 244 252
25.9829 -44.5266 257.796 158 170 198
24.8925 -44.5773 257.241 86 77 87
24.693 -42.4905 259.608 198 230 255
24.2774 -43.5062 258.725 152 185 201
24.3119 -42.8103 260.059 132 152 199
24.7285 -57.62 249.95 87 149 125
23.7296 -43.5821 258.696 171 208 236
22.9378 -52.902 254.365 44 66 47
22.9972 -59.902 247.112 86 152 147
22.7063 -51.435 255.971 235 254 255
21.1045 -65.8194 239.401 216 239 235
20.901 -62.4694 244.133 117 177 167
20.3425 -64.2374 241.611 57 134 106
18.6967 -64.2924 240.184 60 89 73
18.2343 -60.7986 244.94 60 132 109
18.9113 -67.353 235.609 57 81 69
17.8129 -62.3253 242.458 85 142 121
-418.326 868.055 53270.2 218 232 230
16.0275 -61.86 243.42 88 160 130
11.4123 -47.6369 252.331 99 149 231
11.6944 -52.6454 253.314 32 87 68
13.5002 -67.5555 235.082 132 193 207
13.0602 -67.4248 235.318 123 167 184
8.95261 -56.9382 248.078 49 74 64
5.97384 -54.1119 251.462 63 109 90
27.3181 -44.8118 257.832 149 165 202
26.9173 -59.3528 248.695 255 254 255
25.8461 -56.9565 251.117 155 210 201
25.6219 -55.9737 252.184 255 255 255
24.2352 -48.7022 253.719 216 248 255
23.607 -42.2675 260.081 215 249 255
21.9599 -38.1712 262.97 137 169 234
22.9088 -52.8842 254.848 43 62 43
17.7124 -63.1553 241.165 197 224 221
17.2364 -62.6554 242.616 28 52 40
16.3453 -58.9214 247.11 202 232 233
16.9394 -67.5541 235.785 63 92 83
13.4566 -67.4731 234.965 116 170 193
