ply
format ascii 1.0
element vertex 454
property double x
property double y
property double z
property uchar blue
property uchar green
property uchar red
end_header
51.5436 -60.2761 281.66 134 196 184
50.9856 -60.6697 281.312 69 131 119
48.0553 -66.1384 276.197 145 205 221
49.5358 -36.5712 299.293 167 232 207
47.1151 -54.8555 285.861 100 164 164
44.7407 -18.9864 313.883 86 112 119
40.0859 -38.8777 288.779 128 150 186
39.1754 -36.8717 290.372 190 209 236
40.4125 -43.611 292.509 124 179 182
36.512 -75.0408 268.945 112 162 190
34.1234 -69.1551 273.675 167 219 242
30.8381 -44.0125 285.883 102 134 200
32.2951 -69.7057 273.362 164 217 238
30.0409 -36.557 290.506 190 209 236
31.7077 -70.8803 272.327 82 138 157
29.2974 -33.3448 292.284 174 204 255
27.9496 -38.063 288.482 141 150 160
28.0431 -42.767 285.869 212 227 255
27.5278 -37.77 288.9 121 127 168
28.7064 -58.6662 281.177 207 240 233
26.7795 -37.3609 289.745 126 155 216
26.6322 -39.66 286.515 166 221 255
26.6671 -35.9139 291.652 196 225 234
28.8472 -72.0147 271.382 158 215 237
28.7446 -73.2859 270.08 79 157 140
27.1537 -52.323 286.169 249 255 251
27.1961 -57.0398 282.511 162 233 217
27.6991 -74.7123 268.641 66 135 125
25.5821 -56.1596 283.198 83 163 132
26.0174 -74.0664 269.332 69 148 121
25.71 -72.2222 271.084 166 231 222
25.5163 -72.0739 271.155 74 140 129
23.9288 -56.6775 282.601 80 151 131
25.0415 -73.854 269.547 61 136 108
23.3853 -66.3534 275.463 102 178 166
23.6296 -69.9307 272.918 70 135 113
23.3683 -66.5279 275.239 165 207 206
23.567 -70.4367 272.551 75 136 116
23.2979 -72.801 270.578 194 241 245
20.0434 -36.6705 291.223 180 219 251
23.2684 -73.4153 270.068 68 139 112
22.9768 -73.0827 270.274 79 153 111
22.07 -67.108 274.877 190 240 230
21.6366 -68.4769 274.007 57 134 120
21.9465 -73.4892 269.974 72 147 126
18.2594 -36.9861 290.991 81 97 144
21.9216 -75.9556 267.124 133 198 177
21.0136 -72.2058 269.931 68 79 69
20.4868 -66.931 275.06 106 178 172
20.9325 -71.5465 270.203 248 254 253
20.5204 -67.4647 274.608 75 150 134
20.3552 -68.0857 273.994 74 153 140
20.0035 -71.1554 270.675 76 150 126
19.6759 -68.0669 273.147 75 149 115
19.0439 -65.3076 275.277 177 242 226
19.0421 -65.5193 275.066 101 181 158
19.7501 -72.5936 269.559 63 125 107
18.2907 -60.8985 278.937 191 247 242
18.6913 -64.8371 275.594 83 157 133
20.8091 -85.5351 286.809 136 204 173
18.5008 -63.9455 276.347 168 235 220
18.4793 -66.0866 274.613 63 148 116
17.6856 -60.7286 278.884 170 230 212
18.9223 -72.4331 269.824 152 224 194
17.4221 -59.2307 280.003 159 224 208
18.1601 -69.7068 271.825 87 150 140
17.8701 -68.324 272.896 50 117 85
15.2232 -50.7649 286.623 184 233 235
16.7353 -64.7229 275.356 89 153 141
16.7615 -67.6159 274.529 189 228 226
16.5055 -66.9807 274.795 76 145 118
16.423 -66.2744 275.17 66 115 107
16.8538 -69.8764 272.816 71 150 123
16.236 -66.2693 275.21 157 228 212
16.1794 -66.1009 275.384 94 158 139
16.2783 -67.3845 274.589 77 156 135
16.0094 -66.2203 275.329 170 227 212
14.8807 -57.958 281.088 196 241 232
14.9997 -59.7037 279.788 102 131 122
14.4981 -57.99 281.091 96 128 117
16.574 -74.037 269.558 69 139 109
15.1932 -65.5905 275.573 58 136 99
13.5775 -54.7146 283.592 97 163 138
14.5306 -65.4988 275.623 168 240 220
12.6063 -51.8841 285.837 154 236 224
14.8569 -71.3613 271.771 158 217 203
10.1503 -37.7979 290.644 214 242 249
13.7335 -73.9482 269.564 75 165 135
11.9892 -63.0552 277.083 96 157 159
7.61994 -53.6029 284.474 128 165 163
7.62593 -53.5811 284.418 128 165 163
4.87882 -48.7792 288.792 92 171 182
1.72963 -32.9636 299.917 63 129 94
2.91717 -38.4572 290.479 148 169 214
5.10446 -55.4216 282.928 133 162 146
5.05289 -55.3706 282.955 128 155 139
2.42685 -38.694 290.28 205 237 248
4.91148 -58.2631 280.701 123 159 137
3.7208 -52.6646 285.024 69 152 120
3.92328 -57.4358 281.422 126 158 139
0.671366 -51.4159 287.039 167 242 221
-1.2341 -39.1312 290.132 145 182 234
-1.41434 -50.1207 288.778 88 157 147
-2.99996 -39.4507 290.063 149 195 249
-0.655355 -56.272 282.309 182 239 230
51.519 -60.3977 281.688 87 135 129
50.5043 -55.1685 285.988 98 159 169
54.3176 -22.0435 312.696 99 164 148
52.269 -37.847 299.421 180 225 209
51.498 -43.957 294.527 174 197 182
51.318 -40.4145 296.666 79 147 136
50.9074 -45.9067 292.876 106 167 181
49.9989 -49.3421 290.187 93 161 154
48.6826 -56.1649 285.049 166 229 233
46.382 -55.467 285.387 99 150 166
45.4499 -62.3674 279.371 104 148 202
45.8414 -53.7211 286.61 93 165 159
45.3443 -19.911 313.164 148 209 183
39.9949 -37.4663 289.976 148 172 214
39.4243 -37.7633 289.637 177 209 244
39.1854 -36.8772 290.406 190 210 235
38.8156 -37.0356 290.263 200 223 245
38.7521 -36.7466 290.483 178 204 228
40.1893 -54.6063 285.3 226 255 250
38.6802 -36.3805 290.787 187 207 232
38.9341 -59.5891 281.249 205 240 236
36.5461 -39.2326 288.641 147 177 212
33.334 -32.6698 293.657 151 171 202
33.086 -32.6969 293.684 151 169 198
34.3975 -70.9726 272.327 162 219 228
31.3104 -43.3369 286.545 157 215 255
30.8796 -43.4142 286.343 196 197 218
30.2248 -35.8176 291.11 206 232 248
31.8216 -60.4366 280.207 162 202 221
31.8075 -61.0475 279.734 213 245 240
30.0451 -36.561 290.531 196 217 244
29.5409 -50.1358 280.441 64 87 167
30.008 -59.4004 280.811 245 255 251
28.7873 -52.0576 279.929 176 205 249
29.8218 -58.9139 281.099 187 218 227
29.6619 -57.4996 282.411 214 249 245
27.9932 -42.7601 285.72 244 252 255
27.672 -38.5038 288.012 167 204 255
27.6035 -37.739 289.217 122 138 174
27.424 -41.2691 285.919 193 234 255
28.9218 -58.6497 281.318 240 255 254
28.7063 -56.096 283.346 203 247 248
28.7064 -58.6662 281.177 207 240 233
26.6245 -34.834 292.574 121 149 214
28.5192 -73.2432 270.117 56 135 114
25.943 -39.9246 286.375 138 176 234
25.6659 -61.6138 278.95 87 151 145
23.5625 -54.7859 284.088 216 255 248
22.1145 -65.6484 276.009 122 187 188
20.0373 -55.876 283.115 79 166 152
21.3327 -74.4518 268.22 100 159 139
21.0027 -72.1821 269.957 78 86 79
18.3062 -52.9744 285.156 182 242 218
18.5779 -59.2789 280.319 198 254 249
19.434 -75.7891 267.875 43 71 51
19.305 -74.4728 268.123 231 249 250
15.5373 -43.2091 285.1 117 156 231
18.1324 -68.4177 272.767 147 224 187
18.1866 -69.7013 271.854 86 156 139
14.2516 -42.0377 285.402 211 243 255
16.8502 -69.8777 272.817 59 140 113
17.0705 -72.1039 271.127 78 150 120
15.856 -62.7437 277.415 100 119 116
16.237 -66.2825 275.19 152 225 209
13.1685 -43.084 285.139 118 154 232
16.3386 -70.3284 272.478 75 154 127
16.2758 -72.3422 270.918 47 94 72
15.9569 -70.595 272.162 132 216 191
9.6233 -22.8871 308.423 140 210 203
15.1272 -66.3078 275.154 203 246 237
9.34103 -23.5832 307.917 173 243 236
11.9699 -40.2445 286.974 165 208 255
14.5287 -65.4904 275.623 158 233 212
14.8569 -71.3545 271.761 164 223 209
10.2244 -37.944 290.55 96 108 150
12.4889 -73.1835 270.213 188 237 255
3.05822 -30.2494 302.196 217 247 252
1.48623 -32.6427 300.06 134 206 163
1.25136 -32.9547 299.922 56 107 73
3.13095 -39.0713 290.052 129 120 163
5.29265 -55.5783 282.813 118 158 146
5.05658 -55.3734 282.965 110 140 121
2.41759 -38.6974 290.29 204 238 254
4.71974 -58.1318 280.909 126 162 150
2.58376 -41.9733 285.749 160 200 255
3.97444 -57.4313 281.326 126 158 139
3.73609 -57.2744 281.588 132 171 156
3.39887 -56.9799 281.857 103 151 139
-1.05502 -35.5442 297.858 182 244 232
-1.87184 -41.2226 287.483 167 207 255
49.9947 -69.4972 273.658 157 221 245
52.6434 -38.1009 298.938 138 213 181
51.2081 -49.1201 290.67 198 252 239
51.0615 -48.6995 290.835 82 149 134
50.5953 -53.9899 286.983 90 146 157
50.1214 -57.8896 283.822 98 163 154
48.4804 -68.3535 274.578 52 86 80
48.0743 -66.1395 276.251 141 203 219
52.0648 -29.9789 306.394 82 137 120
49.0786 -55.0227 286.022 80 149 139
52.4201 -21.7549 312.555 100 160 152
48.5327 -54.2454 286.486 105 157 180
47.9371 -38.0883 297.956 198 250 240
46.4053 -55.4807 285.428 99 150 166
45.7786 -59.276 282.22 175 225 243
46.553 -44.7099 292.76 106 169 149
48.0564 -29.5784 306.03 88 148 130
47.2136 -29.9582 305.367 168 236 205
45.1565 -27.8004 306.393 83 148 122
42.2682 -65.5228 276.707 77 135 130
41.5112 -37.537 290.011 135 155 190
40.7638 -38.3837 289.291 180 214 238
40.6781 -37.8863 289.713 199 220 248
40.3823 -38.3423 289.191 185 213 243
40.1606 -47.1516 289.366 184 233 255
38.4444 -37.1987 290.081 176 210 233
38.2078 -37.7307 289.634 135 157 199
37.7383 -36.879 290.33 139 148 181
38.9577 -59.6143 281.306 212 243 242
38.9847 -54.625 285.181 224 255 255
36.7859 -36.4774 290.625 178 209 242
36.2102 -36.3237 290.712 146 158 200
35.5983 -36.2743 290.648 115 107 172
35.413 -37.5888 289.774 138 157 202
36.4245 -58.9741 281.655 237 252 255
34.385 -38.5073 289.136 175 203 233
34.0097 -37.4825 289.916 160 165 196
33.8786 -33.8718 292.74 136 144 173
34.217 -53.8663 285.435 124 180 175
32.4046 -46.7111 282.201 176 203 240
33.9245 -68.8732 273.966 167 216 230
31.3418 -43.3722 286.69 154 221 255
31.005 -49.0582 281.646 182 193 237
30.2845 -36.365 290.652 131 138 171
30.5398 -44.0807 285.732 115 122 201
31.8188 -60.4415 280.214 162 202 221
31.8068 -61.055 279.747 213 245 240
29.503 -25.2552 300.114 177 236 255
29.5934 -38.0192 289.443 158 172 208
29.1983 -28.115 296.695 183 231 255
29.54 -50.1454 280.464 64 87 167
28.9269 -38.253 289.335 205 231 255
28.8344 -38.2767 289.236 204 225 252
29.9014 -58.6471 281.414 157 206 208
29.8819 -59.6088 280.693 227 255 254
29.6617 -57.4912 282.394 214 249 245
27.3663 -40.4664 286.3 198 239 255
27.3967 -40.8072 286.238 192 229 255
27.436 -41.2815 285.978 191 233 255
27.1914 -39.8194 286.497 116 155 223
26.935 -36.861 290.268 158 192 246
26.7868 -37.1545 289.822 53 66 142
26.6192 -34.8314 292.551 121 149 214
26.6291 -36.6031 290.755 159 203 255
26.593 -36.2167 291.019 173 201 248
26.4946 -34.7639 292.566 214 239 255
26.3224 -40.8213 285.994 98 127 208
26.2272 -38.4092 288.482 154 206 255
26.0206 -34.3775 292.761 222 244 255
26.018 -34.3858 292.806 222 244 255
25.9394 -39.9317 286.399 130 171 234
25.7953 -36.2052 291.374 165 203 255
24.4438 -42.645 285.509 93 120 206
23.5612 -27.941 296.429 216 250 255
26.082 -62.3762 278.463 88 160 154
23.3502 -28.0073 296.416 96 114 197
26.1154 -64.8736 276.638 189 235 236
25.3506 -56.4839 282.975 137 224 190
22.8775 -28.0027 296.744 104 146 215
22.4057 -42.8614 285.335 86 110 192
21.3742 -28.5024 297.158 120 146 222
24.6194 -70.0816 272.789 61 136 120
23.5329 -66.4924 275.442 224 255 254
23.3701 -66.5602 275.291 144 186 185
20.0487 -29.0696 296.828 198 242 255
22.8101 -71.1523 271.86 193 253 245
19.9147 -43.7937 285.017 203 247 255
17.0526 -24.4193 299.933 218 251 255
16.795 -24.2028 300.163 207 241 255
16.9226 -25.7591 299.272 204 243 255
21.0441 -69.4388 273.175 100 168 157
16.1524 -25.1311 299.798 199 238 255
15.8032 -24.5171 300.128 205 232 255
15.5337 -24.3679 300.186 202 237 255
20.431 -74.7384 268.156 78 143 118
16.3612 -37.0983 290.93 200 241 255
19.4481 -66.8525 273.902 147 234 184
19.502 -67.3357 273.669 76 147 130
16.7519 -42.5614 285.316 211 249 255
18.8143 -64.1665 276.153 118 169 155
18.7511 -65.2665 275.296 87 174 141
19.2515 -70.0198 271.523 51 93 68
20.0325 -77.1267 265.978 209 231 226
19.3959 -72.5565 269.599 252 254 254
19.5568 -75.9651 267.156 54 73 52
19.4444 -74.9531 267.737 242 255 252
19.2996 -74.4769 268.125 233 245 247
18.5836 -70.8026 271.105 163 230 209
19.0987 -76.2461 267.12 70 153 115
14.7518 -38.971 288.423 163 191 251
18.1781 -69.7083 271.86 81 147 135
14.6282 -42.3381 285.385 219 250 255
17.0997 -66.5495 274.189 226 242 241
15.7924 -62.5091 277.555 94 129 119
16.2286 -66.3022 275.218 150 225 211
17.3558 -74.7526 268.703 65 142 104
14.221 -49.0578 287.884 133 177 200
15.3943 -61.0643 278.686 84 113 104
15.115 -60.1913 279.426 93 114 111
14.6419 -57.3773 281.553 82 167 152
16.3354 -70.3372 272.489 75 154 127
14.4956 -57.9699 281.05 64 107 92
15.9574 -70.5968 272.165 132 216 191
15.0509 -65.4148 275.786 198 238 227
15.0575 -65.8823 275.656 86 166 149
11.9077 -39.9365 287.365 165 207 255
10.2686 -32.2596 300.32 70 168 122
14.637 -65.5794 275.542 94 170 146
14.5237 -65.5001 275.637 168 240 220
10.5573 -37.9957 290.253 70 90 148
10.2419 -37.9878 290.461 89 100 150
14.0186 -68.3815 273.878 71 146 132
13.8897 -69.5606 272.95 74 146 126
7.63303 -42.2501 285.384 113 158 231
7.74413 -49.5905 288.197 178 213 253
6.05857 -36.3333 290.287 62 86 170
7.09885 -44.5793 284.646 112 152 224
3.06568 -30.2455 302.158 217 247 252
9.76631 -77.0911 266.841 97 156 182
1.53045 -32.6319 300.024 121 191 151
4.04528 -49.5092 288.676 93 168 147
5.28463 -55.6182 282.911 118 158 147
5.04135 -55.4001 283.025 135 163 143
2.09555 -38.9451 290.01 183 212 255
2.21363 -39.3694 289.356 159 204 255
1.79694 -40.1466 288.43 150 204 255
1.28146 -39.0125 290.236 71 71 117
3.95427 -57.4972 281.474 127 166 150
3.72545 -57.2461 281.542 115 154 139
1.70273 -45.7249 284.39 204 242 255
-0.181058 -39.1963 290.213 75 90 152
-0.0555189 -52.5776 285.712 37 93 80
-2.15142 -40.243 288.871 167 206 255
-2.46881 -40.0002 289.153 161 205 255
-2.77082 -39.544 289.844 83 97 156
-1.45251 -45.1498 284.513 110 159 233
-2.49098 -52.6545 286.072 35 86 59
-4.58607 -41.5283 287.522 156 209 255
49.2749 -68.2818 274.556 112 177 162
48.9559 -68.335 274.646 43 64 61
50.5973 -53.9934 286.991 83 139 150
47.9722 -68.0137 274.706 74 91 118
46.6998 -63.5195 278.557 156 210 251
47.6896 -37.9854 298.048 80 135 118
47.924 -24.9365 309.463 95 123 117
45.1603 -27.8002 306.398 83 148 122
43.2604 -44.0796 291.925 183 228 255
44.1511 -18.658 314.059 156 211 192
40.1025 -35.5206 291.566 140 155 194
37.1026 -36.0807 290.894 175 220 253
36.8093 -36.7294 290.491 137 151 187
36.77 -36.468 290.565 174 205 238
36.2415 -36.3757 290.591 144 153 196
35.4189 -37.5903 289.788 135 150 196
33.2425 -35.8403 291.083 130 152 194
34.2337 -53.9512 285.493 132 197 188
32.554 -35.5553 291.431 159 172 210
30.5985 -47.9825 281.68 148 186 250
28.1634 -33.9805 292.398 205 240 255
29.8751 -59.6055 280.683 227 255 254
28.9023 -58.8233 281.557 252 254 254
26.8491 -32.5619 293.395 90 126 204
26.9044 -39.9996 286.444 110 144 227
25.615 -73.7369 269.644 77 151 121
21.5763 -29.4048 296.264 113 155 226
23.5478 -76.9692 266.283 65 122 113
22.9076 -73.3218 270.146 52 108 85
18.3686 -25.7204 298.866 138 171 240
22.465 -75.5148 267.771 63 121 110
21.82 -69.6253 273.139 68 143 115
16.8409 -24.966 299.762 116 143 217
15.9583 -38.8748 288.578 168 212 255
19.9202 -76.5108 266.385 214 235 237
15.6479 -49.4009 287.719 226 255 253
17.9056 -68.7382 272.489 69 139 109
15.7945 -62.3849 277.431 83 115 104
15.0602 -59.8041 279.488 69 103 97
15.8252 -66.0073 275.445 95 169 157
14.001 -55.683 282.827 234 255 252
14.92 -65.2845 275.83 209 252 249
13.3295 -72.4849 270.903 150 222 240
7.36275 -49.3046 288.699 124 220 196
1.58299 -32.3907 300.273 49 69 46
1.32033 -33.025 299.872 54 85 58
4.90902 -55.131 283.094 47 75 56
6.07234 -65.1015 275.548 133 183 195
4.5336 -57.8647 280.792 133 173 162
4.53744 -57.8426 280.741 108 148 137
-2.49313 -52.644 286.038 35 86 59
51.6032 -44.0459 294.508 224 239 231
50.433 -49.244 290.538 98 170 157
48.0704 -68.1395 274.908 73 84 116
48.6551 -61.7623 279.968 58 64 69
48.0714 -24.9818 309.679 169 186 182
46.7091 -21.4647 312.095 117 188 168
39.1477 -59.6895 281.203 240 245 246
37.6792 -35.322 291.545 146 163 189
35.6101 -36.2586 290.736 115 107 172
36.6074 -55.2366 284.427 149 188 203
31.5949 -60.5825 280.06 231 244 252
29.3755 -37.5387 289.823 158 170 198
27.4091 -34.4994 292.202 198 230 255
26.8484 -36.007 291.21 152 185 201
26.828 -35.0101 292.644 132 152 199
28.139 -57.7155 281.908 87 149 125
23.2022 -72.7501 270.57 216 239 235
22.5752 -66.2208 275.695 117 177 167
21.8155 -69.6427 273.161 57 134 106
21.3702 -73.6403 269.311 98 103 101
19.1911 -70.0575 271.569 60 89 73
18.2962 -63.4355 276.743 60 132 109
17.6818 -66.3365 273.992 85 142 121
14.7648 -65.5424 275.692 88 160 130
3.14276 -29.3012 302.933 166 182 198
10.3627 -77.3674 266.55 132 193 207
1.81664 -32.7807 299.781 124 224 176
4.88345 -55.1429 283.108 49 79 60
2.55912 -39.401 289.186 156 194 255
3.48641 -57.1297 281.605 49 74 64
49.1137 -61.6246 280.103 130 180 186
48.6544 -61.748 279.946 58 64 69
47.9244 -67.9045 274.56 69 77 94
36.1834 -37.9397 289.48 148 157 190
31.2953 -38.0017 289.378 149 165 202
31.5551 -60.4335 279.901 255 254 255
29.7295 -56.5479 282.868 155 210 201
28.9012 -58.8222 281.073 255 255 254
27.2531 -44.4165 285.133 68 57 83
25.7975 -34.2086 292.685 215 249 255
23.2868 -28.2002 296.412 137 169 234
23.3444 -29.6863 295.625 153 178 242
16.7529 -66.8521 274.261 28 52 40
15.2559 -60.2175 279.504 202 232 233
16.3775 -76.8563 266.756 63 92 83
3.11897 -30.1104 301.753 234 253 255
1.41667 -32.2368 300.392 51 73 49
2.66751 -38.3595 290.257 40 37 39
-0.775122 -34.8253 298.14 58 75 64
3.53029 -57.1048 281.571 47 76 67
