ply
format ascii 1.0
element vertex 1279
property float x
property float y
property float z
property uchar blue
property uchar green
property uchar red
end_header
-1.61725 -1.35864 4.70543 106 132 149
-1.2865 -1.36391 4.6806 22 72 68
-1.11115 -1.37729 4.69892 24 63 65
-2.53118 -1.45451 5.12708 71 80 107
-1.54608 -1.36028 4.69877 29 50 82
-3.15429 -1.29473 4.67359 0 20 52
-1.09773 -1.36808 4.70028 23 68 65
-0.601961 -1.39626 4.73044 164 200 186
-2.77827 -1.4403 5.13021 127 157 182
-2.65206 -1.44077 5.12004 3 22 37
0.448487 -1.60167 5.32759 108 149 144
-2.49539 -1.44513 5.12606 154 170 182
-0.668697 -1.3878 4.73467 81 128 119
-2.88758 -1.4248 5.11279 98 140 159
-0.955621 -1.35474 4.66145 91 134 125
-0.932809 -1.36141 4.69027 76 116 104
-0.7257 -1.37507 4.71304 122 167 150
-2.86351 -1.42532 5.12137 110 147 173
-0.977203 -1.35297 4.67381 95 149 126
-0.65362 -1.37564 4.7175 87 122 108
-1.48877 -1.33028 4.66497 135 173 161
-0.635788 -1.37563 4.72316 92 131 115
-0.554234 -1.37993 4.7273 84 133 113
-2.68888 -1.41887 5.11393 84 118 142
-1.4727 -1.32977 4.67198 93 113 108
-0.742467 -1.36352 4.70249 7 51 28
-0.742742 -1.36197 4.69748 7 51 28
-2.79083 -1.41245 5.1079 132 154 182
-1.41861 -1.3302 4.67247 113 145 134
-1.35282 -1.33622 4.68192 9 38 47
-0.320118 -1.39709 4.77615 90 145 120
-2.87777 -1.40724 5.11202 129 162 171
-1.40552 -1.32534 4.66715 140 188 170
-1.05454 -1.33473 4.66438 82 124 113
-0.622678 -1.36611 4.71758 78 131 111
0.565122 -1.58274 5.34141 92 110 133
-3.10594 -1.26289 4.65645 35 82 134
-2.48964 -1.41472 5.10179 106 117 137
-1.05475 -1.33869 4.68087 112 157 141
-0.887147 -1.34404 4.68838 64 105 90
-2.00243 -1.27093 4.56565 84 101 144
-1.46039 -1.32286 4.68472 119 145 151
-1.14371 -1.32121 4.65409 89 142 115
-2.75446 -1.39949 5.10069 134 157 195
-1.60184 -1.31465 4.68438 138 167 188
-2.63108 -1.40217 5.09932 98 122 142
-2.58106 -1.40067 5.10071 24 46 57
-2.57075 -1.40497 5.10491 140 178 180
-2.47077 -1.406 5.10815 112 139 153
-1.37039 -1.32174 4.68139 110 146 146
-0.947593 -1.32935 4.67567 129 169 158
-0.783296 -1.34434 4.70757 99 144 128
-0.775322 -1.33906 4.68524 88 138 120
-0.318017 -1.37514 4.76403 85 150 125
0.246401 -1.54059 5.26809 111 128 137
-3.08051 -1.24859 4.6468 0 31 54
-2.9962 -1.2451 4.63112 44 81 115
-1.48533 -1.30733 4.66893 0 24 13
-1.40173 -1.30637 4.65808 90 123 119
-0.970443 -1.32195 4.66824 109 155 156
-0.761924 -1.33219 4.68858 78 128 110
-0.337159 -1.37242 4.76057 102 161 133
0.439669 -1.54998 5.29243 99 115 132
-2.61689 -1.3876 5.08535 18 31 45
-1.00036 -1.31629 4.65987 117 171 148
-0.873975 -1.32324 4.66734 99 153 136
-0.76194 -1.33234 4.68819 78 128 110
-0.519854 -1.34932 4.71262 0 40 22
-0.45618 -1.35028 4.71291 83 139 120
0.419814 -1.54215 5.28505 146 162 174
0.51697 -1.55633 5.32155 113 128 144
-1.37504 -1.30528 4.66924 135 156 178
-0.760345 -1.33916 4.72025 87 138 118
-0.689364 -1.33458 4.69727 95 151 130
-2.81475 -1.38301 5.10943 5 45 70
-2.79378 -1.37868 5.1025 28 50 91
-2.7394 -1.38555 5.11001 0 14 40
-0.53406 -1.34341 4.72159 83 150 121
-0.402096 -1.35461 4.74675 99 136 116
-2.78417 -1.38157 5.10982 103 127 155
-1.60741 -1.28646 4.66987 134 146 188
-1.11695 -1.30071 4.66541 98 140 129
-2.41927 -1.37758 5.08204 67 83 96
-1.47877 -1.28206 4.64919 0 47 30
-1.27659 -1.29212 4.65178 18 51 37
-1.12911 -1.29782 4.65448 17 44 40
-0.673645 -1.32185 4.68704 99 151 133
-0.325611 -1.35098 4.75319 98 143 126
-2.55437 -1.36155 5.05492 3 24 45
-0.738438 -1.31605 4.68692 86 131 114
-0.738605 -1.31525 4.68391 83 131 113
-0.519917 -1.32962 4.71287 76 122 100
-0.261993 -1.35078 4.75178 118 161 134
-3.01113 -1.21906 4.62497 101 146 189
-2.78353 -1.36058 5.08814 110 137 157
-1.5118 -1.27884 4.65933 120 167 171
-1.28383 -1.28542 4.65238 135 171 155
-1.13453 -1.28921 4.65196 131 158 149
-0.928714 -1.30327 4.67713 89 144 125
-2.42538 -1.36546 5.08115 166 180 198
-1.50264 -1.27881 4.66519 0 36 38
-0.594576 -1.31513 4.69111 74 111 95
-0.26639 -1.34303 4.76197 81 115 98
0.292457 -1.50008 5.24599 7 21 39
-2.42525 -1.36538 5.08071 166 180 198
-1.48357 -1.27447 4.65714 116 176 168
-1.45941 -1.27634 4.65818 153 186 195
-1.21561 -1.27707 4.63948 27 54 50
-0.624394 -1.30925 4.68778 0 38 22
0.265872 -1.49273 5.23434 101 112 134
-0.914936 -1.29136 4.67265 120 154 144
-2.75517 -1.34902 5.09025 0 26 59
-1.46156 -1.26841 4.6606 135 165 184
-1.36991 -1.26336 4.63015 120 170 158
-1.27087 -1.26922 4.64438 132 169 173
-1.22534 -1.27675 4.66314 113 143 138
-0.857948 -1.28822 4.66672 85 105 106
-0.339828 -1.3327 4.75197 106 150 127
-2.49793 -1.34319 5.06052 106 121 137
-1.51485 -1.26266 4.65209 25 49 71
-0.321773 -1.32948 4.74918 103 147 130
-3.06373 -1.19733 4.62091 119 158 172
-2.90066 -1.19768 4.60206 5 41 71
-2.43801 -1.34764 5.07319 109 131 156
-1.57578 -1.25584 4.65441 107 131 161
-1.77153 -1.06714 4.14656 83 104 156
-1.51659 -1.25614 4.65581 123 150 171
-0.542992 -1.30349 4.7097 117 146 137
-2.48661 -1.33422 5.06035 106 115 135
-2.35042 -1.32894 5.02773 60 77 80
-0.943878 -1.26962 4.653 84 128 122
-0.859398 -1.27863 4.66318 132 156 156
-0.848662 -1.28221 4.68036 134 162 162
-0.255515 -1.32811 4.77528 118 138 139
-1.47438 -1.24921 4.63878 148 194 201
-0.507232 -1.30048 4.71686 69 103 86
0.298026 -1.46645 5.21722 77 114 128
-2.77496 -1.32534 5.07681 136 150 172
-2.52459 -1.32612 5.06175 86 101 117
-1.20516 -1.24978 4.62351 0 42 33
-1.10761 -1.25927 4.64901 165 206 215
-0.314224 -1.30873 4.74053 117 137 132
-0.53338 -1.28783 4.70403 59 86 82
-0.26654 -1.3118 4.75271 76 109 95
-2.57218 -1.3205 5.06222 22 38 54
-1.35773 -1.24187 4.64123 120 149 158
-0.654045 -1.27435 4.67017 86 132 120
-0.656902 -1.26566 4.655 111 163 146
-2.5734 -1.3063 5.05574 127 155 166
-2.40238 -1.31554 5.04732 119 138 151
-1.36009 -1.23646 4.63773 114 140 157
-0.549318 -1.27696 4.69073 90 129 113
0.450668 -1.46257 5.2552 74 94 112
-1.10096 -1.23856 4.62851 128 177 179
-0.528801 -1.27456 4.69408 8 44 32
-0.479744 -1.27665 4.69559 119 180 152
-2.5737 -1.30459 5.0566 118 146 163
-1.48109 -1.22448 4.6257 5 36 39
-1.41398 -1.22235 4.62166 7 56 48
-1.08761 -1.23297 4.62501 128 177 169
-0.840644 -1.25554 4.66784 98 136 138
-2.73924 -1.28918 5.03574 95 112 138
-2.4542 -1.29913 5.03876 106 130 150
-1.49678 -1.22077 4.64047 144 178 168
-1.39241 -1.21887 4.61416 152 192 187
-0.788201 -1.24772 4.65778 106 143 141
-2.37089 -1.2989 5.03779 171 187 203
-1.4813 -1.21896 4.64808 11 44 47
-1.20165 -1.22292 4.6135 9 40 33
-1.01091 -1.23567 4.63886 111 149 143
-0.610787 -1.25295 4.65821 97 156 128
-0.397548 -1.27446 4.71065 102 154 130
-0.254142 -1.29145 4.76937 162 176 198
0.231466 -1.41971 5.18572 91 117 147
0.436331 -1.44158 5.23389 87 113 127
-1.25041 -1.21279 4.60872 112 159 150
0.690984 -1.93006 5.19103 116 146 195
0.850113 -1.34984 4.86879 12 45 94
0.858754 -1.3481 4.8638 170 200 249
-2.61021 -1.27922 5.03748 140 166 202
-0.696737 -1.2403 4.65219 106 169 143
-2.94506 -1.14264 4.5809 0 41 82
-2.32931 -1.28528 5.03458 94 107 121
-2.44946 -1.28201 5.04413 111 140 154
-2.44932 -1.28173 5.04365 111 140 154
-0.857098 -1.22652 4.6457 33 70 78
-2.39365 -1.27893 5.04052 106 121 140
-1.48159 -1.19491 4.61934 0 43 29
-1.06663 -1.20298 4.60068 5 56 36
-0.930712 -1.22166 4.65267 23 44 71
-0.503827 -1.24494 4.67965 77 128 101
-2.50833 -1.26865 5.03197 13 34 49
-0.268768 -1.26778 4.7499 100 123 139
0.269317 -1.3997 5.18239 7 31 51
0.483625 -1.42491 5.24655 84 97 119
-2.59884 -1.26548 5.04365 141 165 193
-1.47561 -1.18654 4.6213 58 98 87
-1.38579 -1.18735 4.61076 11 61 57
-0.59539 -1.22652 4.65515 90 140 122
-0.368568 -1.24987 4.71871 98 139 124
-0.344328 -1.24969 4.70716 111 145 138
0.305456 -1.40284 5.19819 99 120 135
-2.32103 -1.27074 5.03444 131 155 177
-1.21185 -1.19552 4.61581 125 157 170
-0.844693 -1.21129 4.63956 0 51 44
-0.678455 -1.22082 4.65077 76 125 105
-0.665859 -1.22333 4.65869 97 148 128
-0.5946 -1.22861 4.6643 99 149 131
-0.486919 -1.22927 4.66457 96 155 124
-0.379525 -1.25054 4.713 8 29 31
-0.368931 -1.24998 4.71593 134 169 155
0.247423 -1.38706 5.16025 96 126 143
0.277555 -1.39542 5.18095 91 118 132
-2.4209 -1.26206 5.02747 158 179 194
-1.47281 -1.1779 4.59392 0 41 28
-1.46814 -1.18076 4.60806 90 135 119
-0.94551 -1.20123 4.62441 22 66 67
-1.09979 -1.1841 4.58482 100 142 135
-0.820658 -1.21115 4.6471 162 191 200
-1.49811 -1.17639 4.61447 105 142 146
-0.862894 -1.19885 4.62551 105 145 144
-0.723647 -1.2062 4.64246 0 50 23
-0.467721 -1.22589 4.68121 68 124 95
-0.304933 -1.23973 4.72017 92 111 118
0.289509 -1.38226 5.17837 84 115 124
-1.25968 -1.16765 4.57712 10 59 45
-1.00213 -1.18927 4.62152 103 145 138
-0.843136 -1.20479 4.64828 33 56 64
-0.404446 -1.23004 4.70082 119 158 150
0.231692 -1.379 5.17934 91 112 127
-0.848466 -1.19291 4.62822 129 169 167
-0.656313 -1.20572 4.64735 1 29 29
-0.64053 -1.21104 4.66772 75 126 106
-0.36481 -1.23258 4.7132 116 167 153
-0.293113 -1.2395 4.71533 18 47 56
-1.30446 -1.16513 4.58805 0 47 29
-0.34752 -1.2291 4.70509 102 167 146
-0.860079 -1.18506 4.6156 118 178 167
-0.666606 -1.20001 4.64656 130 162 167
-0.475679 -1.2094 4.66294 94 145 117
-0.995975 -1.17544 4.61245 15 49 48
-0.628095 -1.19675 4.64481 115 174 154
-1.47238 -1.15565 4.60445 0 50 36
-1.09398 -1.16402 4.58614 92 142 132
-0.783659 -1.18461 4.62943 122 178 157
-2.32358 -1.23358 5.01995 94 117 133
-1.83579 -1.10975 4.48627 81 101 158
-0.715308 -1.17983 4.62286 84 115 108
0.275322 -1.35926 5.18527 83 103 128
0.543804 -1.3804 5.23615 98 126 156
0.726549 -1.26789 4.80109 16 41 83
0.749726 -1.27046 4.81135 36 51 83
-2.7899 -1.0846 4.54704 0 37 62
-0.998515 -1.15695 4.59792 107 147 135
-0.760814 -1.1724 4.61751 86 131 115
-0.56422 -1.18304 4.64407 88 141 121
-0.459211 -1.19119 4.66292 114 160 141
0.468225 -1.35776 5.19423 87 105 122
-1.25417 -1.14801 4.60212 125 158 161
-1.11506 -1.139 4.56691 40 57 83
-0.577968 -1.18267 4.65676 102 150 132
-0.344579 -1.20194 4.70147 154 168 191
0.890172 -1.27596 4.83774 9 47 101
-2.31956 -1.21683 5.01542 94 118 130
-0.679133 -1.17413 4.65527 134 165 158
-0.611643 -1.18237 4.65707 44 73 70
0.421668 -1.35229 5.19466 85 99 117
-2.63891 -1.20063 5.01264 124 144 169
-2.26694 -1.20955 5.00062 127 153 160
-0.854719 -1.15399 4.59825 138 175 173
-0.661237 -1.17575 4.65939 96 132 120
-0.506961 -1.17715 4.64878 123 164 157
-1.08864 -1.14075 4.59562 145 159 182
-0.849724 -1.1504 4.61385 42 71 85
-0.671278 -1.16867 4.64687 7 41 31
-0.650098 -1.17105 4.65052 100 141 134
-0.628221 -1.1738 4.6597 135 173 161
0.545927 -1.35786 5.22761 118 142 160
-0.588497 -1.16978 4.65173 99 154 139
-0.849997 -1.14831 4.60545 18 46 57
-0.737293 -1.15535 4.62865 92 129 125
-2.64774 -1.18026 5.00688 119 138 153
-2.6082 -1.18818 5.01449 105 129 151
-1.20853 -1.12276 4.58003 86 119 135
-0.827425 -1.14334 4.60603 18 54 54
-0.649133 -1.16087 4.64845 98 145 142
-0.53913 -1.15976 4.632 104 156 133
-0.535758 -1.16812 4.66593 76 123 101
-0.343875 -1.18247 4.69888 17 34 60
0.312842 -1.31908 5.15762 104 122 133
0.358148 -1.32588 5.16879 101 127 139
-2.39423 -1.18046 4.9878 106 139 158
-1.80168 -1.07356 4.46755 96 116 157
-1.04185 -1.12754 4.58553 22 57 70
0.556473 -1.34139 5.22212 92 107 126
-2.64524 -1.17719 4.99922 113 135 147
-2.65101 -1.18138 5.01674 101 122 137
-1.04727 -1.12424 4.5824 127 160 175
-0.82586 -1.14267 4.6224 25 57 63
-0.717811 -1.14905 4.63776 121 152 155
-0.487545 -1.16143 4.66338 102 161 141
-0.440327 -1.16294 4.65857 114 160 147
-2.44023 -1.17568 4.98179 10 27 66
-2.38594 -1.18303 4.98476 16 50 66
-2.3616 -1.17585 4.98243 118 152 168
-0.582732 -1.15264 4.64005 105 163 145
-0.353709 -1.17128 4.68534 101 138 146
-2.61098 -1.17413 5.01529 7 28 59
-2.39107 -1.17609 4.9764 112 148 164
-0.479016 -0.526828 1.57076 89 113 141
-1.25522 -1.11259 4.58616 135 153 184
0.408115 -1.32301 5.19254 64 76 94
0.419607 -1.31855 5.18372 16 26 44
-2.88636 -1.03917 4.53006 120 160 155
-2.44955 -1.17031 4.97852 139 153 195
-2.25527 -1.17104 4.96235 21 28 43
-0.650295 -0.696769 2.11202 105 128 176
-0.869703 -1.12323 4.5928 129 170 173
-0.548709 -1.14365 4.638 108 164 143
0.432902 -1.31392 5.17524 91 105 124
-2.59653 -1.16398 4.99888 105 137 160
-0.691004 -1.1393 4.63078 4 33 30
-0.509842 -1.14395 4.64259 126 173 157
-0.448426 -1.14893 4.64744 144 191 182
-0.486984 -1.14188 4.64664 117 151 150
-2.25185 -1.16443 4.97635 152 168 184
-2.20851 -1.16125 4.96061 100 125 141
-0.568806 -1.13567 4.63493 85 119 118
-0.525627 -1.14408 4.6542 4 41 37
-0.50461 -1.1414 4.64989 0 44 34
0.214411 -1.28491 5.13551 82 102 127
-2.40338 -1.15479 4.97299 94 135 138
0.585519 -1.31763 5.2179 107 133 140
-2.47903 -1.14374 4.96941 128 153 163
-2.34943 -1.14437 4.95361 114 133 148
0.205024 -1.27081 5.11138 10 35 51
-2.53958 -1.13987 4.96744 22 51 82
-2.19808 -1.14984 4.96547 110 134 140
-1.14044 -1.06286 4.46716 46 78 131
0.4969 -1.29206 5.17451 14 36 54
0.43627 -1.28006 5.14809 96 122 139
-2.87767 -1.00614 4.51814 114 158 181
-2.55262 -1.12987 4.96558 109 143 159
-2.87546 -1.00412 4.51279 114 163 185
-6.23934 10.9684 -32.8245 24 49 83
-2.31048 -1.12678 4.95651 140 160 178
-2.19451 -1.12731 4.93658 96 121 147
-2.34027 -1.11893 4.93955 131 152 160
0.392395 -1.2583 5.14026 111 128 155
0.910248 -1.13435 4.56802 185 225 244
-2.57822 -1.10623 4.94686 150 154 178
-2.34755 -1.11142 4.94344 17 43 55
-2.1714 -1.11589 4.93337 107 123 152
-1.73805 -1.01031 4.43698 88 100 154
0.406659 -1.24891 5.1236 95 109 131
-2.39102 -1.10761 4.94275 148 166 183
-0.557202 0.255798 -1.95228 107 140 160
-2.771 -0.98272 4.49868 3 36 69
-2.3348 -1.0922 4.91874 151 165 194
-4.73595 -3.33903 8.3388 20 51 76
-2.49944 -1.09019 4.93432 162 192 203
-2.27867 -1.09198 4.92285 125 163 168
-2.19152 -1.10012 4.93445 116 132 155
-2.54079 -1.0887 4.94059 174 197 193
0.300113 -1.22696 5.12385 149 165 182
-2.3286 -1.0879 4.91532 157 182 202
-1.68582 -0.991641 4.42719 83 109 146
-2.52009 -1.07398 4.94332 161 184 199
-2.49733 -1.07678 4.94903 133 143 173
0.379564 -1.21142 5.11936 82 97 113
-2.26838 -1.06635 4.88593 69 88 91
-2.47535 -1.061 4.91771 31 42 72
-2.39736 -1.06295 4.89869 86 125 123
-2.12305 -1.07356 4.91132 125 151 175
-2.33719 -1.06492 4.91621 0 26 39
-2.12118 -1.07105 4.9031 130 155 181
-2.18369 -1.06191 4.91938 120 145 171
0.584917 -1.21776 5.17002 88 107 122
-2.48319 -1.04997 4.92189 109 126 153
-2.4214 -1.04902 4.90055 95 137 149
-2.10906 -1.05494 4.90323 86 116 133
-0.126172 -1.03486 4.5236 12 39 76
-2.78594 -0.929876 4.47632 35 63 97
-2.46993 -1.04386 4.91697 116 151 161
-2.16734 -1.04819 4.89091 15 44 71
0.499951 -1.19235 5.13264 94 112 129
0.535652 -1.20064 5.16144 92 111 132
0.887208 -1.11954 4.75551 21 56 96
-2.32295 -1.04035 4.90091 86 107 135
-2.21686 -1.04702 4.89616 92 122 149
-2.20399 -1.04401 4.89873 23 50 84
-2.47906 -1.03462 4.91371 110 138 155
-2.41792 -1.04093 4.91369 114 154 152
-2.23426 -1.04523 4.91121 6 27 59
-2.20324 -1.04348 4.89572 23 50 84
-2.4657 -1.03151 4.90842 0 27 36
-2.44744 -1.03047 4.89467 98 130 135
-2.14758 -1.03679 4.89474 141 172 197
-1.50308 -0.943998 4.40455 29 57 91
0.351997 -1.16903 5.10656 114 129 145
-2.22521 -1.03016 4.88872 128 156 190
-2.22424 -1.03077 4.88491 109 136 170
-2.07975 -1.03355 4.89042 97 120 135
-2.44706 -1.01987 4.90256 20 33 41
-2.07363 -1.02667 4.86262 113 129 146
0.550148 -1.17381 5.133 83 106 114
-2.731 -0.912697 4.47201 28 58 77
-2.29006 -1.01717 4.88748 10 28 57
-2.22531 -1.02107 4.90164 10 25 58
-2.19665 -1.01853 4.89159 25 50 84
-2.14424 -1.01798 4.8857 150 174 192
0.359867 -1.15102 5.09506 81 113 112
-1.65626 -0.921813 4.3953 127 143 180
0.504504 -1.15843 5.12285 180 198 209
-2.19935 -1.01945 4.90253 35 55 90
-2.212 -1.00746 4.88732 144 164 199
-2.15565 -1.00516 4.86918 4 33 64
-2.16306 -1.00064 4.8867 94 123 154
0.303925 -1.12153 5.08608 81 93 121
-2.40214 -0.979722 4.87014 136 166 161
-2.1555 -0.984328 4.85203 17 33 62
-2.2192 -0.982503 4.87141 116 124 154
-2.17624 -0.980545 4.84717 17 37 68
0.2344 -1.10489 5.05259 87 108 130
-2.32517 -0.968937 4.8599 4 25 47
-2.20366 -0.9766 4.86886 158 176 207
-2.18957 -0.969347 4.84719 154 176 204
-1.34484 -0.897736 4.37445 105 135 194
-2.39791 -0.96302 4.86539 7 27 68
-2.36158 -0.959151 4.85473 132 169 183
-1.3914 -0.888796 4.37682 102 138 192
0.358998 -1.1017 5.07731 83 93 111
0.480221 -1.09579 5.07481 237 239 247
-2.3324 -0.950681 4.84619 117 153 171
-2.21749 -0.958292 4.85815 150 178 208
-2.07783 -0.955619 4.84376 137 153 190
-2.07113 -0.95429 4.83598 133 160 181
-1.99739 -0.96197 4.8411 74 100 107
-1.39235 -0.879989 4.37519 14 36 71
0.480341 -1.09486 5.07524 224 238 232
0.545146 -1.10289 5.09976 176 191 210
-2.26164 -0.950954 4.85645 2 30 54
0.425121 -1.08758 5.07265 95 112 121
0.512243 -1.09346 5.09341 104 118 140
-2.13857 -0.94853 4.8391 170 191 213
0.265611 -1.06983 5.03593 90 127 141
-2.12793 -0.941532 4.8299 0 13 30
-2.40685 -0.92493 4.80754 100 137 145
-2.20173 -0.938276 4.83477 95 118 150
-2.11691 -0.941203 4.83838 96 121 141
-1.98477 -0.945699 4.84241 70 87 90
-1.38376 -0.872995 4.3826 75 87 121
-2.01841 -0.940297 4.83611 148 171 187
-2.00782 -0.941691 4.83459 11 39 46
-1.58069 -0.856199 4.3656 106 136 191
0.322469 -1.06605 5.04267 91 114 130
0.442801 -1.07316 5.0731 105 124 137
-1.34875 -0.863845 4.38762 2 23 54
-1.32341 -0.861985 4.36844 0 21 47
-2.27391 -0.922534 4.83831 4 27 65
-2.25558 -0.921542 4.82712 138 173 199
-2.23477 -0.926749 4.84585 125 144 171
0.243673 -1.04838 5.02387 107 138 141
-1.39016 -0.852165 4.35418 123 152 167
-1.27448 -0.856382 4.3573 5 17 45
-2.2487 -0.914996 4.82629 23 50 84
-2.23947 -0.919495 4.83464 0 24 54
-1.5356 -0.845409 4.35918 30 69 121
0.266779 -1.04301 5.02867 102 125 140
-2.22109 -0.910434 4.82838 30 54 90
-2.02044 -0.923538 4.83291 0 16 49
-1.99018 -0.923148 4.83167 124 145 177
-1.97672 -0.918777 4.81144 102 122 153
-1.26849 -0.850701 4.36072 105 113 136
0.24374 -1.03719 5.02038 7 19 37
-2.3375 -0.895084 4.77668 95 105 135
-2.3418 -0.897809 4.79201 84 95 125
-2.30278 -0.902301 4.80324 94 108 144
-1.96035 -0.914516 4.81393 80 101 122
-1.39718 -0.842303 4.36782 88 118 145
-0.0169726 -0.916134 4.48514 76 102 138
-2.32496 -0.896905 4.80552 66 87 118
-2.22253 -0.909169 4.83389 3 24 56
-2.18147 -0.905975 4.80535 102 134 157
-2.01417 -0.913012 4.82553 123 153 178
-1.53799 -0.833712 4.35209 68 114 161
0.612453 -0.964183 4.63078 103 139 193
-2.93441 -0.788104 4.40249 126 144 205
-2.3225 -0.890088 4.7929 119 156 176
-2.24401 -0.894706 4.80198 0 28 59
-2.08772 -0.904703 4.82965 128 151 183
-2.07361 -0.902813 4.81673 0 16 48
-1.38888 -0.841381 4.3964 78 91 99
0.227251 -1.01684 4.9916 107 122 141
0.389251 -1.03608 5.05498 99 116 137
-2.27909 -0.889994 4.80317 16 35 70
-2.05147 -0.897406 4.81341 55 78 116
1.6195 1.84279 -4.53965 102 134 187
-1.21084 -0.838795 4.35099 83 118 161
-2.26332 -0.890691 4.8226 116 149 182
-2.21956 -0.886264 4.80436 18 56 86
-2.21496 -0.896043 4.8236 190 220 245
-2.17757 -0.892026 4.79539 15 39 75
-2.11488 -0.89334 4.81061 108 150 169
-2.09238 -0.891427 4.79098 17 32 64
-0.00442363 -0.897004 4.46807 98 119 157
0.870304 -0.970861 4.68555 10 49 81
-2.11843 -0.894538 4.82577 118 160 172
-2.08709 -0.892731 4.81004 139 161 189
0.407347 -1.02626 5.0514 86 110 134
0.480253 -1.03112 5.05969 107 120 134
-2.26112 -0.87889 4.80601 104 127 165
-2.07379 -0.886834 4.81922 124 148 170
-0.61414 -0.849936 4.38278 95 132 170
-0.568336 -0.857592 4.39813 106 133 159
0.277168 -1.0068 5.01095 124 148 170
-1.92834 -0.887244 4.81596 69 97 104
-1.25704 -0.825523 4.37623 92 107 109
0.557716 -1.0301 5.0939 90 118 129
-2.17311 -0.872584 4.792 121 165 178
-2.01644 -0.882843 4.80782 12 33 64
-1.99443 -0.881256 4.80665 94 133 142
-2.30112 -0.86421 4.79619 129 130 151
-1.27143 -0.820854 4.38677 120 129 143
-1.19208 -0.81759 4.34998 64 82 119
-0.614751 -0.843752 4.39134 3 22 55
-2.1167 -0.870767 4.8016 0 23 40
-2.09278 -0.87036 4.80561 106 120 149
-1.97258 -0.873252 4.79804 95 119 141
-0.358177 -0.855817 4.41756 8 26 73
-2.22872 -0.859357 4.79667 108 130 148
-2.17951 -0.860471 4.78632 20 50 67
-2.29049 -0.858898 4.80516 107 123 152
-2.11576 -0.861605 4.79452 119 155 163
-2.03758 -0.861821 4.7916 107 128 150
0.532124 -1.00748 5.06129 107 129 147
-0.62202 -0.833213 4.38416 77 98 119
-2.26864 -0.856035 4.80638 127 132 171
-2.14569 -0.854955 4.79197 141 152 179
-2.10097 -0.855098 4.79705 96 118 143
0.205124 -0.973271 4.97514 106 122 121
0.328349 -0.980715 4.99731 111 142 151
0.328334 -0.980761 4.99725 111 142 151
-2.2272 -0.848671 4.79389 33 45 85
-2.16482 -0.847349 4.7727 71 97 113
-2.10714 -0.849668 4.78572 7 40 66
-0.696852 -0.820422 4.36712 87 113 150
-0.560331 -0.826663 4.38242 125 138 160
-2.00891 -0.855383 4.80505 61 77 106
-0.648567 -0.817959 4.36638 56 92 122
-2.1243 -0.84379 4.77927 136 169 184
-0.546122 -0.822742 4.38069 98 128 163
-2.23694 -0.839585 4.7944 127 147 172
-2.00594 -0.845385 4.79162 163 187 217
-1.94367 -0.850665 4.79646 122 140 163
-0.493541 -0.821694 4.37842 3 21 44
-2.55401 -0.742155 4.37885 37 61 103
-2.18589 -0.829714 4.76094 16 53 73
-2.18853 -0.831286 4.77152 5 36 57
-2.13859 -0.83542 4.76654 105 125 142
-2.13657 -0.83897 4.79126 3 26 48
-1.89353 -0.84762 4.79027 98 122 140
-0.226775 -0.835593 4.42841 0 14 58
-2.55374 -0.742165 4.37811 37 61 103
0.305813 -0.959014 4.98981 100 121 136
-2.02738 -0.834636 4.78276 129 139 169
0.287546 -0.955485 4.98352 77 92 111
0.373269 -0.963423 5.00573 80 97 124
-1.96236 -0.835432 4.78927 165 191 207
0.431709 -0.960091 5.01712 81 102 124
-2.93143 -0.72017 4.38172 105 130 180
-0.0389153 -0.834471 4.44131 88 118 153
0.503339 -0.965762 5.03847 89 100 122
-2.18481 -0.810554 4.76398 14 28 51
-1.88134 -0.823671 4.7686 115 134 167
-1.86655 -0.826097 4.77194 110 144 157
0.233425 -0.934305 4.96697 76 103 117
-2.92212 -0.710401 4.37348 23 54 85
-2.03039 -0.814597 4.75936 6 19 41
0.44775 -0.949683 5.01962 107 125 142
0.510156 -0.956169 5.03925 91 104 126
-2.4937 -0.712141 4.35379 32 66 102
0.436835 -0.936658 5.01281 107 131 149
-2.23789 -0.794001 4.76298 135 156 183
-1.8539 -0.811881 4.77419 96 125 139
0.37218 -0.923966 4.98871 96 109 131
-2.07748 -0.791865 4.75635 137 167 184
-1.99407 -0.79409 4.74924 0 21 45
-1.96628 -0.796546 4.75036 0 16 28
0.504921 -0.93017 5.02188 88 109 124
0.522142 -0.933075 5.02358 102 126 148
-2.0136 -0.788803 4.74531 8 18 36
-2.07756 -0.788433 4.77019 21 39 68
-2.0539 -0.783369 4.75286 122 150 174
-2.04122 -0.781371 4.75395 4 19 45
-2.08334 -0.772754 4.72767 143 176 196
-1.81234 -0.782119 4.73768 104 139 153
0.23564 -0.89233 4.93499 85 97 115
-2.51658 -0.686566 4.35697 174 225 245
-1.81422 -0.779841 4.74874 77 107 118
-1.98635 -0.765963 4.7415 158 179 206
-1.96042 -0.763433 4.7367 7 37 48
-1.99628 -0.760516 4.73789 26 57 90
-1.92252 -0.751387 4.74897 109 142 175
0.482573 -0.881768 4.99041 96 106 123
-2.166 -0.737555 4.72748 147 161 180
-1.9209 -0.748758 4.74053 100 132 167
-2.02233 -0.740208 4.73219 21 43 68
-2.01422 -0.740624 4.73431 110 134 162
-1.79579 -0.750801 4.73491 67 75 82
0.274635 -0.853365 4.91495 102 124 129
0.505488 -0.8686 4.96046 113 139 139
-2.13389 -0.730297 4.72563 13 28 61
0.849093 -0.817032 4.60089 16 29 85
-2.16277 -0.729816 4.73439 19 40 71
-2.13504 -0.730733 4.73039 13 28 61
-1.9812 -0.733491 4.71572 3 32 77
0.471007 -0.86787 4.99552 82 107 123
-1.84868 -0.733345 4.70594 75 95 112
-1.78261 -0.738453 4.734 129 160 159
0.243127 -0.84028 4.9172 103 119 126
-2.52937 -0.641037 4.33977 72 100 160
-1.92506 -0.729824 4.73214 96 130 173
-1.88567 -0.734069 4.73053 111 151 176
-1.88575 -0.733087 4.73086 116 154 178
-2.02036 -0.719915 4.72084 121 154 174
0.425998 -0.845526 4.96869 94 109 128
-2.15324 -0.712421 4.72502 14 42 77
-2.09912 -0.714681 4.72857 105 126 153
-1.94039 -0.720748 4.71683 0 15 47
0.45736 -0.850712 4.97582 33 49 66
0.465695 -0.845158 4.95878 90 105 137
-2.01039 -0.70794 4.69135 15 37 79
-1.79839 -0.724602 4.73199 95 109 137
-1.77935 -0.721833 4.72521 105 124 145
0.251045 -0.827241 4.91745 82 95 109
0.446467 -0.839682 4.96866 132 151 159
-2.0812 -0.707378 4.72036 13 36 74
-1.96843 -0.707442 4.69855 4 23 58
-1.94747 -0.712465 4.71159 127 161 177
-1.85833 -0.714113 4.71832 94 110 126
0.310803 -0.827177 4.92039 87 116 113
-1.05519 -0.215122 2.45176 111 139 169
0.166664 -0.808687 4.86401 118 145 142
0.227863 -0.81897 4.92219 87 103 119
0.288479 -0.822716 4.92077 99 113 125
-0.483833 1.45208 -5.93799 117 137 148
0.475735 -0.833494 4.96408 88 112 134
-2.08059 -0.70082 4.72209 120 144 174
-2.05389 -0.697578 4.71862 124 148 166
-1.87714 -0.708248 4.71334 88 115 136
-2.03984 -0.69597 4.70035 23 46 61
-1.93988 -0.698977 4.70508 14 16 40
0.462984 -0.824978 4.95329 23 45 57
-2.08819 -0.69295 4.71262 0 17 54
-1.87375 -0.700666 4.71195 13 34 55
-2.05067 -0.692106 4.70395 111 134 150
-1.8871 -0.694955 4.71482 152 156 184
-2.02226 -0.691756 4.72524 138 154 190
-2.39771 -0.604576 4.29248 32 68 84
0.244534 -0.800804 4.90996 133 146 162
-2.7781 -0.589731 4.3123 142 162 217
-1.9378 -0.682139 4.68451 122 133 165
-1.81799 -0.690805 4.7143 117 125 154
-1.91992 -0.681747 4.70879 145 155 195
-1.85692 -0.678277 4.68704 104 135 166
-2.41772 -0.590999 4.28037 110 158 164
-2.00194 -0.673441 4.70499 78 107 128
0.461526 -0.79744 4.94346 96 119 135
-1.84033 -0.66913 4.6932 128 148 173
-1.77307 -0.671762 4.69918 18 46 76
-1.76062 -0.672739 4.69378 105 143 167
0.475372 -0.787434 4.94148 90 121 142
-1.89873 -0.662745 4.68458 96 130 153
-1.85426 -0.660526 4.6711 117 148 181
-1.80109 -0.669869 4.71003 90 111 126
-1.70089 -0.665681 4.67396 61 88 114
-1.94105 -0.656105 4.68807 97 118 156
-1.93272 -0.65978 4.69133 6 23 62
-1.91145 -0.658893 4.69314 0 26 49
-1.85112 -0.659797 4.68934 17 35 66
-1.74525 -0.66254 4.67484 0 32 44
-1.70206 -0.666971 4.68174 61 82 104
-1.92114 -0.65603 4.70013 98 132 155
-1.811 -0.660854 4.7022 114 142 153
-1.78002 -0.662203 4.69491 116 149 175
-2.74479 -0.560326 4.3045 118 150 186
0.299888 -0.76402 4.89555 84 103 118
-1.95713 -0.646662 4.67958 126 148 183
-2.36616 -0.563215 4.27171 97 153 148
-1.95126 -0.644051 4.69235 12 33 71
-1.78492 -0.651091 4.69026 42 67 101
-1.9404 -0.639071 4.67821 150 171 216
-1.90378 -0.642208 4.67848 6 47 70
-1.68913 -0.652019 4.68665 92 96 120
0.454661 -0.767525 4.93211 139 151 169
-2.41773 -0.556061 4.27184 19 64 78
-1.80422 -0.641929 4.69041 31 54 80
-1.97041 -0.626414 4.65105 27 29 77
-1.75282 -0.6374 4.67433 120 159 187
-1.73541 -0.63862 4.68642 89 113 137
0.243564 -0.738932 4.87196 115 143 167
-1.93562 -0.627646 4.66665 35 66 105
-1.81169 -0.632578 4.6788 145 167 203
-1.67923 -0.640523 4.68582 94 108 126
-1.97653 -0.619891 4.65602 159 166 209
-1.94189 -0.620865 4.66572 115 151 189
-2.40716 -0.544301 4.28975 104 148 149
-1.95394 -0.618815 4.67288 39 67 114
-2.33839 -0.545681 4.27375 17 44 71
-1.75087 -0.624666 4.66847 0 17 44
0.476726 -0.742823 4.91981 90 116 128
-1.64743 -0.622309 4.6635 63 72 85
-2.41448 -0.534667 4.28379 30 58 82
-1.81893 -0.614601 4.66761 105 126 157
0.459219 -1.41502 3.83534 97 126 165
-1.9914 -0.605383 4.66637 117 140 162
-1.91076 -0.602997 4.63269 10 40 75
-1.79744 -0.612893 4.67229 30 56 80
-1.75279 -0.616696 4.67754 121 154 170
-1.68548 -0.617143 4.67435 94 110 133
-1.94798 -0.600309 4.64454 155 193 225
-1.91556 -0.605258 4.65698 53 76 108
-1.89932 -0.60344 4.64672 150 184 207
-1.88511 -0.603373 4.65924 107 131 153
-2.37555 -0.526222 4.27648 83 117 133
-1.78664 -0.607043 4.66039 32 57 83
0.3775 -0.717697 4.89067 109 132 148
-2.33263 -0.525728 4.2764 102 121 154
-1.99624 -0.596697 4.65724 5 9 44
-1.95407 -0.594898 4.62357 33 49 86
-1.93139 -0.596921 4.65035 4 31 65
-1.89015 -0.598836 4.64827 0 25 46
-1.88724 -0.603558 4.67031 101 119 142
-1.82118 -0.602303 4.66824 174 195 216
-2.33937 -0.521753 4.26764 87 88 126
-1.86063 -0.597404 4.66253 134 153 174
0.818564 -0.674326 4.52672 33 63 122
-1.94678 -0.586524 4.62712 141 174 194
0.518282 -0.71583 4.91624 95 112 125
-2.34243 -0.521007 4.27724 143 145 185
-1.99439 -0.584346 4.64472 167 190 212
-2.38246 -0.516612 4.27525 16 64 82
-1.88131 -0.579593 4.63618 82 105 137
-2.36389 -0.503442 4.25789 25 46 84
-2.34608 -0.505026 4.2703 27 48 76
-1.88961 -0.570448 4.63134 12 42 69
-1.62309 -0.583767 4.65829 111 126 142
-2.37086 -0.497048 4.26026 21 37 79
-1.99635 -0.565875 4.63521 114 138 160
0.109 -0.666741 4.81428 111 128 137
-1.95209 -0.560429 4.64094 93 116 142
-1.88313 -0.560131 4.62982 133 161 191
-1.64553 -0.568267 4.62254 111 134 166
-1.63837 -0.569351 4.63553 20 40 58
-1.63245 -0.573523 4.64785 156 179 195
0.108215 -0.653517 4.80543 141 160 173
1.31982 -0.647531 4.42757 136 162 174
-1.64779 -0.557843 4.62386 31 68 94
-1.94572 -0.546536 4.6316 94 133 147
-1.76776 -0.555734 4.64643 20 38 79
0.508893 -0.673034 4.89848 208 218 235
-1.93254 -0.538934 4.61524 5 40 43
-1.82268 -0.549221 4.62441 0 21 33
-1.6009 -0.555881 4.63475 11 20 29
-1.74514 -0.551141 4.6383 96 125 146
-1.88316 -0.535379 4.60678 0 27 47
-1.8225 -0.537617 4.6128 97 123 147
-1.65325 -0.548251 4.62765 73 107 130
-1.63192 -0.549565 4.63125 109 118 138
-1.58802 -0.552226 4.62 79 87 94
-1.91318 -0.534332 4.61047 6 33 59
-1.68439 -0.543092 4.61896 102 140 164
-2.2219 -0.468544 4.22372 9 30 75
0.263433 -0.640225 4.84046 102 121 134
-1.88168 -0.531676 4.59881 21 55 91
-1.90968 -0.524663 4.61368 14 44 85
0.493834 -0.647085 4.88871 105 120 139
-1.9177 -0.519077 4.60244 153 186 205
-1.87291 -0.516689 4.59231 124 162 197
-1.74663 -0.527481 4.61991 21 48 74
-1.74882 -0.529191 4.63349 3 24 52
-1.73562 -0.530411 4.627 113 130 151
-1.68208 -0.531754 4.61776 5 27 45
-2.25505 -0.455554 4.22191 102 149 146
-2.2557 -0.455765 4.2241 102 149 146
-1.69933 -0.524015 4.6166 100 112 148
-2.21955 -0.449523 4.20331 31 52 79
-1.9071 -0.513931 4.60959 114 136 172
-2.22391 -0.45096 4.21831 33 53 88
-1.91105 -0.508327 4.5938 16 40 64
-1.83724 -0.510564 4.5861 140 168 198
-1.83839 -0.511407 4.59241 140 168 198
-1.59248 -0.522925 4.61395 131 144 160
-1.33581 -0.5315 4.59422 97 108 138
-1.33615 -0.532324 4.59887 97 108 138
-1.68991 -0.516525 4.61135 5 16 36
-1.3179 -0.526443 4.60053 96 127 166
-1.29789 -0.528092 4.60403 68 83 102
-2.64991 -0.424996 4.2339 46 95 127
-1.58823 -0.511931 4.60883 7 19 37
-1.90004 -0.498752 4.5904 112 151 153
-1.79419 -0.503589 4.60116 15 43 78
-1.5382 -0.511601 4.60829 90 120 145
-1.33659 -0.516583 4.59049 121 133 173
-1.54109 -0.512535 4.63277 75 95 112
-1.41233 -0.506172 4.56742 67 74 89
-1.31664 -0.510872 4.59879 13 36 51
-1.2908 -0.514094 4.60944 112 124 142
-2.62427 -0.412975 4.2282 133 173 215
-1.55891 -0.501503 4.61411 127 155 186
-1.30654 -0.508685 4.60118 82 97 116
0.424745 -0.598775 4.82545 0 47 27
-2.26621 -0.42525 4.22549 180 202 227
-1.60899 -0.491449 4.58193 110 124 152
-1.54443 -0.494453 4.60378 104 131 157
-1.39678 -0.496889 4.55818 111 132 163
-1.86912 -0.479563 4.57791 6 27 35
-1.61335 -0.492903 4.61441 107 121 149
-1.34659 -0.497453 4.56693 125 138 176
-2.17975 -0.418927 4.18951 100 136 182
-2.16952 -0.418207 4.19179 0 21 63
-1.76935 -0.48061 4.57602 0 21 40
-1.59533 -0.486032 4.58354 157 175 198
-1.59709 -0.486944 4.59703 153 173 198
-1.35735 -0.493912 4.5643 12 37 69
-1.3296 -0.497813 4.58572 209 218 232
-1.30682 -0.499648 4.59972 5 15 39
-2.61532 -0.402175 4.22978 39 88 126
-1.66225 -0.478707 4.59174 89 108 143
-1.74842 -0.471668 4.57823 47 74 111
-1.67439 -0.470768 4.57166 109 157 163
-1.42801 -0.479958 4.57359 103 124 151
-2.22244 -0.404922 4.20804 34 78 91
-1.4764 -0.479833 4.58713 102 109 142
-1.40799 -0.47929 4.57021 89 104 123
-1.24739 -0.491748 4.62228 104 115 135
-2.26842 -0.404101 4.21982 23 60 110
-1.26162 -0.482235 4.60251 117 134 161
-1.67079 -0.461805 4.56628 32 64 75
-1.47428 -0.470109 4.58096 108 139 160
-1.80442 -0.451356 4.54961 30 62 85
-1.89011 -0.445258 4.55624 104 140 150
-1.58835 -0.461283 4.59765 110 129 156
-1.49448 -0.460183 4.57889 135 156 183
-1.28033 -0.466212 4.59103 102 118 135
-1.65016 -0.44918 4.56049 0 17 37
-1.37945 -0.458271 4.55114 136 171 184
-1.02352 -0.47501 4.58646 222 221 223
-1.66119 -0.44386 4.56994 107 146 161
-1.63944 -0.445405 4.56141 92 106 134
-1.58484 -0.450892 4.58377 19 32 58
-1.29375 -0.463022 4.57544 105 121 138
-0.958437 -0.473691 4.58816 204 201 197
-1.72047 -0.437513 4.53686 152 191 206
-1.60286 -0.448035 4.58965 106 117 147
-1.44766 -0.450014 4.56366 122 155 188
-1.3968 -0.452101 4.5602 128 163 183
-1.36066 -0.450647 4.53686 65 81 98
-1.20657 -0.460922 4.58347 94 110 126
-1.08248 -0.467629 4.58736 212 212 218
-0.97089 -0.470709 4.58623 185 176 179
0.352751 -0.545761 4.79312 85 100 116
-1.70748 -0.433874 4.53761 49 78 105
-1.48756 -0.447137 4.57029 105 129 157
-1.2395 -0.457487 4.58122 24 37 59
-1.07234 -0.464313 4.58728 42 40 52
-0.996567 -0.464185 4.56663 171 174 178
-0.970817 -0.472202 4.59702 196 186 186
-0.94396 -0.463551 4.55692 121 124 122
-0.897258 -0.471375 4.5903 89 104 120
5.32047 -12.7942 41.4299 91 118 145
-1.83637 -0.427149 4.52538 86 124 136
-1.72915 -0.431454 4.53265 20 56 86
-1.66138 -0.435747 4.54742 132 161 176
-1.10943 -0.455955 4.57699 188 181 196
-1.09986 -0.459859 4.58104 208 217 220
-1.01112 -0.463326 4.5919 114 112 111
-0.943839 -0.461856 4.57034 244 248 243
-1.67133 -0.430982 4.54103 11 45 58
-1.03944 -0.457861 4.58639 201 211 205
-0.892978 -0.465169 4.58862 83 100 119
-1.67887 -0.424939 4.52936 148 184 202
-1.46904 -0.43762 4.57089 112 138 174
-1.02066 -0.455539 4.57971 229 226 222
-0.814272 -0.463397 4.59206 133 155 173
-0.800531 -0.468087 4.59143 58 71 87
-2.16802 -0.368465 4.19485 189 216 237
-1.78171 -0.420447 4.55162 139 160 182
-1.75739 -0.420183 4.52279 8 40 63
-1.56734 -0.43202 4.56867 126 145 153
-1.19423 -0.447381 4.58397 133 152 165
-1.15971 -0.450588 4.58568 145 170 186
-1.09943 -0.453815 4.55901 216 219 223
-1.04666 -0.452428 4.58368 105 115 109
-0.994937 -0.456325 4.5803 167 176 179
-1.70306 -0.418345 4.52671 145 178 197
-1.53776 -0.42899 4.57135 147 158 196
-1.33241 -0.433924 4.54779 77 87 105
-1.03889 -0.453377 4.60042 93 91 91
-0.979683 -0.452332 4.57331 196 197 193
-0.76638 -0.462414 4.60772 84 92 105
-0.565993 -0.476858 4.64405 47 50 58
-1.46586 -0.429095 4.56417 0 25 51
-1.25702 -0.438972 4.58093 113 126 152
-0.929019 -0.449936 4.58009 50 59 69
-0.527852 -0.471022 4.63521 75 84 98
-0.247889 -0.482891 4.6584 89 95 108
0.189875 -0.511534 4.75333 109 122 138
-11.9262 -4.27939 23.3162 86 105 162
-1.76225 -0.409993 4.53333 118 147 184
-1.71129 -0.411628 4.52789 34 75 97
-1.42611 -0.425912 4.53885 101 131 160
-1.34897 -0.425686 4.53904 43 46 61
-1.05524 -0.442657 4.58102 94 102 101
-0.999103 -0.442982 4.56551 204 209 210
-0.999105 -0.443982 4.5781 204 209 210
-1.71798 -0.406516 4.52817 121 159 183
-1.52291 -0.417063 4.54419 24 30 73
-1.27303 -0.429762 4.57469 142 166 186
-0.943218 -0.443139 4.56736 155 147 164
-0.783107 -0.448026 4.5814 76 113 141
-0.742445 -0.454496 4.6043 128 148 159
-1.6655 -0.41053 4.54534 114 137 175
-1.1611 -0.432069 4.58351 94 99 114
-0.582281 -0.459533 4.62566 105 118 132
-0.580704 -0.46175 4.64308 108 123 139
-0.530855 -0.462938 4.63086 102 119 140
0.221277 -0.501755 4.74777 99 127 144
-2.12875 -0.351858 4.18088 28 59 98
-1.78666 -0.400939 4.53668 95 119 125
-1.72016 -0.406473 4.54176 96 130 154
-1.67847 -0.406436 4.53906 13 22 55
-1.31688 -0.422881 4.55474 84 98 126
-1.29608 -0.423816 4.5739 96 112 129
-1.04721 -0.435865 4.59678 130 139 142
-1.01314 -0.436146 4.58429 68 73 76
-0.920982 -0.439025 4.57566 233 249 242
-0.88383 -0.439942 4.57587 122 140 163
-0.0742946 -0.477886 4.65331 0 37 20
-1.28465 -0.422551 4.56776 159 190 205
-1.24229 -0.420745 4.5694 110 130 155
-0.247089 -0.468929 4.65356 102 111 121
-1.68945 -0.397352 4.52138 75 89 118
-1.67722 -0.398937 4.53354 110 125 158
-1.42064 -0.408311 4.52577 5 29 27
-0.150885 -0.466581 4.65053 80 103 98
-0.134968 -0.470687 4.65304 72 106 99
-1.64192 -0.398781 4.55253 10 26 62
-1.36303 -0.408816 4.53986 119 140 132
-1.35354 -0.407832 4.5442 28 58 45
-1.3073 -0.413297 4.55969 121 136 168
-0.114765 -0.466843 4.66803 66 78 82
-1.40947 -0.403109 4.53612 16 25 38
-1.38387 -0.405213 4.52837 110 132 167
-0.95208 -0.424214 4.57366 218 220 221
-0.922744 -0.424925 4.56683 212 221 225
-0.630358 -0.444038 4.62293 72 89 102
-0.602565 -0.441994 4.61782 143 159 175
-0.541212 -0.444874 4.62301 153 171 188
-0.445355 -0.448387 4.64952 97 104 123
0.0695489 -0.475479 4.70912 100 118 141
0.581713 -0.462504 4.38938 0 28 71
-0.999285 -0.421683 4.5783 75 82 101
-0.744709 -0.431812 4.59575 109 124 143
-0.561807 -0.442779 4.61158 91 107 130
-0.520695 -0.441625 4.62174 84 106 124
-0.348926 -0.450801 4.63795 82 93 115
-0.3309 -0.451501 4.63838 96 109 131
-0.278227 -0.45376 4.64592 133 144 164
-0.25458 -0.453439 4.65751 92 108 125
-0.0642676 -0.460965 4.63688 7 62 43
-1.76183 -0.383287 4.51794 115 135 153
-1.24426 -0.402541 4.53113 116 149 175
-1.21573 -0.405645 4.54528 117 139 164
-0.660832 -0.437248 4.62018 64 73 87
-0.299373 -0.451293 4.63568 88 99 126
-0.105005 -0.459881 4.66811 21 30 44
-1.74154 -0.383699 4.53709 16 24 47
-1.55476 -0.389578 4.54018 0 15 31
-1.33891 -0.394759 4.51472 129 174 158
-1.0808 -0.407797 4.54253 84 80 86
-0.575105 -0.433142 4.61788 103 128 148
-0.494001 -0.438952 4.63068 111 131 149
-0.331836 -0.446484 4.63878 106 122 139
-0.165647 -0.450882 4.65111 207 233 245
0.0816675 -0.465091 4.70827 0 31 46
0.0912326 -0.464749 4.71111 102 136 159
-1.6255 -0.386425 4.54723 149 172 194
-1.61512 -0.385026 4.53881 3 23 48
-1.34214 -0.397894 4.55754 116 152 152
-0.922525 -0.412797 4.56967 95 92 117
-0.467359 -0.437236 4.63746 112 132 150
-0.437701 -0.437445 4.63189 94 108 137
-0.162513 -0.452425 4.6686 183 213 218
-0.141695 -0.451234 4.6416 99 131 130
-0.0978103 -0.452617 4.66216 100 127 137
0.0133834 -0.461946 4.694 67 79 89
-1.31593 -0.390029 4.53907 1 12 39
-1.30655 -0.39071 4.53121 124 140 163
-1.3072 -0.391838 4.54096 104 121 147
-1.02036 -0.407496 4.56927 153 151 157
-0.98373 -0.408698 4.5698 104 118 124
-0.469075 -0.435106 4.62258 83 106 128
0.0911118 -0.464698 4.71058 102 136 159
-1.44847 -0.38546 4.52801 128 155 181
-1.02797 -0.402214 4.55185 251 255 255
-0.898958 -0.407175 4.55596 229 243 239
-0.187267 -0.442943 4.65234 24 41 62
0.281862 -0.464921 4.70078 83 113 138
-1.26417 -0.389537 4.53208 23 51 82
-1.09566 -0.399407 4.5707 115 118 126
-1.05879 -0.394524 4.54951 50 62 62
-1.05038 -0.39604 4.5325 60 72 74
-0.950284 -0.402597 4.56396 74 79 82
-0.940746 -0.4042 4.5657 212 223 221
-0.305769 -0.432494 4.63516 109 124 143
0.061538 -0.453177 4.70045 98 124 141
-1.14187 -0.39114 4.57017 61 76 92
-1.05688 0.125633 4.35155 154 151 160
-0.963664 -0.398123 4.55032 238 237 239
-0.534953 -0.421309 4.61037 81 104 119
-0.452165 -0.42479 4.62366 104 124 149
-0.186038 -0.442152 4.65945 17 34 55
-1.69716 -0.364068 4.50696 97 130 163
-1.5872 -0.370392 4.52925 67 89 117
-1.14165 -0.391532 4.5637 42 55 71
-1.0709 -0.391057 4.54634 188 204 203
-1.00761 -0.393798 4.55259 203 208 217
-0.897088 -0.39857 4.56446 118 119 123
-0.810926 -0.402862 4.55878 112 130 147
-0.555751 -0.417139 4.60689 92 112 130
-0.482136 -0.418924 4.62162 94 110 133
-0.202064 -0.434376 4.65475 8 23 39
-0.129429 -0.43632 4.6498 86 134 122
-1.6222 -0.366337 4.5229 20 51 76
-1.4914 -0.37017 4.52909 112 122 139
-1.24624 -0.378251 4.53038 106 126 167
-1.22111 -0.381249 4.52742 229 230 240
-1.1983 -0.379734 4.53443 43 44 42
-1.07728 -0.384875 4.51684 128 131 129
-1.04725 -0.389137 4.54969 231 226 228
-0.884157 -0.393872 4.54794 232 228 233
-0.672147 -0.406014 4.59419 110 128 139
-0.629977 -0.409859 4.60598 91 107 124
-0.310017 -0.426594 4.63387 106 118 142
-1.58556 -0.361477 4.53249 4 17 33
-1.14107 -0.38252 4.56274 205 218 232
-0.924506 -0.391973 4.56157 117 121 139
-0.76457 -0.399175 4.5757 0 23 53
-0.296978 -0.42017 4.64683 79 94 113
-0.286693 -0.423411 4.63079 119 137 160
-0.223082 -0.426264 4.64415 14 36 54
-0.17392 -0.427426 4.63918 92 121 136
-1.72925 -0.353362 4.51524 127 156 187
-1.68375 -0.353318 4.50932 86 132 166
-1.18056 -0.37772 4.54546 118 124 123
-1.1654 -0.375684 4.54479 117 118 122
-1.04854 -0.382436 4.54535 85 81 86
-1.00615 -0.384827 4.55494 105 100 109
-0.686724 -0.402932 4.60291 109 124 143
-0.602211 -0.404496 4.59481 104 124 141
-0.296979 -0.420359 4.64681 79 94 113
-0.255731 -0.418518 4.63804 108 137 146
0.0126426 -0.43601 4.69305 105 120 136
-1.70333 -0.349044 4.51118 70 124 155
-1.42449 -0.361528 4.50665 16 30 53
-1.30392 -0.369061 4.53967 81 107 131
-1.22173 -0.371679 4.54469 188 203 205
-1.13288 -0.379369 4.56763 109 114 135
-1.08677 -0.378163 4.54366 69 70 74
-0.996744 -0.382688 4.55814 230 233 238
-0.764021 -0.391726 4.57813 127 141 169
-0.231336 -0.419476 4.63751 155 177 188
-0.163662 -0.421652 4.64053 19 39 56
-1.73808 -0.346823 4.50799 1 26 66
-1.1662 -0.375111 4.56596 218 214 220
-1.02306 -0.380179 4.5566 101 108 103
-0.576705 -0.401177 4.60592 101 115 134
0.0535789 -0.427847 4.66767 109 133 151
-1.67897 -0.344974 4.50493 4 40 70
-1.0345 -0.373872 4.54029 141 149 149
-0.468527 -0.403503 4.60869 97 121 141
-0.389512 -0.404577 4.61128 106 142 178
-0.0867054 -0.416611 4.62686 109 157 139
-1.66797 -0.342776 4.51048 104 141 163
-1.18629 -0.368108 4.53752 151 157 164
-1.16079 -0.370542 4.58497 106 100 117
-0.269195 -0.409702 4.63199 101 117 140
-0.0112607 -0.421465 4.67796 109 134 138
-2.52988 -0.275925 4.15606 43 71 118
-1.74528 -0.332432 4.4835 79 87 127
-1.73891 -0.337862 4.50311 117 143 173
-1.51601 -0.345203 4.52336 82 100 129
-1.23883 -0.359943 4.52049 220 223 228
-1.00828 -0.368421 4.54718 173 167 172
-0.626331 -0.387573 4.59265 157 174 187
-1.7497 -0.334316 4.51006 3 13 53
-1.5304 -0.344643 4.51478 112 134 146
-1.51104 -0.342551 4.52364 116 136 171
-1.49291 -0.34484 4.50229 79 110 143
-1.26313 -0.354314 4.50772 70 105 131
-1.22152 -0.356504 4.51839 16 34 35
-1.18727 -0.358466 4.52655 28 40 64
-1.02714 -0.368293 4.55208 86 82 87
-1.01576 -0.365441 4.54674 240 236 241
-0.787497 -0.374983 4.54629 164 201 229
-0.145805 -0.406462 4.64177 95 123 134
-0.108115 -0.408874 4.63026 101 162 134
-0.0896819 -0.406613 4.62856 85 141 122
-0.0387352 -0.411086 4.66181 77 99 104
-1.44306 -0.340157 4.49583 87 108 140
-1.1468 -0.35674 4.5336 77 72 87
-0.929502 -1.3693 4.30685 93 111 128
0.028453 -0.414702 4.67034 94 119 135
-1.73309 -0.328233 4.50015 22 47 87
-1.70515 -0.328555 4.49416 88 130 153
-1.50996 -0.339844 4.51381 79 100 128
-1.2371 -0.348911 4.51834 38 46 53
-1.16576 -0.352221 4.52642 203 205 213
-0.894466 -0.362075 4.50672 62 62 76
-0.894164 -0.363795 4.51926 92 88 107
-0.785346 -0.362248 4.53697 0 25 55
-0.769857 -0.362523 4.52095 4 17 55
-2.12839 -0.275923 4.1457 148 178 213
-1.33479 -0.337801 4.50498 96 126 145
-1.04879 -0.350161 4.52343 231 231 231
-1.17435 -0.343269 4.53086 45 41 60
-1.07452 -0.346837 4.5344 101 101 101
-1.01422 -0.348558 4.53967 148 156 155
-0.995789 -0.350221 4.53231 133 141 141
-0.275088 -0.384331 4.61312 117 139 164
-1.49886 -0.325429 4.51613 87 101 129
-1.16212 -0.343673 4.53564 240 231 241
-0.648199 -0.364653 4.5811 101 114 140
-0.00574603 -0.394102 4.65986 106 124 141
-1.64403 -0.31337 4.50039 3 23 54
-1.01419 -0.344945 4.52146 160 165 164
-0.461192 -0.368462 4.59147 157 171 193
-0.135058 -0.383216 4.61651 0 40 21
-1.6082 -0.315012 4.49492 84 106 111
-1.09068 -0.334918 4.52442 136 130 131
-0.149533 -0.378673 4.60992 108 160 137
-1.26458 -0.324602 4.50354 19 33 55
-1.1891 -0.332521 4.53289 53 72 75
-1.12983 -0.329347 4.50955 210 215 216
-1.11057 -0.333568 4.5279 200 199 195
-1.03233 -0.335672 4.53033 150 150 156
-1.00772 -0.338158 4.53695 108 105 107
-0.235555 -0.375306 4.62198 92 110 133
-0.936701 -0.334497 4.50666 223 228 227
-0.660937 -0.351491 4.57135 99 115 144
-1.61484 -0.304544 4.48947 105 141 147
-1.61683 -0.305437 4.50402 96 134 139
-1.44877 -0.311961 4.50598 0 22 43
-1.21222 -0.325115 4.51127 228 226 232
-1.04665 -0.329434 4.52511 110 117 112
-1.41627 -0.310762 4.48501 120 163 178
-0.865295 -0.32952 4.46732 85 90 105
-0.0669631 -0.369712 4.60614 94 121 117
-1.4259 -0.306533 4.486 0 29 34
-0.868429 -0.322408 4.45304 52 62 62
-1.43362 -0.301537 4.47336 109 138 147
-1.22073 -0.313284 4.51342 240 236 242
-1.13566 -0.3168 4.51107 49 41 64
-1.1035 -0.318893 4.51962 147 145 151
-1.02907 -0.318464 4.50329 144 146 146
-0.591047 -0.342657 4.57503 124 141 160
-0.203115 -0.360362 4.61963 0 21 51
-1.85745 -0.253402 4.09605 2 24 82
-1.06093 -0.317501 4.52609 136 138 139
-0.926216 -0.319889 4.47671 116 111 120
-0.791234 -0.32692 4.53468 16 43 80
-0.188055 -0.355935 4.6234 112 138 162
-0.137287 -0.358579 4.62136 106 122 139
-1.36671 -0.298964 4.47709 127 151 193
-1.18529 -0.307864 4.51367 230 233 231
-1.13816 -0.30656 4.51902 162 158 163
-0.875734 -0.312472 4.45095 185 189 190
-0.219292 -0.353693 4.61437 16 40 68
-0.208748 -0.353964 4.61159 111 141 166
-1.54375 -0.289744 4.50548 118 139 147
-1.4709 -0.292768 4.49728 104 132 149
-1.37653 -0.295862 4.47054 27 38 76
-1.31593 -0.299434 4.49101 127 157 182
-1.292 -0.297823 4.48835 3 24 52
-1.2107 -0.303149 4.49802 192 186 211
-1.19823 -0.306091 4.50504 112 112 112
-0.754416 -0.325374 4.54415 40 56 99
-0.705437 -0.329061 4.55507 96 110 133
-1.2911 -0.297277 4.47457 2 23 51
-1.27849 -0.296462 4.48189 119 144 176
-1.17489 -0.299424 4.50576 101 113 125
-0.917104 -0.307128 4.46525 244 239 240
-1.0487 -0.301783 4.49751 167 166 170
-0.501402 -0.331099 4.56894 12 16 40
-1.35342 -0.286648 4.47534 149 168 205
-1.17505 -0.298113 4.50923 96 108 126
-1.16433 -0.296872 4.51277 204 222 229
-1.14579 -0.297375 4.5142 38 34 45
-1.13604 -0.302682 4.52291 237 233 239
-0.928427 -0.304005 4.48547 150 144 149
-0.274862 -0.338034 4.59343 127 134 161
-1.37888 -0.282356 4.47435 116 129 161
-1.30291 -0.286919 4.47668 125 148 186
-1.18114 -0.292533 4.50953 202 217 233
-0.212158 -0.336631 4.60415 0 20 38
-0.930521 -0.300167 4.48325 159 159 171
-0.109171 -0.339208 4.60427 116 150 179
0.553827 -0.338394 4.30609 84 111 161
-1.27767 -0.278877 4.49627 51 77 107
-1.19604 -0.286196 4.50933 238 252 255
-1.14393 -0.289769 4.50877 154 155 165
-1.10287 -0.288778 4.50209 118 125 122
-1.10277 -0.288015 4.49767 118 125 122
-1.03208 -0.292237 4.50613 108 113 112
-1.00799 -0.293393 4.50786 201 204 212
-0.642946 -0.278011 4.11178 127 157 204
-1.3955 -0.274086 4.4841 108 123 149
-1.14917 -0.284778 4.50294 38 44 57
-1.05893 -0.287081 4.49418 132 131 133
-0.422249 -0.316649 4.56065 16 31 50
-0.276727 -0.326029 4.58117 90 115 131
-1.26758 -0.275903 4.48151 114 142 166
-1.16679 -0.280094 4.5075 26 34 57
-1.12133 -0.284039 4.50665 185 187 198
-0.946355 -0.289547 4.51262 163 172 182
-0.918761 -0.288005 4.47308 34 40 53
-0.403303 -0.312682 4.56097 10 30 48
-0.147346 -0.328633 4.60074 92 129 143
-1.57575 -0.261045 4.47782 98 116 147
-1.5778 -0.26266 4.49385 112 131 166
-1.31225 -0.271564 4.47826 16 38 66
-1.10206 -0.27919 4.49523 190 183 196
-1.02392 -0.284336 4.50704 215 218 223
-1.63086 -0.253811 4.47388 108 116 129
-1.33613 -0.268155 4.4828 0 18 49
-1.25273 -0.269003 4.47614 5 23 40
-1.15406 -0.275137 4.49737 222 226 231
-1.15486 -0.276628 4.52075 223 231 230
-1.14633 -0.276215 4.51646 201 210 207
-1.11863 -0.276014 4.49135 49 50 78
-1.42272 -0.261809 4.48428 105 125 143
-1.24305 -0.26721 4.47902 234 236 244
-1.02388 -0.28181 4.49387 221 222 226
-1.0051 -0.27849 4.49619 189 191 202
-0.987203 -0.279117 4.50059 226 231 230
-0.966274 -0.280655 4.49299 228 233 231
-1.53691 -0.25362 4.48621 97 120 136
-1.10306 -0.26988 4.50104 118 112 129
-1.02654 -0.275878 4.50537 62 70 87
-0.895201 -0.277193 4.45828 211 217 216
-1.0021 -0.271461 4.50234 63 69 88
-1.48752 -0.252254 4.48323 109 134 160
-1.32214 -0.252266 4.45364 56 82 112
-1.2157 -0.260396 4.47858 198 199 203
-0.0199997 -0.283865 4.16596 4 43 41
-1.34943 -0.250859 4.47027 144 160 196
-1.27407 -0.253267 4.46673 127 156 187
-1.15268 -0.259778 4.49557 163 166 180
-1.42486 -0.244965 4.48235 152 169 190
-1.03634 -0.262408 4.49439 185 187 198
-0.969184 -0.265739 4.49261 238 236 242
0.0417003 -0.241945 3.52773 3 36 52
-1.02559 -0.259311 4.48734 40 47 66
-1.50946 -0.234426 4.46708 148 181 196
-1.16085 -0.247387 4.48634 157 163 168
-1.00085 -0.255577 4.49009 127 150 176
-1.44784 -0.231077 4.47446 122 142 173
-1.27205 -0.237752 4.44896 9 23 51
-1.14457 -0.246336 4.48504 36 45 55
-1.11438 -0.245482 4.48699 161 154 169
-0.978504 -0.251812 4.49129 199 201 225
-0.969851 -0.253194 4.49286 78 82 101
-0.934973 -0.256434 4.49286 202 216 215
-1.44754 -0.231051 4.47147 132 151 178
-1.25273 -0.232735 4.44774 242 231 234
-1.08599 -0.245359 4.51486 202 204 212
-1.01565 -0.247864 4.48389 115 126 146
