ply
format ascii 1.0
element vertex 1279
property float x
property float y
property float z
property uchar blue
property uchar green
property uchar red
end_header
-0.141759 0.091775 3.36663 219 252 245
0.620014 0.094114 3.48698 94 169 161
0.0655425 0.0943406 3.40307 60 119 121
0.310611 0.0974369 3.44123 107 148 180
0.125694 0.0976015 3.41892 97 134 156
0.368413 0.106984 3.45025 118 168 191
0.461531 0.112995 3.46519 113 147 193
1.05299 0.117847 3.54726 84 170 152
0.524956 0.117002 3.47529 97 164 161
0.594618 0.119721 3.48303 115 162 194
0.13812 0.120267 3.41997 168 221 218
1.38352 0.126987 3.59097 108 165 156
0.764658 0.127329 3.51037 99 166 181
1.09199 0.135638 3.55816 102 160 165
-0.017992 0.133748 3.3969 96 119 114
0.15007 0.133582 3.42329 149 214 199
0.557236 0.137079 3.48391 99 149 167
1.04452 0.137934 3.55108 66 135 125
-0.262931 0.134342 3.36706 195 202 211
0.0628006 0.134749 3.41043 54 105 97
0.34358 0.136091 3.44907 70 121 124
0.0865168 0.136813 3.412 182 232 230
0.605486 0.140808 3.48699 93 142 158
0.173971 0.140114 3.43012 101 156 159
1.44085 0.147025 3.59618 127 186 171
0.507611 0.147172 3.47918 95 152 143
0.0579852 0.147038 3.40866 48 71 63
0.17712 0.149661 3.42705 87 149 155
0.628718 0.151063 3.49702 98 148 178
0.744093 0.157922 3.50583 89 153 153
0.169943 0.153532 3.42839 74 148 136
0.259291 0.159491 3.44535 90 139 161
0.187447 0.162725 3.43832 100 150 162
0.535998 0.163479 3.4824 181 241 235
0.290423 0.163758 3.45418 119 169 199
0.278237 0.172676 3.45213 114 153 191
0.096264 0.173977 3.42622 147 209 220
0.251921 0.174536 3.44575 72 121 153
1.42201 0.182536 3.59917 94 169 153
0.00961205 0.174314 3.40996 126 187 167
0.984872 0.182563 3.54265 83 145 139
-0.075096 0.17607 3.37552 101 178 164
-0.00909862 0.18104 3.40745 130 182 164
0.194066 0.185899 3.43838 91 142 152
0.250882 0.185708 3.44597 80 109 146
0.439295 0.188587 3.47413 79 114 104
0.386137 0.191412 3.46769 61 125 113
0.753345 0.197762 3.51413 92 163 153
0.607899 0.19778 3.50084 82 149 152
1.07241 0.201744 3.55556 148 229 214
-0.169667 0.193721 3.3777 109 163 134
0.548179 0.200479 3.4874 58 99 92
0.12858 0.201117 3.42934 167 219 236
0.670249 0.207891 3.50312 114 165 157
0.832477 0.211607 3.53016 89 169 164
1.18932 0.212158 3.57714 81 149 138
0.0479696 0.209944 3.41476 144 189 173
0.235811 0.211663 3.44744 156 199 214
-0.172216 0.209026 3.38299 106 170 140
0.344593 0.21538 3.46951 57 110 101
0.349307 0.216427 3.45771 143 202 194
0.900566 0.22419 3.54351 81 137 126
0.923843 0.227775 3.54471 166 231 205
0.0338825 0.222587 3.40946 178 205 196
0.234469 0.224906 3.44584 124 181 172
0.0480338 0.224732 3.41544 119 155 131
0.464948 0.229268 3.47873 79 155 151
0.618063 0.230284 3.49971 114 162 156
1.07039 0.234853 3.55966 154 226 204
0.598926 0.233456 3.49766 91 143 136
1.10627 0.237684 3.5746 69 137 126
0.208627 0.231426 3.44542 158 209 175
0.975234 0.239489 3.54875 94 147 138
1.03677 0.242112 3.55872 103 157 140
0.504501 0.239371 3.48557 75 144 133
0.224158 0.239058 3.44776 45 71 57
1.26501 0.247712 3.58469 82 142 132
-0.156989 0.236694 3.38793 213 255 238
1.16085 0.256532 3.57315 169 210 205
1.16359 0.257273 3.58017 194 229 225
0.560215 0.250676 3.49241 78 131 121
0.921893 0.256256 3.5435 82 142 131
1.01286 0.259555 3.56064 148 208 190
-0.222254 0.248713 3.38616 231 249 255
1.13808 0.26627 3.57114 173 218 215
1.54529 0.268716 3.62284 110 168 140
0.881516 0.268404 3.53785 142 197 200
-0.167108 0.264707 3.39114 63 152 108
0.58721 0.274704 3.50127 148 199 215
1.21193 0.285144 3.58579 161 204 195
0.457314 0.278449 3.47754 95 147 137
0.97692 0.286006 3.55491 55 88 61
1.24948 0.290327 3.58819 151 205 198
1.95842 0.298524 3.68325 110 157 148
1.95696 0.297317 3.67982 119 164 155
0.969505 0.291348 3.56058 161 203 186
1.10396 0.291122 3.57393 131 183 176
-0.188486 0.279933 3.39256 129 173 160
0.997524 0.295854 3.5568 77 129 106
1.23488 0.297622 3.58526 167 213 184
0.754705 0.294593 3.52304 60 121 111
1.004 0.300897 3.55146 85 119 102
1.12273 0.300687 3.57141 56 93 73
1.1483 0.302963 3.58346 90 108 107
1.27275 0.303957 3.59471 165 218 209
1.11219 0.304038 3.57284 147 209 179
1.38296 0.305841 3.60589 125 156 149
1.05655 0.306986 3.56672 83 115 104
-0.20112 0.300975 3.39296 112 174 156
0.830849 0.313004 3.53233 89 141 141
1.25327 0.316323 3.58531 79 105 91
1.04921 0.319829 3.56095 67 85 78
1.29893 0.32337 3.59932 91 115 105
1.37134 0.327037 3.61897 125 187 171
1.04005 0.321649 3.55929 145 206 180
-0.179025 0.308348 3.39448 84 133 105
2.15064 0.337321 3.71689 101 133 122
-0.0894245 0.308986 3.39179 102 168 156
1.2486 0.326952 3.57732 146 199 185
1.1396 0.330675 3.57056 79 124 98
1.25483 0.329869 3.58186 181 227 221
-0.134283 0.318155 3.39835 58 129 86
1.1417 0.335185 3.5666 92 141 113
1.16076 0.339486 3.57164 43 96 69
1.16178 0.343548 3.56721 155 207 190
-0.187052 0.33193 3.39897 113 178 153
1.79522 0.364254 3.68561 158 209 195
-0.0939978 0.345197 3.3985 90 169 142
-0.0408134 0.352795 3.42675 115 202 164
2.00298 0.384011 3.69889 152 214 198
1.77213 0.388102 3.67412 165 225 215
-0.191835 0.370612 3.40347 88 149 123
-0.215411 0.37275 3.40337 119 177 153
1.94105 0.408249 3.69229 166 233 218
-0.144364 0.380208 3.40824 76 150 102
-0.087692 0.378215 3.38997 86 106 107
2.05584 0.4147 3.70667 118 165 156
1.413 0.410568 3.62621 91 125 124
-0.192907 0.387812 3.41177 91 165 129
-0.198358 0.396149 3.40628 72 124 101
-0.10138 0.39825 3.40577 209 249 237
-0.232334 0.400129 3.4068 107 148 143
0.753377 0.421778 3.54616 117 189 177
0.642407 0.426688 3.5306 103 159 148
1.89581 0.449866 3.69237 104 155 147
1.01698 0.436627 3.57394 108 161 128
1.6497 0.446414 3.66671 84 139 122
1.77072 0.452925 3.67915 132 200 177
-0.172407 0.421104 3.41175 83 155 109
-0.0486717 0.42369 3.43755 122 195 169
1.75549 0.455721 3.68512 85 120 110
-0.127895 0.423295 3.41336 148 221 171
0.982117 0.443139 3.5709 88 151 112
1.64661 0.455209 3.66878 145 211 186
1.90996 0.463456 3.6975 113 149 143
0.319751 0.443185 3.49305 128 179 181
1.62984 0.469868 3.67394 97 158 138
-0.184255 0.440482 3.41647 216 252 238
1.82653 0.477266 3.69408 67 100 86
0.0721242 0.455901 3.45345 103 170 155
0.210697 0.463728 3.47957 104 158 141
1.71095 0.501442 3.68232 154 211 196
1.76689 0.500763 3.68293 148 194 181
1.97872 0.503939 3.71261 153 214 200
-0.105489 0.469186 3.42637 104 181 177
1.55606 0.503142 3.66161 82 144 120
-0.198504 0.473917 3.419 101 160 140
1.12733 0.495134 3.59345 77 147 107
-0.200275 0.474019 3.41931 76 135 114
-0.0147107 0.476656 3.45081 147 212 187
1.63016 0.512191 3.68153 81 126 100
1.77839 0.524546 3.6834 71 98 78
-0.194162 0.490734 3.41698 90 152 122
1.75018 0.52906 3.68773 133 168 154
-0.0264269 0.499295 3.45284 152 205 195
1.70044 0.53118 3.68036 142 215 189
1.7827 0.535419 3.69072 111 149 127
0.153331 0.507986 3.48021 109 174 165
1.63359 0.535125 3.66895 86 122 105
1.38563 0.532716 3.63677 102 155 135
-0.0605272 0.5072 3.45133 123 170 137
1.46818 0.536438 3.64545 111 161 143
1.71507 0.542801 3.68287 144 200 179
-0.109947 0.507936 3.43117 99 185 155
0.938326 0.529829 3.58437 110 170 146
-1.19185 0.4925 3.30471 115 99 83
-0.17808 0.511429 3.42477 57 139 90
-0.145469 0.512503 3.42691 57 137 94
1.36905 0.54149 3.63333 164 205 208
1.39618 0.543896 3.64315 81 117 100
-0.0496534 0.526468 3.45806 89 141 111
1.65237 0.561151 3.67587 80 125 108
1.38788 0.559651 3.63727 180 227 231
-1.36992 0.509921 3.29273 147 131 115
-1.12285 0.519745 3.32541 187 178 174
-0.0963551 0.535728 3.42995 171 181 211
1.76126 0.579814 3.69409 152 185 164
-1.54456 0.51829 3.28297 184 182 174
1.6006 0.578441 3.67788 82 103 88
1.86917 0.592858 3.70912 168 227 219
1.84452 0.594413 3.70602 151 201 191
-0.109052 0.551617 3.41869 218 239 254
1.41753 0.593495 3.64358 89 154 133
1.51172 0.596952 3.65948 165 228 212
1.83279 0.616709 3.70708 155 220 199
1.67543 0.615881 3.68538 160 215 198
1.80764 0.621355 3.70889 135 180 163
1.52278 0.617665 3.6647 137 208 188
-0.145101 0.585967 3.43859 93 146 103
-0.258029 0.589036 3.43639 238 250 250
-1.0392 0.575487 3.34405 152 149 144
1.68227 0.637125 3.68686 78 104 81
1.79544 0.641972 3.70465 129 174 148
1.53909 0.639812 3.67799 146 200 177
1.46897 0.639054 3.66439 86 148 112
-1.59788 0.57853 3.2914 129 119 109
1.69921 0.648736 3.69875 138 203 181
-0.227 0.605846 3.43804 70 111 103
1.19035 0.639634 3.62183 106 173 134
-1.62016 0.583967 3.29844 90 85 76
-0.124401 0.608845 3.44017 99 173 139
-0.0114066 0.616747 3.47502 158 218 208
-0.0686051 0.618261 3.46796 154 206 176
-0.19607 0.624809 3.43761 181 244 212
-0.295179 0.629743 3.43827 215 227 237
1.38072 0.668701 3.64801 81 109 96
-1.04476 0.625473 3.35442 157 141 135
-0.142511 0.648768 3.44987 86 152 110
-1.04208 0.630835 3.35262 120 97 81
-0.0744206 0.6575 3.47563 125 179 142
-1.03629 0.637325 3.35846 187 181 174
1.88475 0.710856 3.73355 130 182 164
1.12439 0.696991 3.62276 107 171 136
1.16068 0.696838 3.62378 86 156 119
1.43434 0.703747 3.65743 93 138 122
-0.77248 0.654587 3.37022 108 100 100
-0.186186 0.674413 3.44701 83 155 112
-0.991042 0.668905 3.36497 102 76 62
-0.843695 0.669806 3.36922 155 152 147
-0.0817716 0.695372 3.47683 51 82 61
-1.25629 0.663146 3.30612 188 156 115
0.101168 0.70162 3.50831 90 168 151
0.43094 0.712633 3.5501 81 151 134
-1.28353 0.664757 3.28171 128 54 20
-0.0567711 0.70589 3.48008 76 137 99
-1.08839 0.680864 3.35589 159 146 144
-0.999682 0.687349 3.36727 200 201 199
1.37165 0.749531 3.65739 89 136 120
-0.896216 0.69507 3.36592 98 78 61
0.183823 0.727867 3.5161 78 154 136
-0.898052 0.697099 3.36995 111 94 81
-0.229844 0.7151 3.45407 99 134 120
0.974904 0.753157 3.61397 80 148 113
0.97975 0.762474 3.62142 82 142 108
-0.999549 0.715452 3.37103 101 89 77
-0.256607 0.734406 3.45412 119 135 152
0.0829143 0.746395 3.5047 148 226 185
-1.28909 0.702507 3.29519 230 220 203
-1.01565 0.726873 3.36891 155 150 147
-0.895142 0.735169 3.38308 125 115 115
-1.06794 0.736564 3.36965 174 169 170
-0.902754 0.738692 3.37816 193 192 188
-0.288037 0.75949 3.46101 212 233 234
-0.184202 0.767882 3.4593 61 140 91
0.894337 0.803979 3.61134 92 160 135
0.396159 0.796775 3.55767 96 160 141
0.980272 0.813189 3.62439 95 162 131
-0.860385 0.764857 3.40111 139 127 115
-0.0828841 0.786945 3.48535 145 219 183
-1.08186 0.768592 3.37042 197 206 209
-1.06567 0.76917 3.37 183 185 186
-0.855974 0.777981 3.40478 151 141 124
-0.74087 0.781725 3.41702 168 163 160
-0.246145 0.791556 3.46404 156 212 191
-0.216415 0.791342 3.46436 188 241 227
1.18729 0.837179 3.64708 70 140 100
-1.08127 0.781176 3.37265 185 190 189
-1.02293 0.785321 3.3812 194 196 197
0.481373 0.832233 3.56694 82 153 127
-0.937208 0.794114 3.39638 108 89 84
0.639482 0.842363 3.58598 56 69 47
0.120904 0.827639 3.51894 91 156 124
-1.06465 0.795318 3.37273 195 200 199
-0.867527 0.803376 3.4073 105 89 82
0.627323 0.845096 3.58555 136 196 172
-0.902103 0.8031 3.40013 188 189 180
-0.858163 0.807551 3.40844 168 164 159
-0.148997 0.822839 3.46967 157 229 193
-1.00245 0.809872 3.38462 198 201 209
-0.840763 0.820351 3.41707 113 96 87
-0.756382 0.82501 3.42911 172 175 179
-0.205517 0.834638 3.46598 79 153 105
-0.0454226 0.843762 3.50282 98 156 138
-0.848273 0.822701 3.40601 96 86 79
-1.01155 0.819537 3.38386 197 198 202
-0.273918 0.843912 3.46935 108 170 146
-0.863618 0.831374 3.41539 190 186 185
-0.861852 0.831687 3.41598 185 180 177
-0.137748 0.847726 3.46745 179 224 237
-1.07754 0.827486 3.37904 174 184 178
0.497225 0.875913 3.575 91 160 149
0.396993 0.875206 3.56138 113 167 154
-1.06447 0.834396 3.38435 192 190 196
-0.0477927 0.86381 3.50361 184 230 217
0.0992086 0.869358 3.5269 111 185 161
0.599336 0.883726 3.58703 78 120 109
0.918778 0.895062 3.63108 118 163 136
0.265395 0.878041 3.54638 76 143 116
0.581647 0.888586 3.58707 204 247 255
0.94162 0.901242 3.63754 115 172 141
1.3104 0.921135 3.6718 166 230 201
-0.966494 0.858258 3.39695 192 197 198
-1.07178 0.859079 3.38195 172 178 177
-1.06055 0.864862 3.39207 182 189 186
-0.0967543 0.891636 3.50107 150 215 189
-1.05438 0.868616 3.39754 107 100 103
1.15575 0.953702 3.66045 86 162 128
0.335953 0.92884 3.55812 104 172 155
1.0537 0.955874 3.65386 101 171 154
0.383562 0.93611 3.57087 88 157 130
0.698164 0.977241 3.61547 100 173 151
1.22554 1.01779 3.67762 250 255 253
0.125945 -1.29111 3.20299 162 202 200
-0.415492 -1.25874 3.13066 74 117 90
0.00740485 -1.28401 3.19123 107 162 153
-1.49232 -1.19035 2.9829 61 113 96
0.178492 -1.27278 3.21172 109 168 148
-1.47354 -1.18255 2.98983 172 219 217
-1.43107 -1.1775 2.99485 175 226 219
-0.777862 -1.11261 2.85747 117 163 127
-1.56081 -1.15492 2.9912 59 88 72
0.414244 -1.25907 3.26489 106 161 152
-0.533749 -1.20342 3.14423 94 129 102
-1.58257 -1.13683 2.98547 64 84 71
-1.58899 -1.13748 2.99962 48 62 50
0.11286 -1.21915 3.21687 171 222 215
0.431407 -1.23394 3.26233 81 139 128
-1.58807 -1.12371 2.98993 64 103 87
0.436963 -1.22759 3.26958 83 143 125
0.180237 -1.20443 3.2262 122 149 146
-1.78247 -1.09395 2.9609 127 176 160
0.100408 -1.16186 3.22332 45 56 48
-0.450442 -1.13318 3.15776 71 92 77
-0.453254 -1.12208 3.14997 107 131 119
-0.567337 -1.10286 3.14347 90 110 87
0.195694 -1.12942 3.23689 137 146 159
-0.515804 -1.09191 3.14979 118 184 159
-1.73129 -1.02465 2.97953 88 133 114
-0.616976 -1.07405 3.1351 125 176 149
-0.426998 -1.08633 3.16582 159 198 196
-0.447313 -1.07406 3.16155 102 139 123
-0.423469 -1.07809 3.17009 94 119 115
0.150908 -1.099 3.23973 99 139 127
-0.490671 -1.06596 3.15825 52 81 72
-0.927204 -0.938168 2.79344 47 78 47
0.236961 -1.08297 3.25485 73 132 118
-0.551516 -1.04891 3.15841 60 77 66
0.458094 -1.09351 3.29414 93 153 143
0.119914 -1.06973 3.23112 189 219 224
0.252099 -1.07989 3.26388 104 152 140
-0.432692 -1.04141 3.16468 160 205 209
-0.551454 -1.03569 3.15948 93 129 117
0.0567203 -1.04991 3.21757 138 153 156
-0.833612 -0.914926 2.82136 102 154 124
-0.436986 -1.02915 3.17642 214 244 249
-0.607923 -1.01088 3.14661 144 202 174
-0.662954 -1.00418 3.1395 149 195 176
0.10565 -1.03519 3.23673 209 231 237
0.138915 -1.0384 3.24477 104 107 111
-0.542809 -1.00816 3.16744 59 82 68
0.106911 -1.03541 3.25723 165 185 186
0.119022 -1.02946 3.24427 98 103 101
-0.767158 -0.989318 3.12565 155 200 197
-0.53508 -0.999072 3.16104 123 166 157
0.0892981 -1.02533 3.2427 119 140 137
-0.617573 -0.994065 3.15142 106 162 143
0.122955 -1.0175 3.24636 161 218 215
-0.579375 -0.987084 3.15685 134 161 175
-0.457299 -0.991007 3.18528 147 188 203
0.0877531 -1.00537 3.23986 97 126 131
0.410577 -1.01526 3.29612 101 151 141
-0.632947 -0.961451 3.1504 114 142 136
-0.582565 -0.963101 3.15833 116 140 128
-0.436962 -0.962699 3.1875 99 129 130
-1.69392 -0.900192 3.01696 94 131 115
0.244472 -0.979877 3.2734 92 149 141
-0.311038 -0.949128 3.20366 98 142 155
0.0807488 -0.963388 3.24179 84 92 99
-0.722351 -0.929831 3.14294 115 132 128
-0.0663553 -0.938819 3.21344 92 147 128
-0.748168 -0.908827 3.14112 109 148 140
-0.390713 -0.917784 3.19337 218 246 246
0.529471 -0.955487 3.32719 84 145 131
-0.526443 -0.910478 3.17809 73 81 74
0.214053 -0.937294 3.27373 173 212 214
-0.530595 -0.90066 3.17734 128 134 133
0.157249 -0.918389 3.26282 90 102 106
0.450223 -0.932023 3.31323 84 95 87
-0.801608 -0.867819 3.14058 117 140 136
0.489704 -0.917244 3.31597 150 230 213
-0.734288 -0.865114 3.15005 108 146 128
0.095172 -0.892688 3.25899 119 142 144
0.460353 -0.905487 3.31827 140 207 198
0.90762 -0.924906 3.38316 107 170 160
-0.450022 -0.868274 3.18962 241 255 254
0.42403 -0.881888 3.3145 164 213 211
0.23961 -0.863422 3.27436 61 88 72
-0.60717 -0.832158 3.17395 132 137 135
-0.178547 -0.844149 3.22134 124 178 161
0.965102 -0.88687 3.39154 103 162 148
0.424048 -0.866428 3.312 79 128 112
0.242684 -0.852664 3.27583 85 135 111
0.0755091 -0.847717 3.26517 138 168 169
-1.3046 -0.737409 2.85467 56 126 95
-0.0690946 -0.837171 3.23516 116 157 149
0.4144 -0.853618 3.31599 148 223 209
0.1992 -0.834675 3.28771 165 216 209
0.245076 -0.82939 3.28675 83 151 126
-0.0593281 -0.811682 3.24632 82 101 98
0.304598 -0.809707 3.30154 134 197 171
-0.0457913 -0.79454 3.24693 70 113 98
0.153339 -0.79158 3.26904 90 118 112
0.12947 -0.794897 3.28125 175 207 212
-0.561487 -0.763299 3.19292 97 111 117
0.190079 -0.786142 3.28764 100 152 129
0.275843 -0.790863 3.30935 129 176 160
-0.585271 -0.75915 3.1868 118 128 135
0.204123 -0.780033 3.29445 167 220 210
-0.739985 -0.738628 3.16562 100 117 120
0.164489 -0.766354 3.27308 81 108 99
0.336748 -0.769877 3.29819 72 105 84
-0.546181 -0.742157 3.19091 114 142 166
0.180958 -0.764099 3.28652 151 205 188
-0.0825989 -0.749114 3.23711 200 232 231
-0.635248 -0.734748 3.18586 136 135 144
-0.989301 -0.643489 2.84452 93 188 168
-0.385979 -0.715989 3.219 156 192 192
-0.477005 -0.709776 3.20407 103 121 132
-0.608964 -0.704635 3.1905 230 242 248
-0.464813 -0.709764 3.21224 164 190 204
0.200787 -0.72857 3.29935 79 109 96
-0.529992 -0.701899 3.19728 143 142 168
-0.421589 -0.704759 3.21648 134 161 165
-0.432545 -0.691294 3.21344 254 254 254
0.223264 -0.710208 3.30727 118 169 149
-0.662336 -0.677735 3.20121 106 122 139
-0.48036 -0.679649 3.21019 117 158 153
-0.404325 -0.678715 3.2107 156 198 187
0.386259 -0.699288 3.32917 74 102 82
-0.667026 -0.668886 3.20096 162 187 203
-0.196505 -0.671254 3.24304 82 144 130
0.263626 -0.687178 3.31808 96 133 117
-0.137638 -0.668216 3.24498 77 108 99
0.431583 -0.67917 3.33944 85 149 130
0.211131 -0.664094 3.2869 75 113 91
-0.683547 -0.641153 3.20485 154 184 209
0.256988 -0.656702 3.31646 79 140 126
-0.197357 -0.623546 3.24723 253 255 255
0.269813 -0.640148 3.32054 99 158 138
-0.682789 -0.612412 3.20683 149 185 203
-0.281433 -0.613494 3.2457 255 255 255
-0.684764 -0.603352 3.20874 103 113 123
0.498633 -0.630127 3.36055 133 192 178
-0.731907 -0.59512 3.20188 129 156 182
0.319046 -0.621843 3.33575 68 117 97
-0.699335 -0.594073 3.20997 94 107 129
-0.805609 -0.587674 3.19174 104 104 110
-0.787654 -0.584429 3.19508 126 133 142
-0.112867 -0.593288 3.26458 84 110 117
-0.738998 -0.575721 3.20763 157 177 194
-0.738123 -0.566234 3.20183 101 107 114
-0.7475 -0.56023 3.20976 167 183 195
0.581929 -0.581705 3.38418 122 179 201
-0.745216 -0.548347 3.20495 133 142 156
-0.162081 -0.555945 3.26459 73 100 157
-0.929142 -0.484008 2.97122 117 196 152
-0.139059 -0.534651 3.28283 236 255 255
-0.827184 -0.517365 3.20478 151 172 180
-0.808088 -0.519271 3.20245 84 88 99
-0.840922 -0.504134 3.19971 127 146 159
0.238229 -0.507285 3.33336 94 156 138
0.198218 -0.449833 3.33867 102 159 144
0.0498874 -0.426444 3.31647 205 227 233
0.063776 -0.428908 3.32348 82 88 93
0.0425373 -0.40199 3.31166 106 145 147
-0.13846 -0.376153 3.30467 126 200 174
0.0838378 -0.368727 3.33064 115 149 149
0.299293 -0.369905 3.3659 65 127 109
0.804459 -0.367837 3.43835 72 124 114
0.36871 -0.340318 3.37723 97 154 133
0.402694 -0.338384 3.38458 67 122 105
0.467545 -0.341947 3.39666 101 167 155
-0.164721 -0.330309 3.30489 171 183 195
0.276589 -0.333096 3.36336 88 148 137
1.37521 -0.345053 3.5315 112 166 149
0.350798 -0.320089 3.37925 66 119 105
-0.177234 -0.311279 3.30043 207 219 223
0.0203719 -0.309219 3.32872 187 228 230
0.0819227 -0.30446 3.34018 180 205 209
-0.168769 -0.298046 3.31219 216 235 242
0.106028 -0.296572 3.34176 85 101 94
0.1151 -0.297154 3.33737 206 233 237
-0.366012 -0.28746 3.29559 169 178 188
0.057091 -0.287904 3.34346 205 227 233
0.102782 -0.287126 3.33807 157 231 195
0.419572 -0.282224 3.39406 105 151 132
1.36661 -0.293303 3.53882 94 160 141
0.189269 -0.279074 3.36408 166 230 208
1.40337 -0.266848 3.54903 125 184 180
0.176143 -0.244759 3.36022 89 154 132
0.822015 -0.214624 3.45508 118 175 166
0.129182 -0.204724 3.3533 129 171 164
0.110549 -0.199758 3.35935 114 153 138
-0.194049 -0.194111 3.32755 249 254 255
-1.51956 -0.186405 3.17401 228 237 246
0.120534 -0.193479 3.36121 92 98 87
0.0500888 -0.188513 3.35959 181 219 219
0.0651046 -0.177325 3.3518 123 144 135
0.95455 -0.182165 3.48307 97 159 175
0.305918 -0.171052 3.39338 79 149 132
0.196584 -0.172847 3.37371 107 167 137
0.0457788 -0.167688 3.35228 63 79 68
0.181837 -0.162923 3.37359 61 117 98
-0.173287 -0.156443 3.33915 106 181 153
-0.202817 -0.126201 3.33099 211 230 238
0.195788 -0.122742 3.38141 85 149 130
-0.00939269 -0.09113 2.59681 190 219 216
0.0590386 -0.109432 3.36482 153 164 161
0.0442622 -0.0935955 3.36338 152 156 167
0.0508976 -0.0883473 3.36564 77 79 90
0.922727 -0.0779107 3.48865 91 157 152
1.35376 -0.0697767 3.56293 92 148 137
-0.0312748 -0.0387634 3.24106 79 137 109
0.415911 -0.0228371 3.44035 101 161 160
0.327456 -0.020655 3.42395 97 147 143
0.365063 -0.0170866 3.43454 183 222 244
0.476879 -0.00630447 3.45518 89 170 167
0.241594 -0.000312725 3.41633 107 164 155
0.334077 0.00569433 3.43492 79 90 98
0.197147 0.00743745 3.40714 103 135 140
0.04513 0.0125508 3.391 77 94 103
0.317255 0.0216237 3.44308 81 114 130
0.081224 0.0260132 3.39867 94 141 139
0.28183 0.0424123 3.42765 52 85 88
-0.197761 0.0441086 3.35597 235 247 253
0.156269 0.0456926 3.41167 116 181 189
0.123177 0.0596592 3.40907 77 123 130
0.106428 0.061219 3.40618 93 148 145
0.213972 0.0735187 3.42371 197 234 255
0.32421 0.0828706 3.44144 96 136 171
0.460413 0.108808 3.46619 130 175 208
0.46068 0.113042 3.46541 112 153 192
0.523312 0.115003 3.48133 81 151 145
0.179615 0.117419 3.42666 173 216 243
0.13838 0.121104 3.42253 138 195 187
0.554356 0.121838 3.47822 76 142 167
0.0767721 0.126271 3.41516 80 131 133
0.361952 0.125904 3.44971 113 154 179
0.038631 0.132501 3.41545 88 129 121
0.372764 0.135223 3.45527 109 149 167
0.603444 0.14297 3.48739 80 135 140
0.506228 0.146182 3.47619 78 138 128
0.330911 0.15 3.45664 108 163 160
0.0573337 0.148766 3.4138 61 85 75
0.135578 0.154643 3.42581 101 146 143
0.267585 0.164808 3.45016 193 226 255
-0.171329 0.167912 3.3782 216 237 239
0.11073 0.171227 3.42534 168 222 253
0.302028 0.178863 3.45923 87 90 118
0.954437 0.191702 3.53896 81 144 134
0.00665606 0.186543 3.41169 109 171 155
0.0331581 0.188573 3.41268 120 146 140
0.378399 0.189752 3.4672 69 126 123
0.285253 0.19471 3.45455 181 214 253
0.130981 0.195177 3.43652 65 105 104
0.3129 0.199949 3.46347 102 143 152
0.693674 0.21036 3.51164 56 83 73
0.103741 0.208589 3.42935 73 87 93
1.05275 0.218911 3.56025 67 133 114
0.519362 0.220081 3.49203 44 78 71
0.80227 0.223799 3.53315 55 94 86
0.0338975 0.223803 3.41285 178 205 196
0.307705 0.227656 3.45582 72 122 112
0.649836 0.230535 3.51766 67 91 89
0.785454 0.229663 3.51313 32 79 71
0.202467 0.230479 3.44568 147 215 174
0.918621 0.241287 3.55264 50 89 81
0.627851 0.239557 3.50284 70 84 80
-0.142961 0.239739 3.38574 75 139 97
0.560215 0.250676 3.49241 78 131 121
1.05133 0.257165 3.56172 139 208 197
1.04432 0.261268 3.56479 141 207 196
1.05419 0.25872 3.56611 130 203 187
1.31331 0.265242 3.61159 76 104 98
1.32152 0.263892 3.59968 65 92 83
0.277616 0.258774 3.45069 102 135 131
1.09355 0.266426 3.56415 158 219 209
1.13492 0.265826 3.56991 162 215 212
1.5477 0.270896 3.62907 101 159 134
0.495868 0.26631 3.4873 93 143 143
0.699671 0.27542 3.51204 145 201 196
1.25679 0.282612 3.58681 179 226 223
0.607722 0.279494 3.50378 91 136 133
1.2107 0.283767 3.58195 165 210 201
1.13987 0.287973 3.57792 170 221 223
-0.0908514 0.286335 3.39692 87 160 114
1.02359 0.29766 3.56182 79 130 116
1.06955 0.300746 3.56628 82 99 90
0.913351 0.301482 3.54343 122 179 164
1.54946 0.310178 3.63296 103 158 131
1.62001 0.308416 3.63512 104 152 128
1.3858 0.310676 3.61926 126 167 159
1.14872 0.314569 3.5773 96 118 113
1.21158 0.312253 3.57717 173 210 206
2.04691 0.333845 3.70566 159 200 192
2.11288 0.336756 3.71278 126 153 143
1.26741 0.326761 3.58346 134 184 160
1.18755 0.329738 3.57423 161 210 194
1.80107 0.339906 3.67734 97 159 143
1.99546 0.345687 3.69742 133 186 176
2.01366 0.382161 3.70627 153 213 195
-0.048474 0.368293 3.42963 96 129 102
2.08055 0.39973 3.71845 128 172 159
2.0949 0.407155 3.72762 78 105 101
2.09718 0.407006 3.7272 100 137 129
2.0579 0.416633 3.71174 150 197 189
1.4135 0.411326 3.62816 91 125 124
-0.0803934 0.399379 3.40512 165 189 211
-0.18799 0.42747 3.41337 85 155 125
2.0422 0.472289 3.72307 86 128 111
1.6295 0.469674 3.67346 97 158 138
1.64332 0.465335 3.65244 87 128 101
-0.183985 0.441198 3.41817 220 253 239
1.82504 0.476136 3.69126 71 106 92
2.05452 0.478764 3.72103 61 93 76
1.92104 0.494893 3.70239 85 116 101
2.05385 0.495887 3.72201 127 192 177
1.72752 0.498242 3.67642 132 189 174
1.67849 0.508367 3.67822 81 116 90
-0.022209 0.492969 3.46669 68 95 79
1.67611 0.534018 3.67788 146 188 177
1.70111 0.530655 3.67909 132 209 181
1.50136 0.538809 3.65593 85 136 108
1.83967 0.547423 3.6956 137 183 160
-1.20916 0.491038 3.30085 142 125 116
-1.24681 0.496862 3.29584 100 74 58
-1.23079 0.496395 3.28877 198 195 190
1.65394 0.561578 3.67687 86 130 113
-1.50889 0.508457 3.281 127 111 99
-1.37071 0.510918 3.28996 130 112 95
-1.32335 0.515 3.29833 186 177 173
-1.53407 0.513543 3.28595 121 109 91
-1.38641 0.515151 3.28691 198 200 200
1.76228 0.581051 3.69698 144 174 155
1.5966 0.580939 3.67721 85 95 78
-1.08197 0.529841 3.3319 122 100 82
1.64097 0.582365 3.67206 133 187 164
1.55347 0.584697 3.65939 126 176 144
1.3413 0.586153 3.64731 89 110 101
1.52433 0.597167 3.66062 81 110 85
1.67272 0.612794 3.67833 131 191 173
1.52227 0.618717 3.6671 141 216 195
1.60786 0.617112 3.67269 123 151 128
-1.52361 0.572253 3.30012 107 97 87
1.82708 0.642509 3.71925 86 114 101
-0.231251 0.59514 3.42912 200 228 229
0.00568 0.605696 3.47903 87 129 111
1.73041 0.641652 3.69777 59 82 67
1.70164 0.647609 3.70332 141 214 188
-0.225372 0.60435 3.4329 78 124 112
1.21154 0.647748 3.62591 90 159 126
1.65136 0.660852 3.69365 120 161 140
-0.00884691 0.626548 3.48459 71 91 79
1.87163 0.667624 3.71056 80 119 103
-0.025741 0.638514 3.49161 51 97 75
-0.140817 0.654433 3.45735 108 174 132
-0.0738039 0.656765 3.47408 127 186 148
1.8893 0.708708 3.73142 116 170 153
-0.883866 0.639886 3.35193 136 124 114
1.3528 0.695949 3.65478 89 120 113
-0.910957 0.641286 3.35349 183 175 168
-0.772406 0.654581 3.37021 108 100 100
-1.04828 0.662328 3.35408 189 187 186
-0.772539 0.665611 3.37621 179 178 180
-0.122468 0.685693 3.44603 171 225 255
-1.0886 0.679872 3.35242 158 145 143
-0.763798 0.692006 3.39693 151 161 161
-0.865305 0.690626 3.36862 106 80 64
-0.897925 0.697245 3.37024 111 94 81
-0.0605402 0.720289 3.48627 106 165 134
-1.04726 0.697274 3.36159 191 190 194
1.2526 0.761071 3.64659 255 255 255
-0.162309 0.722885 3.4543 85 163 116
-0.270518 0.728747 3.45923 210 228 235
-1.05405 0.71891 3.36818 189 189 195
0.0832968 0.748046 3.50801 158 237 198
-0.745754 0.738641 3.41276 100 70 51
-0.841972 0.740778 3.39834 141 130 126
-0.138505 0.754678 3.45813 79 160 127
-1.07711 0.746244 3.38843 118 103 101
-1.47137 0.689793 3.1142 74 151 113
0.108998 0.783783 3.51233 97 175 138
-0.835398 0.762844 3.39737 130 121 107
-0.721177 0.780639 3.42445 164 167 172
-1.09743 0.773314 3.35994 166 168 169
-0.895698 0.780685 3.39248 124 114 107
-0.743309 0.782929 3.41651 168 163 160
-0.0656106 0.805176 3.49913 51 104 77
-1.00399 0.777482 3.3808 100 88 82
-0.872269 0.787267 3.40435 112 90 72
-0.978581 0.785481 3.38487 111 99 95
-0.934241 0.792526 3.39166 106 87 80
-1.10041 0.790581 3.37719 86 63 47
0.164732 0.829788 3.52747 91 151 127
-0.86217 0.808935 3.40946 162 158 157
-0.303111 0.829003 3.45975 223 242 247
-1.05246 0.814891 3.37461 103 86 77
-1.011 0.819334 3.38348 199 200 204
-0.862845 0.830919 3.41314 189 184 183
-0.270962 0.844015 3.4674 102 167 142
-0.0976803 0.849304 3.4875 44 67 45
1.11869 0.889758 3.65227 87 153 128
-0.197617 0.85244 3.4706 82 159 115
0.587652 0.878421 3.58531 67 84 70
-1.05969 0.828852 3.37623 205 210 213
-1.04457 0.850781 3.39164 125 120 117
1.18712 0.987061 3.66434 99 152 125
0.111464 -1.26525 3.1962 141 196 187
0.177083 -1.27191 3.21936 100 158 140
-0.442805 -1.21533 3.15899 124 179 164
-1.77009 -1.11288 2.96039 64 90 76
-1.70216 -1.10834 2.96551 137 208 188
0.0532272 -1.18208 3.19527 126 173 157
0.160063 -1.18733 3.21727 103 115 117
0.12528 -1.17057 3.22067 83 94 108
0.122096 -1.17113 3.23102 88 120 115
0.102183 -1.14937 3.22405 104 157 148
-1.75168 -1.05558 2.96879 58 84 68
-0.441106 -1.10666 3.15927 121 192 166
0.106052 -1.11976 3.23446 95 137 130
-1.73368 -1.02469 2.98361 74 118 95
-0.609117 -1.08036 3.13879 94 137 110
-0.455051 -1.08328 3.15869 105 148 135
0.108633 -1.10222 3.23031 189 226 230
-0.529109 -1.07838 3.16599 125 188 148
-0.488718 -1.07835 3.16623 85 152 121
-0.423599 -1.07819 3.174 94 121 118
-0.37992 -1.08 3.16757 102 148 136
-0.839645 -0.95403 2.814 46 79 42
0.193897 -1.10461 3.24785 219 237 244
-0.0290376 -1.08648 3.21464 100 159 144
-0.50751 -1.05601 3.14677 108 171 145
-0.641412 -1.05476 3.14892 63 82 63
-0.537991 -1.04993 3.14811 115 149 143
-0.551537 -1.03352 3.15324 92 128 114
-0.0819736 -1.05473 3.22239 120 166 167
-0.436508 -1.04171 3.18751 132 190 185
-1.75889 -0.964887 2.99404 93 134 113
0.0930736 -1.0387 3.2288 174 209 212
0.132352 -1.0475 3.24762 186 210 216
-0.652954 -0.995356 3.14442 56 57 53
0.0901817 -1.02526 3.23344 137 168 161
-0.617482 -0.995972 3.15548 114 170 151
-0.448925 -1.00334 3.17362 101 135 129
-0.540866 -0.997117 3.17219 130 167 159
0.0861958 -1.01442 3.23843 50 55 53
-0.617337 -0.978088 3.15391 109 132 118
-0.490793 -0.986917 3.17218 146 164 175
0.207539 -1.0082 3.25718 97 159 145
-0.104915 -0.986332 3.22383 209 252 241
-0.678272 -0.955593 3.1456 102 128 115
-0.439173 -0.964205 3.18703 106 130 136
-0.613335 -0.953684 3.1539 111 173 149
-1.69452 -0.900143 3.01848 94 130 116
-0.114126 -0.957131 3.21724 96 147 127
0.184487 -0.964691 3.26072 108 158 146
0.238949 -0.96761 3.2706 96 160 141
-0.651004 -0.909379 3.16465 98 115 104
-0.528202 -0.910508 3.177 71 74 65
-0.209414 -0.914132 3.21589 78 144 125
0.249437 -0.925737 3.27647 107 154 138
0.479058 -0.933178 3.3185 150 200 190
-0.149779 -0.899629 3.21828 86 142 123
0.13748 -0.912063 3.2564 99 106 109
2.20722 -0.990591 3.56153 114 131 128
0.0823055 -0.900372 3.26037 150 181 190
0.246141 -0.90118 3.28341 86 141 122
1.12655 -0.936281 3.40697 115 182 179
-0.449996 -0.868204 3.1913 244 254 254
-0.720562 -0.85507 3.15354 140 174 163
-0.529369 -0.85938 3.18011 143 159 176
0.118196 -0.884658 3.2594 104 108 113
0.083361 -0.874916 3.25472 153 187 186
0.129253 -0.87434 3.26053 110 124 147
0.0888208 -0.864954 3.26013 58 76 69
0.40872 -0.869124 3.31045 137 211 215
0.964135 -0.886746 3.39552 116 176 158
0.519627 -0.869633 3.32538 122 176 163
-0.552168 -0.826198 3.18639 102 101 110
0.0970759 -0.847494 3.26198 102 140 134
-0.696431 -0.805233 3.16045 125 142 145
0.267467 -0.836501 3.28191 76 123 101
0.309066 -0.836172 3.30704 163 214 200
0.34125 -0.83289 3.31555 141 184 169
-0.565545 -0.787564 3.17125 145 173 197
-0.0590898 -0.811731 3.24546 82 101 98
-0.742446 -0.787906 3.16718 93 108 111
0.431383 -0.821662 3.31811 163 215 208
0.2428 -0.807225 3.29526 82 104 92
0.259543 -0.810062 3.30126 144 180 174
0.153521 -0.791566 3.26925 90 118 112
-0.760538 -0.7616 3.1586 106 124 131
-0.583175 -0.75929 3.18719 146 158 170
-0.0393727 -0.774425 3.25748 84 105 102
0.112624 -0.781167 3.28224 82 98 97
0.252237 -0.777584 3.29406 119 152 138
-0.543215 -0.750346 3.19068 104 121 142
0.455924 -0.782815 3.33834 102 146 133
-0.465128 -0.748634 3.20099 241 255 255
-0.585508 -0.729898 3.18101 171 205 229
0.270961 -0.754639 3.30667 46 67 45
0.585445 -0.764549 3.36034 120 179 165
-0.643461 -0.725239 3.17581 109 114 117
-0.988778 -0.643689 2.84292 93 188 168
-0.554463 -0.717683 3.19123 79 81 99
-0.4605 -0.71864 3.20708 204 227 223
-0.0430951 -0.727138 3.25487 78 109 102
0.559793 -0.747352 3.34589 90 140 122
-0.557958 -0.716178 3.20825 142 173 188
0.233027 -0.728829 3.30197 116 162 139
-0.47748 -0.706819 3.20838 134 152 163
-0.457427 -0.699635 3.20673 242 251 254
0.267613 -0.702109 3.30553 139 188 172
-0.429108 -0.669092 3.21712 127 165 159
-0.14453 -0.660316 3.24847 92 138 116
0.34008 -0.678848 3.32906 86 130 107
0.256327 -0.661205 3.3079 107 152 136
-0.681168 -0.638349 3.20074 160 194 217
-1.32616 -0.572582 2.93526 55 129 93
0.411718 -0.65361 3.34398 93 141 129
-0.0999042 -0.615694 3.25857 71 92 93
-0.0818666 -0.612848 3.26825 247 254 255
0.516347 -0.617196 3.36344 75 127 117
-0.0897751 -0.588061 3.27434 251 255 255
-0.759963 -0.55492 3.20761 112 115 123
-0.775525 -0.546548 3.20653 158 181 189
-0.407885 -0.543795 3.24665 254 254 254
-0.140271 -0.544798 3.27097 102 148 172
0.586064 -0.557907 3.38383 111 191 186
0.199269 -0.453391 3.33555 77 126 110
0.0912476 -0.443383 3.31947 94 103 106
0.489513 -0.357697 3.39351 109 171 159
-1.34151 -0.326189 3.16284 203 219 231
-0.170588 -0.316242 3.30226 230 244 250
-0.172605 -0.315254 3.30706 223 241 242
-0.204328 -0.307548 3.30932 226 235 238
0.110376 -0.310237 3.34091 111 153 152
0.0491722 -0.308189 3.33063 214 233 240
0.37725 -0.312475 3.38099 59 125 100
-0.133366 -0.300511 3.31063 108 170 146
0.0810194 -0.281636 3.33755 164 193 197
0.0537461 -0.277348 3.32807 73 80 77
0.394114 -0.264054 3.39401 98 141 126
0.526058 -0.207677 3.42174 94 152 141
0.0978716 -0.198566 3.35728 85 102 91
-0.169654 -0.179809 3.33005 242 255 247
-0.149811 -0.160718 3.33072 87 151 105
-0.169998 -0.156876 3.33237 112 190 166
0.136624 -0.153972 3.36572 71 92 84
0.623024 -0.139048 3.44228 105 158 145
-0.142184 -0.119243 3.34547 108 177 150
0.113452 -0.119909 3.36348 86 105 102
0.0949437 -0.0957013 3.37058 161 195 189
0.0706582 -0.0607895 3.3587 88 134 115
-0.12991 -0.0396733 3.35065 171 234 218
0.0556654 0.00463425 3.38011 74 88 94
0.0454839 0.0117617 3.38835 77 94 103
1.04879 0.0238586 3.53476 79 135 124
1.07698 0.0278013 3.53656 108 152 139
-0.156517 0.0268028 3.36068 135 188 175
0.0221033 0.0255077 3.38302 57 78 79
0.0813441 0.02739 3.40323 86 135 133
0.717296 0.0400839 3.4942 104 150 157
0.270205 0.049564 3.42932 94 110 126
0.529091 0.0486633 3.468 111 170 162
-0.161977 0.0535505 3.3617 101 151 141
0.314301 0.0598026 3.43609 96 167 181
0.24757 0.065267 3.43702 81 89 118
0.550308 0.0668949 3.46948 130 185 206
0.122271 0.0797076 3.41263 173 209 247
-0.0507387 0.0792092 3.34388 92 93 103
-0.144453 0.0987698 3.37834 225 255 250
0.200922 0.0936071 3.43131 88 94 131
0.686506 0.0951566 3.49662 112 176 177
0.0333017 0.104002 3.40345 84 132 120
0.135967 0.112947 3.42262 172 214 255
0.523901 0.115644 3.48332 87 159 153
0.164116 0.117503 3.42848 72 76 87
0.179023 0.117764 3.42773 170 213 240
0.594825 0.120494 3.48494 120 170 200
0.374336 0.135915 3.45737 124 167 188
0.12862 0.138861 3.42694 57 75 68
-0.170178 0.147751 3.37547 98 178 135
0.507798 0.148388 3.46852 105 159 146
0.13297 0.150114 3.4218 154 226 203
0.0198145 0.177993 3.42361 63 83 71
0.312862 0.1785 3.45562 85 93 122
0.400908 0.181308 3.46559 94 134 122
0.284084 0.186491 3.448 83 89 112
0.569227 0.188931 3.48556 87 139 132
0.134944 0.190762 3.43311 79 93 92
0.489881 0.193484 3.47924 81 126 110
0.269981 0.194946 3.44673 72 85 101
0.259096 0.202332 3.45034 77 91 103
-0.168797 0.202326 3.38644 72 131 103
0.00349572 0.203976 3.41279 144 181 177
0.109995 0.20374 3.42274 69 81 87
0.247422 0.208541 3.44735 77 91 97
0.525141 0.21363 3.48193 62 92 87
0.343741 0.211056 3.46052 74 118 111
0.513985 0.217644 3.47277 55 86 85
0.659106 0.22308 3.50954 59 86 83
0.365202 0.224873 3.46431 78 88 88
-0.00363122 0.227321 3.39886 67 79 73
0.786594 0.232682 3.52176 50 88 82
1.06559 0.242162 3.56706 48 90 73
0.222215 0.238537 3.44087 45 71 57
0.766837 0.241225 3.51177 59 98 90
0.195654 0.243313 3.44105 70 96 83
0.474913 0.244198 3.47585 57 97 92
1.15881 0.249699 3.57495 181 217 227
0.898814 0.251767 3.54504 69 104 90
0.472313 0.250646 3.49392 45 81 75
0.718939 0.255709 3.52031 99 147 149
1.04523 0.26201 3.56688 141 207 196
1.17073 0.261121 3.59312 68 94 94
0.45577 0.259341 3.48477 80 120 115
1.43372 0.278543 3.60801 88 109 100
0.573233 0.27586 3.49791 60 84 74
0.8442 0.283108 3.53098 58 80 78
1.95861 0.299241 3.68227 106 150 143
1.24508 0.297096 3.57992 64 95 80
1.27227 0.303156 3.59446 156 210 203
-0.183698 0.29335 3.39925 135 202 173
1.99157 0.317962 3.69478 102 135 128
1.25898 0.31379 3.57894 70 89 64
1.09572 0.321724 3.56881 139 211 181
1.207 0.325252 3.57008 69 79 67
2.02427 0.339647 3.70608 160 206 194
1.87772 0.349272 3.67679 112 152 140
2.04253 0.346237 3.70432 83 99 82
1.17583 0.344434 3.56282 65 84 75
1.27411 0.341871 3.56798 172 200 201
1.1926 0.349959 3.56819 146 193 184
1.779 0.360076 3.68005 94 129 115
1.28853 0.350666 3.57278 82 88 83
1.84734 0.364721 3.67679 145 200 183
1.82106 0.374032 3.68599 133 200 179
2.01041 0.380374 3.70148 153 212 197
1.78597 0.385648 3.67835 140 193 183
2.04214 0.423717 3.71652 92 115 111
1.41455 0.41327 3.63057 83 115 114
1.80006 0.424191 3.67937 135 192 177
2.00976 0.430597 3.71976 158 220 214
1.81706 0.428838 3.68844 54 90 73
1.98362 0.429239 3.70522 97 134 130
-0.192531 0.402851 3.41191 53 113 89
1.84628 0.442716 3.69422 82 114 97
1.6539 0.446518 3.66815 86 137 117
1.778 0.453393 3.68559 160 228 203
1.83918 0.45309 3.68849 86 119 105
1.7988 0.459409 3.68911 81 100 85
2.13517 0.464869 3.73581 123 167 161
1.63252 0.469995 3.67706 97 157 133
2.11728 0.479178 3.73489 149 203 196
1.7244 0.487185 3.6842 82 114 95
1.92437 0.493625 3.71205 97 129 112
2.10823 0.492813 3.73643 92 118 102
-0.203571 0.465512 3.42174 74 129 110
1.04295 0.48975 3.58711 120 193 153
1.72985 0.500045 3.68084 135 191 178
1.63167 0.511152 3.68298 100 134 110
1.89155 0.51078 3.71702 107 160 147
-0.0139636 0.483784 3.45344 56 94 76
1.78488 0.522617 3.68689 77 90 76
1.70617 0.526656 3.68673 140 206 187
1.77042 0.529759 3.68818 140 194 171
1.84124 0.538179 3.69429 61 93 69
1.38561 0.539247 3.63865 101 145 132
-1.19218 0.493792 3.30758 100 83 70
1.73291 0.550062 3.68779 158 200 183
1.7843 0.561213 3.70229 117 159 134
-1.13693 0.51077 3.32207 109 81 64
-1.44295 0.508633 3.2862 119 100 92
-1.28135 0.509992 3.29552 133 114 99
-0.104271 0.528494 3.42288 179 216 244
-1.41729 0.517114 3.28974 198 195 191
1.57949 0.580761 3.66541 76 88 70
-1.09628 0.530073 3.33639 158 133 117
-1.55508 0.526164 3.28921 106 84 79
-1.06348 0.530959 3.34401 133 130 126
1.51305 0.597582 3.66475 163 228 212
1.80367 0.600049 3.69869 126 169 148
1.89158 0.626137 3.72039 94 137 128
1.71746 0.626896 3.69126 134 205 165
2.00172 0.633118 3.73562 105 150 134
-1.05468 0.569724 3.33582 126 110 94
1.52616 0.637554 3.67562 95 122 102
1.69692 0.638776 3.68816 138 209 189
0.00706162 0.605516 3.46348 74 115 100
1.49144 0.644697 3.66028 83 140 109
1.65266 0.661856 3.69588 131 177 158
1.8799 0.671245 3.72677 86 123 107
1.9368 0.67039 3.71764 171 224 214
-0.0218471 0.631314 3.47486 61 97 80
-0.20681 0.634002 3.4515 92 173 146
-0.179363 0.629573 3.4394 71 155 101
-0.0423784 0.645803 3.47965 57 82 72
1.60948 0.684955 3.67859 115 167 144
-0.778431 0.634693 3.36751 122 113 109
1.35166 0.692719 3.64781 110 137 128
1.43676 0.707259 3.66497 95 156 136
2.00298 0.721947 3.75072 80 104 86
-1.04185 0.646354 3.3534 102 73 52
-0.983547 0.650887 3.36153 184 183 179
1.32791 0.713593 3.65971 62 76 70
-0.828103 0.660945 3.37483 91 72 59
-0.128403 0.676572 3.45517 63 154 128
-0.110786 0.679471 3.44492 164 193 237
-0.122253 0.686652 3.44799 168 223 250
-0.832604 0.67497 3.37918 189 194 193
-0.780098 0.683483 3.40627 125 113 109
-1.26292 0.671637 3.323 218 169 121
-1.01777 0.686327 3.35953 119 98 90
-0.983998 0.685238 3.35917 115 90 74
-1.28411 0.686494 3.28853 162 91 57
-0.754359 0.707633 3.39836 102 75 54
-0.162253 0.721565 3.45166 85 163 116
-0.0650467 0.740901 3.4837 106 168 128
-0.754529 0.728977 3.40413 178 175 170
-0.0082142 0.763807 3.50626 81 150 117
-0.0124741 0.773249 3.50328 83 113 100
-0.718345 0.757219 3.41638 145 140 139
-1.08609 0.75803 3.37345 198 200 200
-0.721502 0.76549 3.43246 120 112 113
-0.0290842 0.782811 3.5008 65 104 89
1.14567 0.813394 3.63965 96 172 141
-1.09331 0.764051 3.36854 109 92 83
-0.0769999 0.792948 3.49507 139 214 186
-0.0505628 0.798236 3.50752 67 111 82
-0.909891 0.776432 3.39404 211 209 209
-1.09882 0.77585 3.36474 186 185 187
-1.07829 0.77807 3.37519 184 190 189
-0.898363 0.783843 3.39849 118 105 97
-0.777304 0.796567 3.42267 89 77 67
-0.733748 0.79922 3.41851 106 78 61
-0.0927378 0.825542 3.5077 54 71 50
-0.896486 0.800295 3.40026 207 203 202
0.638145 0.844093 3.58503 64 80 57
-0.749854 0.812808 3.43615 95 69 62
-0.0916068 0.842601 3.50646 108 184 143
-1.05942 0.825101 3.39359 95 79 73
-0.863049 0.831952 3.41506 189 184 183
-1.07881 0.828756 3.3852 174 184 178
-0.161277 0.852499 3.47618 91 151 117
-0.996132 0.835319 3.39295 129 117 111
0.633439 0.886839 3.5936 147 211 192
-0.966899 0.836058 3.38613 185 189 194
-0.780101 -1.1115 2.87362 109 163 140
0.197341 -1.23508 3.2276 215 236 238
-1.58554 -1.13121 2.98517 54 67 59
-1.53281 -1.1385 2.99906 52 88 74
-1.51887 -1.1133 2.99575 126 186 175
0.169088 -1.19348 3.2187 130 134 135
-1.71034 -1.05367 2.99064 118 178 154
-0.626202 -1.09455 3.11913 70 129 109
-0.554616 -1.10595 3.15377 100 157 119
0.103118 -1.11772 3.23735 100 130 131
-0.60196 -1.07032 3.13859 54 72 49
-0.458785 -1.08365 3.17266 108 151 136
0.190586 -1.10429 3.24815 216 234 241
-0.821707 -0.939109 2.8018 40 64 40
-0.508358 -1.05717 3.15981 126 184 166
-0.597131 -1.05536 3.15059 110 170 146
-0.615999 -1.04356 3.15337 53 84 53
-0.426489 -1.05145 3.16915 80 94 92
-0.81653 -0.931302 2.83006 83 144 110
-0.567204 -1.03632 3.14831 123 181 157
-1.76149 -0.976206 2.98744 83 124 103
-0.0505445 -1.04479 3.20882 92 134 117
-1.69536 -0.970155 3.00066 113 180 159
0.125122 -1.04634 3.23996 214 232 239
-0.637919 -1.01228 3.15002 61 86 76
0.029548 -1.03139 3.2092 111 140 131
0.0927846 -1.03891 3.24576 162 193 194
0.0999841 -1.04 3.24927 131 169 171
-0.643752 -0.997246 3.16156 50 54 48
-1.70846 -0.95285 3.00189 54 66 54
0.114752 -1.02545 3.24667 103 101 101
-0.449646 -0.986153 3.17404 148 193 207
0.0969764 -0.997826 3.24749 175 216 219
-0.443979 -0.963614 3.18659 111 130 137
-1.69763 -0.910077 3.01515 50 58 48
-0.457036 -0.957026 3.17033 68 72 100
-0.497875 -0.946363 3.1696 77 72 71
-0.137249 -0.963375 3.21777 109 167 149
0.0242847 -0.961545 3.23055 120 173 160
0.0909838 -0.960955 3.25379 165 207 206
0.202833 -0.939682 3.26544 200 226 233
-0.0244369 -0.918461 3.24798 106 140 130
0.454242 -0.936729 3.31118 88 98 82
-0.0253884 -0.918182 3.25914 127 173 161
2.19809 -0.988508 3.55836 105 119 117
-0.529225 -0.857792 3.15991 145 166 168
0.244406 -0.891485 3.2768 98 150 127
0.431688 -0.89605 3.31074 82 93 83
0.0123785 -0.86674 3.23302 98 132 125
0.40453 -0.881762 3.30998 76 88 88
-1.25938 -0.751432 2.82629 69 138 118
0.110681 -0.857458 3.26406 160 213 210
0.24124 -0.864111 3.27549 56 84 65
0.386777 -0.870625 3.29937 79 93 91
0.0739264 -0.858387 3.2568 121 144 136
-0.779531 -0.814259 3.14773 82 97 99
0.35428 -0.851221 3.29711 87 91 80
-0.210102 -0.819982 3.22871 161 223 207
0.431451 -0.821507 3.32101 160 212 205
0.260352 -0.816122 3.29742 130 186 175
-0.569827 -0.785994 3.19468 158 188 207
0.243871 -0.806706 3.29641 82 104 92
-1.01622 -0.68641 2.83433 55 106 79
-0.132836 -0.772868 3.24123 109 156 140
0.44584 -0.79684 3.34573 146 208 190
0.454691 -0.78265 3.34095 92 134 117
-0.589616 -0.745916 3.21063 88 87 89
-0.753215 -0.724379 3.17308 164 197 200
0.338817 -0.753054 3.30716 60 76 52
-0.609987 -0.720844 3.19097 159 177 194
-0.632199 -0.705614 3.20132 71 87 76
-0.541849 -0.701587 3.19947 252 254 254
-0.949541 -0.623644 2.88498 112 188 140
-0.444474 -0.695031 3.22092 233 237 238
0.419917 -0.719043 3.32508 91 143 126
-0.652129 -0.688298 3.20416 163 202 230
0.31449 -0.705125 3.31653 93 128 108
0.39759 -0.70834 3.34691 145 207 191
-0.920961 -0.603691 2.895 88 173 123
-0.542842 -0.662972 3.21242 138 154 161
-0.961525 -0.598137 2.88901 44 82 46
0.375932 -0.676479 3.32348 88 109 94
-0.679658 -0.639004 3.19494 168 201 221
-0.719113 -0.628252 3.18677 115 113 112
-0.691622 -0.603649 3.20763 107 118 122
-0.725014 -0.594258 3.20178 159 193 216
-0.697847 -0.602243 3.21899 72 73 83
-0.138641 -0.611186 3.26837 207 234 224
-0.116535 -0.594283 3.25761 128 177 161
-0.759691 -0.549338 3.21118 112 119 128
-0.798701 -0.530559 3.19651 133 170 192
-0.830622 -0.497599 3.21391 86 92 99
-0.829046 -0.498552 3.20781 91 93 101
0.326129 -0.474965 3.31988 109 168 153
0.121918 -0.33864 3.33937 198 232 232
0.420253 -0.312775 3.41031 85 147 123
0.0537972 -0.292017 3.33979 158 193 203
0.138312 -0.201296 3.3442 190 220 221
0.119075 -0.18573 3.35972 85 92 77
0.0426118 -0.17392 3.36225 91 113 108
0.120287 -0.153388 3.36064 64 65 49
0.00682538 -0.14464 3.33358 145 184 186
0.0012957 -0.124806 3.34614 150 188 188
-0.0194504 -0.108832 3.30427 56 70 58
0.334805 0.0054314 3.43019 85 97 103
0.153126 0.0449599 3.42 130 200 200
0.709782 0.0419157 3.4903 107 157 157
0.115065 0.0598541 3.41388 136 186 184
0.242714 0.065151 3.42354 78 85 112
0.227933 0.0754651 3.4341 111 143 149
0.187871 0.0979311 3.41918 99 118 133
0.135094 0.106315 3.40222 162 204 239
0.154922 0.120503 3.42056 62 85 71
0.105929 0.135038 3.40604 135 209 197
0.364418 0.136323 3.46425 168 216 222
0.0778393 0.14687 3.42304 136 207 191
0.0771064 0.163471 3.41552 63 73 61
0.159479 0.173564 3.44291 101 144 131
-0.0109412 0.174745 3.41535 143 203 185
0.070501 0.181537 3.40224 110 180 174
0.276984 0.191291 3.46083 78 106 130
0.486156 0.193138 3.4759 82 135 121
0.258568 0.201554 3.44811 77 91 103
0.686045 0.208859 3.50517 90 119 110
0.381805 0.214262 3.47738 83 112 117
-0.0499961 0.216283 3.38873 44 50 45
0.0552822 0.208705 3.40523 111 167 154
0.799562 0.222976 3.52412 53 90 82
0.0780074 0.225646 3.43581 45 61 44
0.215179 0.229538 3.41377 69 90 81
0.652935 0.22768 3.51725 72 105 98
0.938178 0.230677 3.54801 76 110 103
0.0631 0.228456 3.39777 98 127 112
0.217903 0.246412 3.46062 86 146 128
0.329142 0.245948 3.45429 68 86 85
1.15702 0.248538 3.57503 186 221 231
0.755089 0.252563 3.52918 75 98 100
0.453961 0.254062 3.47158 116 161 158
1.16017 0.267188 3.58572 85 106 108
1.2704 0.27781 3.58075 66 103 95
1.4228 0.278492 3.60517 79 103 91
1.39274 0.293954 3.60853 62 77 63
2.03131 0.306118 3.70604 119 165 152
2.02239 0.315308 3.70611 116 151 137
2.0492 0.315222 3.69811 148 201 191
1.17953 0.312489 3.57713 206 237 236
1.20448 0.311299 3.58399 131 171 159
1.98455 0.328125 3.68836 106 132 126
2.09941 0.331907 3.73272 98 124 108
0.788529 0.320785 3.52716 255 255 255
1.24884 0.32704 3.58169 118 174 161
2.14389 0.337644 3.71671 95 127 116
1.04503 0.326017 3.5508 87 121 110
1.35433 0.339275 3.59743 112 166 143
2.04448 0.346384 3.70471 82 98 80
-0.0108794 0.325036 3.42276 47 95 66
1.88152 0.351936 3.68405 98 141 128
1.29033 0.35189 3.57601 75 80 78
-0.0434939 0.339424 3.36109 53 73 50
1.77091 0.369162 3.6789 117 162 145
1.81259 0.36988 3.68047 122 194 172
1.81146 0.394633 3.6674 76 104 84
1.95448 0.396986 3.69436 93 127 116
2.02863 0.413681 3.71136 78 87 74
1.97917 0.420198 3.71006 106 138 133
1.81421 0.42645 3.68228 76 111 97
2.0064 0.4263 3.70802 153 216 207
2.04537 0.424578 3.73995 98 138 127
2.09106 0.442266 3.69854 90 118 105
1.8393 0.444499 3.69019 82 116 99
2.10914 0.454696 3.73042 81 106 96
1.89713 0.478285 3.7294 103 136 121
1.89606 0.468703 3.69904 82 110 97
1.6475 0.477454 3.67091 91 120 97
1.90671 0.484708 3.69511 88 116 97
1.9385 0.485014 3.7119 131 202 182
2.08916 0.498766 3.7385 94 120 106
1.7784 0.497759 3.6815 116 170 153
1.82057 0.509017 3.69408 72 78 61
1.62509 0.505364 3.67318 85 133 109
1.63045 0.508704 3.68132 91 119 99
1.66723 0.509718 3.67666 79 115 85
1.78804 0.505672 3.70095 91 145 128
1.8897 0.514632 3.69701 91 120 105
-0.0546247 0.486382 3.44808 119 179 155
1.26868 0.503655 3.57859 253 255 255
1.8851 0.511359 3.68902 103 143 131
1.72265 0.52191 3.685 78 88 71
1.76285 0.525957 3.68573 143 192 170
1.63195 0.531712 3.67939 126 200 174
1.72461 0.549347 3.68744 133 175 152
1.62441 0.571267 3.70453 154 212 201
1.85672 0.580403 3.70885 92 128 112
1.34373 0.578668 3.64247 80 106 90
1.57851 0.582092 3.66852 73 85 65
1.81754 0.584181 3.70401 65 77 59
1.80659 0.603049 3.70998 106 145 120
-1.56603 0.540682 3.29319 182 182 182
1.519 0.590077 3.63326 78 108 83
-1.15703 0.559785 3.32027 159 150 141
1.5697 0.617119 3.67558 103 135 110
1.99803 0.631659 3.73734 120 163 150
-1.15836 0.565617 3.3327 129 113 100
1.7099 0.626521 3.68257 129 199 159
-1.03556 0.593139 3.34888 107 81 64
-1.62243 0.592889 3.29831 64 48 36
1.65088 0.666068 3.70229 117 152 138
-1.39511 0.616368 3.2747 219 177 132
1.94703 0.699827 3.73087 127 170 149
1.98159 0.708217 3.74715 90 109 92
-0.911718 0.640529 3.36654 187 186 182
