ply
format ascii 1.0
element vertex 566
property float x
property float y
property float z
property uchar blue
property uchar green
property uchar red
end_header
0.882106 -0.378352 1.24327 137 182 139
-5.0905 -8.86349 19.964 150 202 219
1.78488 -4.55747 9.3008 88 175 149
1.78622 -4.56388 9.31643 105 196 171
1.42604 1.44298 -4.07098 38 52 75
4.40709 -3.81364 7.49759 27 111 77
1.08041 -1.34912 3.25899 27 82 63
-1.76471 -3.00603 5.36695 145 177 218
-1.66856 -3.00479 5.36204 59 109 145
0.783047 0.267033 -1.10776 51 72 99
-1.73536 -3.01506 5.38215 52 91 105
-2.10379 -3.01999 5.41736 11 34 30
-2.16408 -3.01052 5.41455 116 167 147
-1.79017 -2.97012 5.35221 115 154 206
-1.80844 -2.9579 5.35685 132 152 207
-2.02762 -2.95955 5.38588 83 126 113
-2.06813 -2.94589 5.41806 115 144 135
-1.86642 -2.91185 5.36339 133 151 204
-3.02284 5.11353 -11.3274 99 153 124
-2.12913 -2.88337 5.4252 105 144 129
-0.603411 -2.85728 5.37366 187 208 216
-2.02966 -2.86801 5.44073 108 153 134
-2.27446 -2.78783 5.37175 140 162 180
0.963226 -1.07751 2.12466 0 67 31
-2.25305 -2.76856 5.33658 155 183 200
-2.18755 -2.78474 5.40795 195 219 209
-2.18186 -2.78809 5.42286 178 207 198
-1.89532 -2.73705 5.36097 121 160 188
0.565861 -0.905091 2.03361 37 117 94
0 0 0 0 61 26
-2.19266 -2.73066 5.42884 120 173 153
-0.126207 -2.72662 5.40675 164 177 185
-0.142474 -2.711 5.39326 159 181 186
-1.99493 -2.65928 5.37213 126 157 190
-0.409392 -2.66353 5.37407 212 225 233
-2.39458 -2.63667 5.35563 39 65 81
-2.37464 -2.64257 5.36525 20 55 81
-1.96032 -2.64423 5.3604 147 167 214
-2.42583 -2.62538 5.35241 146 166 197
-2.04724 -2.60371 5.38155 59 68 106
-2.04765 -2.58961 5.36448 174 189 215
-2.7591 -2.67223 5.56213 163 159 165
-1.76261 -2.5693 5.34296 146 191 225
-1.74462 -2.55059 5.34997 167 180 212
-2.10778 -2.52758 5.3638 34 52 75
-1.71371 -2.52157 5.34968 129 169 211
-2.31418 -2.52208 5.37364 129 143 195
-1.68941 -2.50037 5.33602 133 158 198
-2.16104 -2.50658 5.36813 122 151 182
-1.68641 -2.49733 5.33005 152 179 223
-2.15956 -2.50541 5.36561 122 151 182
-2.03722 -2.48329 5.34224 67 99 142
1.0314 -1.0253 3.77133 114 180 168
-2.8162 -2.57219 5.58862 179 202 198
-2.79931 -2.56969 5.58469 23 47 47
-1.65263 -2.46173 5.35248 139 163 209
-1.61644 -2.42578 5.34334 143 177 213
-1.25302 -2.42238 5.34048 81 107 123
-3.77046 7.56443 -15.123 158 222 200
-2.48052 -2.42219 5.37781 101 138 164
-1.59552 -2.40457 5.33035 157 183 229
-0.453595 -2.41037 5.34736 184 202 209
-1.56783 -2.38006 5.35016 139 178 217
-1.54472 -2.36122 5.33542 141 166 206
-2.7918 -2.45507 5.58208 117 126 136
-2.48126 -2.35922 5.37264 76 98 139
-1.91235 -2.33923 5.33743 145 183 217
-1.52591 -2.34391 5.34135 160 191 224
-1.79727 -2.33646 5.34367 53 92 130
-1.50053 -2.31627 5.34415 160 185 229
-7.49616 13.1898 -30.1485 35 118 80
-0.97642 -2.30698 5.33179 172 200 211
2.30764 -1.53033 3.52541 65 114 68
-1.7781 -2.26566 5.34829 45 75 122
-0.506573 -2.24533 5.33118 71 100 115
-0.336823 -2.20141 5.3329 146 165 178
-1.6096 -2.17318 5.32988 67 116 162
-1.35096 -2.17485 5.34374 157 183 230
-1.12143 -2.15375 5.32288 174 190 203
-1.70346 -2.14037 5.35444 140 176 212
-1.2946 -2.12027 5.33095 165 187 229
-1.25971 -2.08483 5.32581 143 180 214
-1.23748 -2.07126 5.32712 160 184 220
2.95151 -2.09913 4.63623 86 145 107
-1.54188 -2.02049 5.34496 36 61 103
-2.68574 -1.99738 5.4089 180 212 235
-1.1292 -1.96532 5.30916 144 171 205
-1.4532 -1.93553 5.3292 68 115 129
3.85388 -2.18976 5.96096 65 91 68
3.84156 -2.13108 5.93254 93 119 105
-1.43733 -1.86205 5.32393 164 180 196
-1.01226 -1.85396 5.28995 135 177 206
-0.987767 -1.82949 5.29866 132 168 208
-0.931491 -1.77243 5.29932 128 163 203
-1.05382 -1.72722 5.29722 141 162 200
-0.878313 -1.72159 5.29693 129 167 202
-1.06393 -1.72081 5.31965 82 98 140
-1.08296 -1.70022 5.29625 136 158 199
-1.07268 -1.70289 5.30165 63 87 129
-1.21613 -1.67337 5.30529 150 182 223
-0.820832 -1.66953 5.28958 139 168 205
-0.931915 -1.65139 5.30172 44 53 91
-0.805465 -1.64741 5.29226 125 143 180
-0.949967 -1.63365 5.30308 42 55 81
2.48163 -1.18601 3.82351 4 51 19
1.753 -1.56262 3.93016 114 147 133
1.29518 -0.630096 2.53986 89 115 91
-0.718592 -1.55827 5.27807 141 174 213
-1.04087 -1.54296 5.29023 29 54 86
-1.07235 -1.53276 5.29372 138 176 208
-0.713118 -1.53276 5.2867 145 163 204
-0.654629 -1.51103 5.26502 136 157 189
-3.29768 4.92965 -14.4523 9 90 65
-0.638243 -1.49198 5.2724 156 183 227
-0.601653 -1.45525 5.26658 138 176 208
-0.936603 -1.42558 5.27455 8 33 67
-0.555007 -1.39388 5.25572 115 152 186
1.47036 -0.856586 3.23006 96 145 147
-0.494319 -1.34973 5.25888 110 152 189
-0.471237 -1.33206 5.26179 121 151 178
3.40249 -1.40632 5.62003 80 103 89
3.2629 -1.39225 5.58399 112 144 127
3.4713 -1.40603 5.62926 98 117 108
1.40003 -0.791982 3.24502 14 54 26
3.40157 -1.35641 5.57815 84 107 93
-0.406493 -1.25459 5.25118 47 87 136
-0.502667 -1.25055 5.24916 53 86 131
-0.386696 -1.24196 5.24702 101 137 173
3.15015 -1.28658 5.54905 71 85 79
-0.329691 -1.19145 5.23118 107 154 182
-0.312312 -1.17333 5.22402 125 154 185
0.551833 -0.731556 3.84132 106 136 177
3.1019 -1.22582 5.50686 63 85 73
-0.669319 -1.14674 5.25142 126 145 182
3.24543 -1.22032 5.53105 86 109 94
3.40294 -1.2091 5.57182 68 91 76
0.668985 -1.1015 5.24521 85 121 161
-0.217624 -1.08533 5.21384 105 131 171
3.57653 -1.17662 5.57689 88 105 96
-0.200477 -1.06915 5.21937 121 144 176
0.83388 -1.06833 5.21888 68 134 115
1.71129 -1.23856 6.13054 65 158 121
3.00022 -1.09993 5.45646 95 114 99
3.41611 -1.11927 5.52917 102 130 111
0.601148 -1.02824 5.22457 102 136 172
3.56252 -1.10612 5.55072 95 121 108
1.39574 0.400034 -2.56246 209 226 245
-0.0211064 -1.00962 5.20682 166 185 200
-0.00423619 -1.00693 5.19685 168 181 189
3.56852 -1.08554 5.53952 102 135 120
1.28732 -0.777028 2.23889 76 87 84
0.756795 -0.991736 5.23249 147 156 170
-0.634716 -0.983152 5.22896 143 165 190
3.15275 -1.02845 5.44906 108 132 120
3.62111 -1.04708 5.53418 112 135 120
0.548898 -0.970448 5.2018 98 134 180
3.19626 -1.03028 5.47864 108 141 126
-2.44327 -0.970354 5.30291 117 139 151
0.767034 -0.974453 5.2417 156 176 177
3.13558 -1.01919 5.43463 97 122 108
-2.44933 -0.970787 5.31222 139 155 171
-2.45332 -0.95944 5.29125 93 124 139
0.68865 -0.941013 5.20808 65 86 137
3.51918 -1.00594 5.49673 117 151 134
3.51365 -1.00378 5.48468 117 151 134
2.87469 -0.980543 5.39456 85 99 87
-0.0510188 -0.923663 5.2018 110 148 178
0.718536 -0.930219 5.23568 85 107 112
3.47996 -0.985582 5.49254 83 107 95
3.16222 -0.974314 5.44685 100 123 109
0.951479 -0.92311 5.23206 80 105 147
2.24066 -0.940079 5.30657 65 82 78
0.496183 -0.915655 5.20044 92 124 173
0.909297 -0.912303 5.23165 96 141 144
0.909645 -0.908593 5.21102 106 148 153
3.24437 -0.960334 5.45336 98 121 106
0.653149 -0.903535 5.20568 81 104 150
3.21441 -0.956731 5.44189 64 90 72
3.50495 -0.953569 5.49273 93 121 101
1.57058 -0.545143 3.16184 7 63 42
0.956683 -0.886423 5.21815 86 131 134
2.21027 -0.908329 5.30234 69 90 81
0.634808 -0.88216 5.19316 68 98 155
0.874473 -0.89068 5.23713 149 184 204
3.14474 -0.927145 5.42941 98 124 111
3.17535 -0.922506 5.43685 96 129 114
3.22116 -0.912706 5.44003 74 89 81
3.1999 -0.908053 5.43796 75 92 83
2.15923 -0.877139 5.27314 75 93 86
-0.350311 -0.848274 5.19778 109 134 166
0.9711 -0.849301 5.20655 104 145 147
0.728003 -0.848305 5.2219 84 113 134
3.55716 -0.893093 5.48454 77 100 85
0.736166 -0.835269 5.23678 135 166 187
0.715523 -0.824723 5.22936 148 181 201
0.747862 -0.825017 5.22176 104 152 164
0.710087 -0.831703 5.27004 138 171 191
0.746278 -0.829368 5.2544 117 152 178
0.689414 -0.820533 5.22377 91 119 143
0.664276 -0.8173 5.23093 107 126 147
0.991881 -0.813877 5.21533 68 94 106
0.967362 -0.807971 5.20019 56 88 93
2.19585 -0.824629 5.27215 82 103 94
0.73658 -0.802266 5.23285 114 148 164
2.17312 -0.812304 5.25937 75 96 81
-0.300869 -0.786914 5.1868 112 141 178
0.756671 -0.79606 5.22772 89 126 146
1.75132 -0.797533 5.21431 77 94 90
2.19046 -0.805341 5.26049 89 113 101
0.935537 -0.762183 5.1881 84 106 118
0.692566 -0.7607 5.20543 111 156 140
0.7841 -0.760795 5.21659 91 132 135
0.759573 -0.75709 5.20097 77 124 115
0.744364 -0.744846 5.20149 90 117 121
-1.43855 -0.739144 5.27498 192 216 238
-1.43966 -0.740416 5.2919 182 209 230
-1.43559 -0.731534 5.28254 175 211 221
5.5839 -3.31667 14.9134 74 88 84
0.604132 -0.724738 5.21765 103 153 149
-2.11562 -0.68993 5.25561 141 157 174
0.538156 -0.687073 5.21649 124 156 151
3.08931 -0.714861 5.37946 114 129 131
3.10448 -0.713471 5.3839 105 116 124
1.51093 -0.683527 5.18429 76 107 92
1.19712 -0.672447 5.17006 82 109 100
0.220256 -0.662941 5.16532 121 151 192
0.611461 -0.670688 5.19908 56 92 86
0.633555 -0.666733 5.20201 80 107 103
0.24596 -0.655381 5.15728 10 38 68
0.696375 -0.648592 5.19789 90 114 114
0.705605 -0.641995 5.19488 96 135 137
0.392008 -0.628421 5.16581 87 111 157
0.56059 -0.633089 5.20412 83 115 110
0.703915 -0.625853 5.18105 79 119 108
0.5446 -0.624385 5.20016 90 124 114
1.34673 -0.620229 5.15657 86 113 103
-2.03446 -0.617219 5.24186 103 134 159
0.643048 -0.614952 5.18937 103 150 134
0.966185 -0.616526 5.17331 74 117 102
0.763043 -0.613544 5.18592 73 112 96
2.85781 -0.633799 5.35383 83 102 93
0.679986 -0.594103 5.1888 8 46 34
0.735408 -0.596091 5.18614 102 131 122
0.64794 -0.583217 5.16799 72 116 99
0.870316 -0.585279 5.17686 109 153 136
0.50543 -0.580613 5.17497 78 110 105
1.01149 -0.581285 5.16328 89 135 113
0.338655 -0.576151 5.14992 84 117 156
0.337783 -0.57591 5.15654 74 103 130
0.730796 -0.578857 5.18628 100 134 124
0.859008 -0.558193 5.1773 87 113 107
0.996131 -0.54669 5.15453 5 41 27
2.03865 -0.55564 5.20874 77 106 111
1.05475 -0.541816 5.18337 105 128 120
0.676924 -0.537422 5.17723 133 154 152
1.23513 -0.523013 5.16746 107 126 129
0.664877 -0.507768 5.17773 81 104 96
0.799385 -0.504299 5.16603 134 153 144
2.06696 -0.507922 5.22301 74 93 90
0.991704 -0.488551 5.16342 78 110 99
0.626247 -0.483448 5.16775 92 107 109
1.26541 -0.471678 5.17066 81 95 101
0.876255 -0.467586 5.1766 80 124 117
0.936086 -0.458845 5.1473 78 122 105
0.811068 -0.457333 5.18471 95 122 132
0.262204 -0.450467 5.15256 68 107 92
0.7936 -0.448224 5.16722 116 153 157
1.16406 -0.449628 5.16428 84 102 103
2.39254 -0.461612 5.26178 79 105 99
1.90006 -0.445724 5.21926 84 107 103
3.07045 -0.460909 5.36958 86 100 99
0.613438 -0.434723 5.1813 70 104 98
1.92182 -0.439161 5.21247 112 125 127
1.72254 -0.423683 5.18784 74 99 89
0.185406 -0.412688 5.12747 78 100 128
2.87637 -0.431709 5.33012 86 103 92
0.435184 -0.413022 5.19191 88 107 104
2.49769 -0.422307 5.27143 86 103 92
0.701045 -0.409308 5.16895 75 105 106
0.179574 -0.394974 5.13884 66 91 107
0.429093 -0.385612 5.20261 113 137 127
0.229149 -0.372251 5.15461 92 122 109
0.699703 -0.374468 5.17525 137 160 175
2.37626 -0.382991 5.25847 84 107 99
0.664297 -0.370782 5.18331 99 126 146
0.874109 -0.369679 5.1572 88 115 111
0.648207 -0.368614 5.18596 78 107 122
0.231497 -0.360901 5.13904 82 120 102
0.19099 -0.354838 5.14665 95 112 103
0.780914 -0.354762 5.15829 96 118 143
0.640404 -0.352411 5.17793 99 143 136
0.373811 -0.344386 5.17488 78 110 99
1.1031 -0.346543 5.1719 104 122 139
0.21145 -0.342824 5.15624 100 126 112
0.729309 -0.341589 5.18181 85 106 134
0.737765 -0.338656 5.15082 103 125 150
0.438443 -0.336909 5.18318 126 152 146
1.35878 -0.328544 5.11077 82 106 148
0.26473 -0.325237 5.14188 102 142 130
1.12945 -0.326828 5.11001 81 116 160
0.253811 -0.313053 5.12843 13 51 39
-1.69104 -0.31164 5.23095 188 220 233
2.22952 -0.309939 5.17638 187 195 208
-1.67335 -0.299369 5.19453 87 116 131
-1.6929 -0.268465 5.17648 119 143 179
0.690398 -0.257836 5.09497 128 167 212
1.43729 -0.254691 5.10133 80 107 144
1.56095 -0.223851 5.09362 21 56 100
1.37306 -0.20349 5.09218 21 44 89
-2.47936 -0.184722 5.19808 155 166 174
-1.80635 -0.151057 5.20702 75 97 138
2.30316 -0.147833 5.13569 112 124 158
1.59118 -0.0541019 5.06128 98 119 170
1.6693 -0.0565729 5.07492 72 86 128
1.81963 -0.0569414 5.07081 80 100 135
1.38266 -0.0483959 5.05702 73 89 136
1.17123 -0.049866 5.4683 94 126 175
1.15776 -0.0466039 5.04238 83 115 156
1.38259 -0.0486499 5.05593 73 89 136
1.06253 -0.0436077 5.05156 62 80 127
0.622138 -0.031557 5.05168 14 33 78
0.301867 -0.0273673 5.06799 71 94 139
0.452036 -0.0303982 5.06708 97 116 159
0.608446 -0.0318057 5.05244 99 118 156
1.95557 -0.0328602 5.15581 87 96 100
0.31993 -0.0274757 5.07565 84 109 149
1.69033 -0.0273109 5.11777 90 101 109
0.0859685 -0.0209336 5.08284 15 44 81
1.69253 -0.0272873 5.13409 80 90 100
2.40586 -0.0229198 5.20716 85 98 100
2.66957 -0.0249962 5.23583 126 139 141
0.0235454 -0.0262786 5.97937 91 117 154
2.56932 -0.0167198 5.21782 100 106 111
2.05754 -0.0102435 5.16352 120 137 134
3.11016 -0.0135359 5.27533 149 166 162
1.72566 -0.0107053 5.12549 107 121 120
3.11329 -0.00996476 5.26981 148 153 156
1.71437 -0.00654633 5.11886 104 118 116
2.97369 0.000402422 5.28123 105 114 118
2.34564 0.00569744 5.19771 99 120 121
1.40013 0.00924979 5.12663 195 198 206
1.48588 0.0107039 5.12479 110 129 144
1.67828 0.00863616 5.11922 119 141 147
1.41403 0.0111203 5.14314 158 156 168
2.03988 0.0106778 5.15906 112 127 129
2.32769 0.0108479 5.17436 96 118 116
3.45546 0.0093889 5.30787 95 115 103
0.41445 0.0176739 5.15189 118 127 137
2.77349 0.0158116 5.2365 119 132 130
-0.0395427 0.0285867 5.1819 84 104 99
0.666503 0.027449 5.12639 87 105 106
1.37285 0.0284105 5.13394 135 156 157
1.38266 0.0250822 5.1248 25 40 43
1.97697 0.0279688 5.14288 107 119 125
1.7728 0.0298859 5.12355 108 127 132
1.91695 0.0263985 5.13647 121 140 137
0.684351 0.033073 5.12113 119 155 139
1.90926 0.0322055 5.14096 124 138 136
2.03895 0.0281541 5.14379 120 141 139
2.31398 0.034365 5.19092 107 126 123
2.79281 0.0303763 5.22315 82 95 97
2.06865 0.0366471 5.15057 140 145 154
3.01476 0.0349162 5.26346 93 105 107
1.19489 0.0393397 5.1103 107 126 139
-0.0904536 0.0438594 5.20497 93 99 104
1.38851 0.0438533 5.11477 183 189 196
1.86922 0.0464369 5.13719 112 126 132
0.400594 0.0510823 5.14934 110 126 139
1.46052 0.0500201 5.10935 85 112 133
1.80734 0.0502857 5.12018 142 157 159
-0.0774462 0.0554902 5.20262 115 118 123
3.21408 0.0557432 5.26569 116 131 133
1.44256 0.0553563 5.1238 93 112 125
3.21266 0.0566148 5.26235 113 131 132
2.40844 0.0576137 5.17805 125 139 137
2.96837 0.0594891 5.25679 112 126 120
1.41727 0.0631772 5.11038 101 110 123
1.48388 0.0598305 5.10291 102 126 132
1.50451 0.063554 5.10608 103 130 127
2.10287 0.0635539 5.14068 124 143 148
2.84756 0.0641859 5.24898 88 106 105
3.38638 0.0630487 5.28396 99 111 117
-0.168061 0.068794 5.21184 79 112 105
1.5114 0.0669539 5.09699 120 147 144
-0.173207 0.0745791 5.19049 69 101 96
1.29131 0.0697278 5.11349 116 136 147
1.88425 0.068953 5.12109 97 111 117
2.21658 0.0706298 5.13622 97 114 117
1.47442 0.073055 5.09927 130 156 162
1.67115 0.076906 5.10643 117 136 143
1.48378 0.0810222 5.07855 118 146 146
2.30325 0.0817804 5.16782 125 137 139
0.311311 0.0879052 5.15494 173 175 185
1.0307 0.089458 5.10685 136 147 167
1.92527 0.0897194 5.12201 136 151 154
-0.187648 0.0956951 5.19614 92 115 110
1.13713 0.0923128 5.10212 127 152 168
1.58588 0.0935736 5.09793 164 178 184
1.63339 0.0934841 5.1059 117 141 147
2.34827 0.0953024 5.15908 131 138 135
-1.56317 0.101012 5.16214 133 163 182
-0.138266 0.0990042 5.18001 71 114 101
1.38861 0.0981842 5.11122 117 139 145
0.69814 0.103637 5.12414 142 155 163
1.85594 0.100037 5.11782 21 41 46
-0.184586 0.105008 5.20597 93 122 119
0.605932 0.105577 5.1188 104 119 135
1.27688 0.104299 5.09459 132 154 166
2.34463 0.103352 5.16661 171 174 179
1.58348 0.112971 5.09789 36 57 55
1.60347 0.11048 5.10109 190 199 208
0.236192 0.118006 5.17487 93 109 121
0.805953 0.117958 5.11582 131 145 164
1.39119 0.120397 5.12356 113 140 144
2.335 0.11966 5.15591 110 124 130
3.27067 0.119138 5.23756 108 133 123
1.16436 0.120434 5.06707 130 149 162
1.38924 0.121313 5.09866 128 153 155
1.86588 0.119371 5.10087 38 51 59
2.18059 0.121407 5.13515 119 130 138
2.35532 0.12418 5.15291 111 126 142
-0.390862 0.132572 5.11289 135 169 205
0.63096 0.129927 5.11378 139 158 173
0.892685 0.129225 5.10768 112 130 147
0.962625 0.12923 5.10568 143 158 174
1.58955 0.127704 5.08158 133 164 185
1.7416 0.131454 5.09322 113 136 151
-0.172341 0.134274 5.19585 93 115 113
1.70421 0.13256 5.0978 96 119 134
1.95387 0.133285 5.11108 155 165 165
0.935242 0.0689477 2.33189 60 82 80
-2.15652 0.141855 5.13461 216 229 245
0.840577 0.1404 5.10461 120 139 154
2.24472 0.142033 5.13146 121 142 139
3.20654 0.141825 5.23818 88 105 102
-1.44129 0.148276 5.13834 121 158 180
-0.261419 0.148248 5.19965 152 163 161
0.0824052 0.144879 5.15282 79 112 105
1.64864 0.145132 5.092 112 128 140
2.63811 0.146171 5.16057 130 137 140
1.3905 0.150937 5.09712 157 159 169
1.47777 0.149825 5.08556 128 144 167
1.56671 0.149589 5.08735 97 118 120
2.09099 0.149892 5.1179 116 127 124
2.25249 0.15159 5.14852 126 136 136
0.453886 0.153754 5.11074 96 132 120
1.91402 0.152022 5.10543 170 191 192
3.01724 0.157844 5.20055 114 131 128
-0.0653454 0.163327 5.20495 93 100 115
1.78691 0.161951 5.08766 119 136 122
2.09164 0.160347 5.11702 171 178 181
3.02909 0.163089 5.18793 157 165 165
3.2288 0.165019 5.22658 137 151 150
0.859481 0.165204 5.09681 185 200 216
1.47408 0.164902 5.07347 139 155 162
2.53781 0.170098 5.152 107 116 120
0.715644 0.167324 5.10433 106 130 150
0.808053 0.169763 5.08177 115 142 156
2.94014 0.169682 5.20174 107 120 122
1.58428 0.173293 5.05596 135 162 166
1.87049 0.173181 5.08766 108 131 139
2.537 0.171683 5.1494 109 118 122
-2.11098 0.176793 5.12364 146 152 165
-0.0643845 0.177321 5.20998 118 135 144
0.0391697 0.176859 5.1802 84 117 110
0.980213 0.171088 5.08683 97 125 132
1.35519 0.176147 5.10399 149 167 166
1.35331 0.17605 5.07749 136 157 155
2.24887 0.17552 5.11256 126 139 137
1.44349 0.178014 5.08652 33 49 48
0.147765 0.191609 5.19003 107 122 138
1.38631 0.183349 5.06748 177 197 184
2.70089 0.185584 5.15759 164 172 172
1.10272 0.188106 5.05432 46 55 69
1.97702 0.188099 5.08794 111 123 129
0.307877 0.193511 5.1529 98 132 145
0.598781 0.193565 5.10818 107 128 143
1.22796 0.188606 5.07337 113 148 151
1.44308 0.189104 5.0554 189 183 188
2.0645 0.190959 5.10258 130 142 148
0.103437 0.19618 5.16644 102 149 140
0.995979 0.193967 5.0582 140 152 164
1.00852 0.194645 5.06858 138 155 174
1.59702 0.193968 5.04382 138 152 180
0.487468 0.205199 5.13151 108 120 144
0.806272 0.201541 5.0644 47 73 85
1.1969 0.201751 5.07137 111 140 145
1.22232 0.198861 5.04886 134 154 155
1.32729 0.200736 5.07659 132 166 160
0.819736 -0.0581755 1.23023 39 46 85
0.487878 0.205938 5.12715 116 130 153
0.589475 0.208031 5.11095 118 140 152
0.554989 0.210626 5.11468 103 124 145
0.148542 0.213909 5.16606 141 157 164
-0.430818 0.215831 5.11002 37 59 94
-0.0844471 0.218118 5.19795 116 132 138
0.0670669 0.219173 5.15617 88 126 114
0.0676335 0.219337 5.15299 88 126 114
0.743673 0.217111 5.08594 105 131 147
1.33111 0.218627 5.07562 35 60 70
1.42719 0.215847 5.0222 23 39 56
-0.43714 0.227285 5.10522 98 125 159
0.229825 0.227644 5.14937 119 159 157
-0.437003 0.227253 5.10473 98 125 159
-0.289487 0.230279 5.14206 81 118 102
-0.179788 0.232111 5.19498 117 120 134
2.36403 0.226516 5.01866 36 55 88
-0.111735 0.234251 5.18149 157 160 168
-0.0955593 0.241563 5.1868 109 113 132
0.166199 0.242538 5.14886 18 44 60
0.591215 -0.0349376 5.33667 112 149 187
-0.309084 0.258874 5.09207 99 120 142
-1.86909 0.266255 5.08366 122 141 162
-1.93188 0.27844 5.10596 117 146 160
-1.91604 0.300142 5.09591 139 150 164
0.290233 0.337867 5.0115 105 134 178
-1.90422 0.385127 5.08412 112 116 135
8.72939 0.27982 19.8119 18 34 70
-0.810295 0.418338 5.13915 133 149 156
-0.816534 0.424334 5.13646 131 144 160
-0.785785 0.435958 5.13505 156 183 197
-0.838183 0.439841 5.13723 107 110 141
-0.818273 0.449484 5.1353 160 168 175
3.03346 0.44253 4.986 38 49 81
2.53946 0.454237 4.9479 33 58 90
2.3077 0.46041 4.94489 17 38 70
2.38515 0.458072 4.94282 25 47 75
2.22665 0.456814 4.93526 27 57 76
2.30802 0.459751 4.94605 17 38 70
2.61973 0.464869 4.96108 57 77 108
2.0754 0.468799 4.92704 39 60 91
-0.288739 0.481682 5.05413 149 187 221
2.14576 0.470627 4.91691 50 76 106
-0.293277 0.484002 5.0719 137 175 209
1.67466 0.473858 4.90783 32 47 80
1.75851 0.474265 4.92422 36 60 96
1.52166 0.477587 4.91705 5 30 64
1.74324 0.483241 4.9207 167 188 210
1.73185 0.484404 4.90919 145 170 196
0.758346 0.495888 4.9412 22 47 87
0.831297 0.496701 4.93111 37 69 105
0.78499 0.502709 4.9203 144 176 205
-0.103368 0.627751 5.00294 150 178 209
0.889739 0.656788 4.88654 154 177 227
-1.14121 0.742238 4.9271 118 143 153
1.52375 0.789561 4.62467 180 221 243
-0.080531 0.863084 4.97372 168 205 225
-0.812601 0.881855 4.8664 67 91 115
1.64549 0.896038 4.59512 94 127 147
-0.0920457 0.940024 4.73428 95 112 133
3.00744 0.920136 4.60103 119 131 137
-0.91604 0.970115 4.88078 125 147 153
1.5393 0.96645 4.57279 133 149 161
0.0634421 -0.263553 -2.68739 107 133 147
1.45982 1.0893 4.54124 115 131 138
-0.324246 1.1537 4.7424 129 144 153
-0.765412 1.29507 4.81901 118 127 130
0.350997 1.30353 4.61295 106 118 128
-0.592372 1.37063 4.76378 126 140 146
-0.0527157 1.37387 4.66175 132 148 161
1.81275 1.32912 4.45687 122 135 143
-0.525735 1.44767 4.74628 111 124 140
0.331927 0.225283 1.03846 90 106 123
-0.912373 1.52637 4.82478 102 97 106
-0.0758248 0.304378 1.67056 94 105 125
0.0212031 1.60551 4.61085 101 118 131
