ply
format ascii 1.0
element vertex 1440
property float x
property float y
property float z
property uchar blue
property uchar green
property uchar red
end_header
-3.87638 -5.62257 19.762 181 240 225
4.52775 -9.75286 33.5725 85 145 137
-3.93734 -5.56748 19.6032 63 143 112
-3.33544 -5.91201 20.7837 68 142 116
-3.36104 -5.8977 20.7735 171 243 213
-5.58238 -4.50926 16.1041 68 125 100
-5.5802 -4.50709 16.0965 68 125 100
-3.60928 -5.76326 20.3349 81 144 118
0.654744 1.19547 -6.89485 55 113 102
-0.606895 -7.36415 25.7626 169 226 218
-4.58964 -5.10563 18.1991 158 227 212
-4.22529 -5.3785 19.1307 70 132 110
-3.79509 -5.64336 20.0563 174 231 210
-3.61051 -5.72989 20.3553 80 124 107
-0.846399 -7.23155 25.4052 81 150 135
4.87112 -9.80982 34.0919 86 157 147
-3.6616 -5.65637 20.1647 100 141 113
-0.378854 -7.47233 26.2851 91 149 148
-3.93082 -5.51613 19.6917 96 172 154
-3.61313 -5.71868 20.407 145 186 165
-2.27675 -6.46 22.9009 114 151 155
-4.31998 -5.20554 18.6838 143 201 160
-3.71318 -5.62747 20.1387 83 159 141
0 0 0 86 146 140
-5.7952 -4.38461 15.9031 72 132 108
-5.53002 -4.51374 16.3662 72 145 123
-4.38774 -5.15138 18.5722 32 117 79
-3.68148 -5.64936 20.3046 78 139 113
-3.6412 -5.63148 20.2505 126 170 141
-5.11374 -4.68811 16.9976 53 124 104
-5.9315 -4.16706 15.2307 144 208 166
-4.37822 -5.2099 18.8206 60 99 74
-4.07951 -5.37037 19.3664 146 217 191
-2.26295 -6.36172 22.7753 182 225 210
4.09432 -9.34256 32.9077 86 171 157
-2.23921 -6.36924 22.8296 71 121 109
-3.9371 -5.45556 19.7043 158 215 184
10.9869 -11.6519 40.7852 87 151 151
-3.89397 -5.48066 19.8102 74 102 96
-4.29795 -5.19271 18.8886 161 228 201
-3.60389 -5.6121 20.3271 148 220 198
-0.728177 -7.17139 25.7224 70 137 130
-4.0123 -5.36266 19.5186 57 101 72
-0.728185 -7.17112 25.7216 67 131 125
1.66412 -8.27937 29.5783 128 210 168
-3.77767 -5.50827 20.0604 96 138 127
-6.11298 -4.03264 14.9446 62 145 113
-3.60593 -5.60571 20.4111 70 137 122
1.59519 -8.24101 29.5033 86 168 126
5.10522 -9.6355 34.3186 78 154 142
-3.81202 -5.5221 20.1691 86 141 126
1.72914 -8.28314 29.6812 131 205 171
-3.92148 -5.40974 19.7923 148 205 202
-3.78867 -5.49669 20.1042 82 148 137
-4.58479 -4.94396 18.177 156 213 204
-3.86354 -5.44655 19.9425 173 216 207
-2.25735 -6.28462 22.8587 155 224 214
-3.82435 -5.44323 19.9467 80 115 119
-3.56844 -5.60232 20.5349 85 146 132
5.35668 -9.72342 34.7949 87 156 143
5.44989 -9.74847 34.8899 91 164 148
-3.18484 -5.75612 21.0792 81 146 125
-3.35916 -5.71462 20.9808 98 157 143
1.93121 -8.30623 29.9796 162 239 212
-4.79203 -4.75711 17.6742 96 141 125
-4.37774 -5.08723 18.8198 59 86 83
-1.80223 -6.52306 23.8777 74 130 117
-3.66285 -5.48669 20.2576 133 214 181
-3.63358 -5.51697 20.3606 139 215 181
-3.57865 -5.56932 20.5555 65 144 125
-4.07399 -5.25309 19.4664 145 213 182
-4.42165 -5.0299 18.7074 84 127 124
-3.88622 -5.34919 19.8286 167 233 198
-4.12148 -5.2073 19.3822 149 229 192
-3.63706 -5.48045 20.35 67 132 116
1.14031 -7.9049 28.8935 75 142 133
-5.03221 -4.61291 17.2841 99 149 137
4.62583 -9.27997 33.7008 71 148 134
-5.36189 -4.45611 16.7635 145 206 186
-4.02045 -5.27916 19.6926 76 117 102
-3.88151 -5.35497 19.9304 54 109 84
-3.42664 -5.57025 20.7097 151 206 191
-3.82054 -5.30491 19.7865 138 203 181
-3.99574 -5.217 19.5923 191 239 221
-3.77343 -5.3862 20.1959 81 143 125
-4.58825 -4.82534 18.2525 84 128 127
-1.80067 -6.31632 23.574 71 149 126
4.91151 -9.27428 34.0799 84 143 129
-4.40835 -5.00322 18.9558 59 113 106
-0.123216 -7.18145 26.7503 105 152 150
-4.37048 -4.94485 18.747 84 141 133
5.34678 -9.38086 34.6303 82 155 139
-4.2551 -5.03045 19.1218 43 108 92
-0.392709 -7.05946 26.4435 84 141 143
-3.94269 -5.16133 19.6286 152 211 196
-3.45288 -5.44007 20.6379 88 141 132
0 0 0 94 161 152
-4.12305 -5.0877 19.4205 78 140 126
-3.88207 -5.21611 19.8916 82 152 112
-2.56223 -5.87196 22.2868 82 143 133
-1.75033 -6.31231 23.9118 47 121 109
0.0658058 -7.18382 27.0958 99 163 157
-5.19558 -4.40795 17.0993 96 146 142
-3.85136 -5.27437 20.2943 112 161 153
0.168508 -7.22969 27.4306 179 234 217
5.50121 -9.3466 35.0747 82 157 135
-5.18186 -4.3809 17.0705 144 204 196
8.12458 -10.1184 38.0226 71 154 152
-3.96956 -5.09086 19.7468 80 148 131
-3.31233 -5.41008 20.9805 154 211 196
-2.43729 -5.86702 22.667 64 112 106
5.56677 -9.238 35.0633 70 142 130
5.62816 -9.32328 35.3928 63 135 123
-2.52732 -5.78877 22.4958 65 134 119
-5.44425 -4.2146 16.6604 62 118 105
-3.30692 -5.40089 21.1099 156 222 203
-1.7352 -6.18799 24.1531 70 150 137
-5.72361 -4.06637 16.267 66 135 114
-4.6831 -4.56968 18.127 145 220 199
-5.15596 -4.2715 17.0673 71 137 126
-3.74643 -5.12338 20.2657 84 147 137
-5.07918 -4.28445 17.2077 81 137 124
-5.81208 -3.91451 15.8321 142 218 186
-3.90813 -5.02751 20.0503 63 115 108
-3.53355 -5.15909 20.5737 72 134 122
-5.2411 -4.24863 17.1589 75 126 118
3.8978 -8.45011 32.9858 104 176 164
-5.14474 -4.24498 17.1415 76 145 125
-0.594079 -6.67489 26.363 82 136 129
-0.354049 -6.75777 26.6692 85 150 148
-5.12087 -4.23798 17.1532 141 199 175
9.40374 -10.2222 39.6719 70 125 116
-5.09876 -4.23752 17.2026 150 205 196
-5.02089 -4.25493 17.2605 87 142 133
-5.00533 -4.26494 17.3155 142 205 195
-5.90366 -3.78985 15.5595 141 189 165
-4.33719 -4.69245 19.0387 107 160 151
-5.93739 -3.74685 15.4488 139 195 172
-1.60725 -6.05272 24.323 79 148 137
10.0858 -10.2704 40.3596 164 232 215
2.43364 -7.7318 30.7838 96 167 150
-5.5003 -4.00693 16.518 151 212 192
-3.44215 -5.08819 20.7346 138 214 190
9.38467 -10.0505 39.6493 69 150 123
-4.45905 -4.55574 18.665 73 127 120
-3.78349 -4.9672 20.2759 103 155 148
-2.83348 -5.40662 21.9673 160 229 209
10.1117 -10.2452 40.4578 73 138 123
-3.98925 -4.82758 19.7454 83 146 136
-2.40219 -5.59228 22.7797 143 225 206
2.40455 -7.70515 30.8711 176 242 230
-5.63002 -3.90202 16.2224 81 148 133
-3.15367 -5.21301 21.3063 94 150 137
-5.04598 -4.17388 17.3198 165 227 209
-2.9277 -5.35891 21.927 59 136 122
-3.01012 -5.26196 21.5798 155 227 207
-1.28373 -6.12176 24.8821 70 141 131
-4.63347 -4.4477 18.4415 60 117 108
-3.34856 -5.08106 20.93 157 216 202
-3.39123 -5.02516 20.843 74 136 120
-2.93345 -5.27926 21.8611 113 175 163
1.81621 -7.39064 30.149 82 150 133
-5.87513 -3.76314 15.9125 172 239 200
2.80061 -7.73243 31.5133 73 133 123
-5.78342 -3.79163 16.0699 42 110 87
-0.931256 -6.2296 25.7264 76 152 140
9.92704 -10.0167 40.5466 77 148 128
-5.69561 -3.80262 16.1726 95 157 145
-2.79337 -5.28616 22.0998 63 116 107
-0.994272 -6.12465 25.4476 94 163 153
-3.67374 -4.85952 20.4492 168 232 213
2.65108 -7.59433 31.3591 95 164 151
9.82447 -9.86019 40.2688 65 155 132
-5.05398 -4.0912 17.4677 84 131 122
0 0 0 172 219 217
-5.55064 -3.83368 16.5041 162 214 197
-2.90511 -5.16706 21.9159 161 240 221
0 0 0 99 176 172
0 0 0 78 118 107
-6.06444 -3.51017 15.2754 143 202 174
-3.89945 -4.65526 19.9909 102 155 146
-3.4638 -4.89224 20.9694 58 118 108
-5.24525 -3.96757 17.192 84 137 128
-4.07648 -4.58593 19.7152 177 225 219
-3.10906 -4.99752 21.4107 167 229 217
-5.30723 -3.86413 16.8672 138 185 176
0 0 0 69 153 128
0 0 0 140 189 169
-5.94587 -3.5472 15.6769 154 215 181
0 0 0 164 232 209
-5.93111 -3.55901 15.7232 149 209 185
-3.6295 -4.67473 20.3572 162 220 202
-2.25551 -5.39718 23.2664 161 217 206
-4.19309 -4.44122 19.3947 161 211 199
-3.85992 -4.63705 20.1973 90 162 149
-0.341529 -6.23856 26.7645 178 237 223
-6.3488 -3.2948 14.6753 152 230 189
-5.42821 -3.79507 16.7777 154 228 204
0 0 0 154 213 198
-6.36345 -3.2813 14.6891 79 146 114
-5.49748 -3.80378 16.8714 74 125 117
-4.09415 -4.44613 19.5144 77 124 115
-2.58301 -5.19185 22.5964 88 140 130
-5.10415 -3.95414 17.5077 76 148 135
-3.37569 -4.81963 21.1213 161 227 215
0 0 0 107 160 147
0 0 0 99 170 167
-3.33493 -4.81014 21.1987 53 124 108
-2.5765 -5.13911 22.6263 158 232 214
-2.46022 -5.13828 22.8418 80 146 134
-2.39413 -5.16211 22.9828 160 224 212
-2.17181 -5.26956 23.4329 77 137 127
-2.5506 -5.12655 22.8745 82 140 129
-2.29354 -5.22839 23.3007 165 218 198
-4.80042 -4.01261 18.1481 80 142 136
-4.35236 -4.23541 19.1063 175 235 227
0.0719443 4.03944 -9.20533 88 154 143
-6.08152 -3.36658 15.4584 68 133 111
-3.88705 -4.44152 20.0538 68 126 115
0 0 0 82 166 142
-5.8014 -3.45038 15.8469 192 237 210
-3.42553 -4.65703 21.0239 92 148 137
-3.85314 -4.45755 20.1686 170 223 213
0 0 0 87 154 147
-4.48733 -4.14339 18.8492 158 225 216
-5.99544 -3.34985 15.4629 153 223 200
-2.60338 -4.99586 22.531 64 134 117
-2.15149 -5.2259 23.5079 74 135 121
0 0 0 92 140 141
-6.60739 -3.05178 14.2545 75 142 127
-5.32491 -3.70647 17.0708 74 136 122
0.558931 -6.34984 28.4201 82 147 138
0 0 0 76 142 130
0 0 0 63 137 119
0 0 0 100 146 134
-4.14206 -4.27125 19.5757 172 241 226
6.30679 -8.16665 36.2291 163 232 217
0 0 0 90 153 144
10.8478 -9.33122 41.259 79 146 131
0 0 0 85 137 130
-3.53524 -4.57059 20.9903 149 229 200
-0.853674 -5.74238 25.9903 77 146 135
10.9841 -9.439 41.7351 73 137 125
-0.4369 -5.871 26.6021 69 137 130
3.23007 -7.24557 32.4541 165 237 224
4.69089 -7.69604 34.4432 64 126 120
0 0 0 70 138 121
-3.52573 -4.53786 20.9702 56 134 110
-3.52262 -4.53207 20.9447 64 145 118
10.9449 -9.30976 41.4421 89 154 139
0 0 0 71 126 107
-6.06468 -3.27555 15.4407 84 159 131
1.0394 -6.42833 29.1608 102 161 153
7.05922 -8.3692 37.4739 81 145 133
0 0 0 88 142 129
0 0 0 87 147 137
-3.06593 -4.6952 21.7835 79 148 135
4.15743 -7.4541 33.7662 149 219 196
0 0 0 118 172 155
-2.00934 -5.1978 24.0137 157 222 207
0 0 0 52 127 111
-4.57155 -3.98496 18.6674 102 153 149
4.21654 -7.49201 34.0641 74 147 121
-4.37028 -4.06439 19.0867 113 161 155
0.546521 -6.18365 28.4237 64 121 112
-4.48016 -4.02867 18.941 79 132 122
-2.08952 -5.14628 23.9185 72 134 120
0 0 0 76 138 120
-2.0887 -5.14227 23.9009 72 134 120
-5.47351 -3.49907 16.6642 85 149 130
-4.34013 -4.07906 19.1979 88 134 128
-4.17025 -4.15518 19.5915 45 75 70
-2.46366 -4.92939 23.0133 157 240 208
-4.71272 -3.87135 18.3633 98 155 146
-4.31978 -4.07851 19.3173 89 142 139
4.16386 -7.37736 33.8364 68 147 114
0 0 0 96 146 128
-3.44004 -4.43885 20.9484 154 230 206
-4.98318 -3.66828 17.5042 92 159 150
-3.82741 -4.24533 20.1397 85 137 130
0 0 0 71 104 89
0 0 0 117 178 158
0 0 0 161 233 210
-3.61395 -4.33477 20.6729 79 135 122
0 0 0 93 147 134
0 0 0 57 136 115
4.21027 -7.29855 34.0163 62 133 116
3.75105 -7.10109 33.2067 71 155 131
-5.94928 -3.2452 15.8837 70 149 130
-0.489835 -5.66099 26.8554 62 131 128
4.21861 -7.27466 34.0485 47 149 124
-4.53082 -3.88734 18.846 68 137 122
3.94229 -7.17922 33.6933 48 138 102
0 0 0 178 236 225
-0.884 -5.43032 25.906 72 148 136
-4.60248 -3.80971 18.6171 87 162 148
-4.08906 -4.05614 19.7412 78 130 130
6.01292 -7.72042 36.3778 90 144 127
0 0 0 183 232 216
-3.48017 -4.33303 21.0382 172 231 217
0 0 0 177 244 217
-5.8275 -3.23511 16.0255 124 182 158
6.03632 -7.69887 36.3387 80 148 131
-3.76433 -4.14936 20.2741 158 207 199
-3.50617 -4.29249 21.0435 173 246 224
0 0 0 101 157 146
0.597863 -5.95816 28.6266 77 152 144
0 0 0 99 152 143
3.61144 -6.97331 33.2743 67 125 114
0 0 0 108 167 153
0 0 0 91 145 138
0 0 0 165 214 186
-4.51576 -3.83676 19.0582 86 142 129
-3.57115 -4.21159 20.8629 164 216 192
-3.4216 -4.26109 21.0483 81 141 111
10.6856 -8.7673 41.6957 168 235 226
-4.19622 -3.934 19.5561 101 156 147
-3.53314 -4.22226 20.9151 140 182 157
-3.54291 -4.1591 20.707 73 109 92
0 0 0 80 136 123
-3.36004 -4.27994 21.2766 75 140 118
0 0 0 185 238 229
0 0 0 102 146 139
-3.45948 -4.25639 21.2081 46 85 59
-3.13457 -4.37573 21.7528 160 219 204
-1.50712 -5.05047 24.9029 79 137 119
9.70166 -8.47228 40.7035 100 159 155
0 0 0 185 238 229
-5.53936 -3.29738 16.712 99 153 140
10.7814 -8.7354 41.9691 165 236 226
0 0 0 104 177 155
0 0 0 91 156 134
-1.52079 -4.99491 24.7832 140 215 201
-3.44495 -4.23654 21.3344 66 98 87
3.78908 -6.86411 33.6264 67 128 114
8.22072 -8.163 39.747 172 232 222
3.45834 -6.66171 32.7356 81 136 127
3.74559 -6.79208 33.3198 87 156 145
4.29257 -6.94591 34.0962 85 162 148
-3.13138 -4.27812 21.7108 175 249 215
-2.42855 -4.60637 23.2793 150 216 197
8.34036 -8.02248 39.3545 86 151 149
0 0 0 154 214 196
0 0 0 87 155 138
0 0 0 75 135 125
0 0 0 144 180 168
-5.73309 -3.1335 16.2512 92 162 145
-3.39379 -4.16196 21.2046 140 211 195
-1.95244 -4.7903 24.2212 86 157 141
-2.63664 -4.48048 22.7649 77 138 128
0 0 0 72 119 110
-0.51552 -5.2929 26.697 144 220 202
0 0 0 169 231 213
-0.42991 -0.276339 1.38845 86 132 110
-3.95986 -3.91445 20.1276 54 122 115
-3.42713 -4.13495 21.1785 152 227 206
3.10395 -6.49295 32.4209 94 150 151
-0.533035 0.616871 -1.44252 143 174 165
-5.19982 -3.35725 17.4424 142 181 160
-5.13836 -3.38272 17.5655 156 220 201
-4.51766 -3.65675 18.8668 77 135 124
3.70056 -6.68562 33.3725 82 144 132
-0.432916 0.243029 -1.91632 82 145 136
0 0 0 187 228 221
3.7692 -6.7165 33.6534 155 226 209
-0.640199 -5.22171 26.5499 88 162 138
0 0 0 167 210 195
0 0 0 103 149 137
0 0 0 180 223 212
-5.15392 -3.33933 17.4862 128 174 152
0.0706375 -5.43758 27.7031 79 151 138
0 0 0 89 162 152
-5.71156 -3.07763 16.2806 84 133 117
-5.57735 -3.11096 16.4641 89 151 139
-5.36071 -3.20579 16.9173 55 107 89
-5.21191 -3.30588 17.4353 136 199 157
-4.2475 -3.71846 19.4327 71 121 109
-3.72895 -3.93872 20.5996 161 227 208
-4.89644 -3.42808 18.0814 82 126 119
-3.72001 -3.9644 20.7058 74 139 123
0 0 0 93 155 141
0 0 0 70 127 102
-5.52322 -3.15233 16.7602 89 158 143
-5.3869 -3.20058 17.0208 129 192 152
-0.646745 -5.16576 26.6779 85 149 127
5.57197 -7.01371 35.5896 70 133 123
-5.79712 -3.00808 16.0695 149 202 175
-5.3191 -3.22181 17.1319 145 209 180
0 0 0 73 133 122
0 0 0 151 200 178
-5.2108 -3.27458 17.4598 142 220 167
0 0 0 169 220 193
-6.40249 -2.7155 14.679 83 142 128
-6.41208 -2.72062 14.7049 83 142 128
-3.42807 -4.01891 21.1413 78 153 131
-0.858297 0.422865 -1.19948 56 138 95
0 0 0 87 153 142
0 0 0 90 143 133
-5.77742 -2.99723 16.1653 56 103 77
-5.16335 -3.23 17.3212 68 147 96
0 0 0 90 143 133
-5.80505 -2.9888 16.1567 142 182 157
-5.66093 -3.06301 16.5206 75 132 107
-3.43626 -3.96441 21.0707 160 237 210
-0.496405 0.582754 -1.41971 128 169 148
-3.44266 -3.97689 21.1255 159 235 211
4.50849 -6.70214 34.5102 76 151 130
0 0 0 91 160 145
-5.89123 -2.95239 16.0297 148 241 210
3.84443 -6.56131 33.8486 85 137 119
0 0 0 94 154 146
-0.68374 -5.03877 26.5058 41 129 99
2.55154 -6.12047 31.8016 90 153 144
-5.65601 -3.05489 16.5933 68 131 115
-5.47175 -3.10755 16.8802 152 223 190
-4.63987 -3.47031 18.6767 68 137 126
-2.47546 -4.36136 23.1943 82 159 138
6.43814 -7.07823 36.5842 116 174 169
0 0 0 105 154 140
0 0 0 146 185 164
-3.95529 -3.72348 20.0424 150 203 190
-5.73226 -2.9722 16.2651 69 125 112
-5.25713 -3.15067 17.1757 166 220 183
-5.22498 -3.19596 17.4231 58 133 95
1.75309 -5.86422 30.8086 99 150 143
3.96159 -6.4909 33.8733 69 135 116
3.87619 -6.42477 33.6319 148 216 193
-5.75372 -2.96071 16.2849 135 194 174
-5.30698 -3.1228 17.1272 44 94 64
3.93187 -6.40083 33.6731 61 130 117
5.5693 -6.85266 35.9012 90 178 148
5.7534 -6.94053 36.3007 141 196 179
6.6184 -7.16608 37.4425 82 129 121
-5.30561 -3.15896 17.3622 59 120 84
-5.75712 -2.9467 16.2941 77 136 116
5.79201 -6.92423 36.3282 69 128 108
-1.03061 0.270004 -2.39217 145 171 157
0 0 0 148 203 188
-4.60438 -3.43578 18.7955 84 148 129
2.45774 4.02521 -11.7408 68 122 109
-1.51856 -4.65502 25.0006 83 166 151
5.63016 -6.8849 36.229 142 238 202
0 0 0 66 102 90
-5.10278 -3.19606 17.6616 130 176 157
5.34447 -6.75824 35.6886 63 144 111
5.49973 -6.78955 35.9234 63 167 126
0 0 0 105 162 153
-5.31612 -3.10962 17.2434 147 192 159
-4.46943 -3.48033 19.1333 86 145 130
5.89694 -6.97561 36.8943 135 216 197
-5.14446 -3.2017 17.7282 68 126 91
-2.82657 -4.16308 22.6532 163 225 211
0 0 0 131 175 158
0 0 0 105 167 143
-5.75381 -2.90554 16.2473 149 219 196
-4.19682 -3.54868 19.5746 84 133 119
-2.60768 -4.19264 22.8914 71 135 123
0 0 0 65 128 112
0 0 0 175 214 182
-3.75171 -3.75523 20.7289 74 144 131
0 0 0 82 146 134
5.21859 -6.68989 35.8107 60 160 125
8.65593 -7.51904 39.9161 79 142 133
-5.05369 -3.19569 17.8801 116 174 149
7.67537 -7.27392 38.7917 100 164 152
0 0 0 160 232 209
0 0 0 80 145 124
0 0 0 107 176 166
0 0 0 191 220 204
5.71005 -6.74019 36.1942 54 140 116
3.65271 -6.22114 33.5976 73 129 118
-5.04116 -3.15734 17.8138 50 107 76
-4.73948 -3.29304 18.5135 156 218 200
-6.54746 -2.53766 14.5707 142 226 208
-5.77585 -2.87356 16.335 62 127 112
-4.39734 -3.44382 19.3151 50 115 100
0 0 0 182 236 201
0 0 0 182 236 201
-2.96932 -3.98497 22.2287 89 148 134
-5.9786 -2.74347 15.7065 136 212 181
-5.18617 -3.09774 17.5726 145 225 182
-5.15309 -3.09549 17.5946 147 225 178
-3.38676 -3.8132 21.408 77 137 119
5.3041 -6.59739 35.9396 63 156 117
10.4762 -7.74674 41.7126 102 162 156
0 0 0 63 112 92
-5.80887 -2.82911 16.2103 56 125 112
-3.8785 -3.57723 20.1604 91 149 138
-5.31189 -3.01884 17.2418 66 121 106
-4.10659 -3.52645 19.9275 65 124 109
5.5545 -6.64197 36.252 148 232 197
-6.27604 -2.61347 15.1507 72 148 114
-5.08393 -3.10323 17.7384 116 180 151
-5.1923 -3.0881 17.726 49 100 72
-3.18908 -3.87199 21.8454 82 153 137
7.41292 -7.02495 38.2642 65 129 117
-3.61001 -3.66912 20.845 79 139 128
6.81812 -6.89266 37.7 186 238 228
-3.60193 -3.68889 20.9558 68 115 112
1.96698 -5.65234 31.3257 73 142 129
-5.07565 -3.1189 17.9436 59 101 78
-5.78875 -2.79432 16.2568 88 156 139
-3.55917 -3.69462 21.1153 171 227 222
-3.20541 -3.8517 21.9603 72 120 96
-3.08081 -3.85546 21.9589 167 240 202
7.48418 -7.02714 38.6193 75 150 136
-5.4001 -2.91789 16.9882 145 213 188
-5.11365 -3.08259 17.8515 61 135 99
-6.3582 -2.55853 15.0598 83 145 121
6.91887 -6.81391 37.7016 87 149 135
-5.52434 -2.89806 16.9542 80 153 131
0 0 0 82 157 141
-3.26209 -3.83781 22.0099 56 126 85
-3.15068 -3.78113 21.751 127 193 168
6.27682 -6.71503 37.3893 81 151 138
-6.37196 -2.57965 15.2763 58 119 91
-3.88501 -3.48199 20.1605 69 116 100
-2.91419 -3.91657 22.5165 74 137 121
5.41262 -6.46369 36.1076 69 146 132
-5.39904 -2.86983 16.879 55 93 75
-4.32104 -3.32331 19.3471 159 212 199
-2.86409 -3.91198 22.5318 66 129 113
4.26863 -6.17471 34.6326 83 146 136
0 0 0 90 148 123
-6.04065 -2.65074 15.7467 62 145 120
-5.50036 -2.88643 17.0583 167 228 194
-2.97769 -3.85421 22.2611 120 183 167
4.99772 -6.31983 35.4597 77 130 116
6.61059 -6.70155 37.4937 157 222 206
-3.78457 -3.55654 20.6762 78 127 119
7.51358 -6.89099 38.541 82 140 129
0 0 0 89 151 139
10.283 -7.50503 41.8501 101 170 160
-5.44456 -2.84386 16.8992 70 141 108
4.23311 -6.08302 34.351 90 157 148
-5.45071 -2.84845 16.9225 70 141 108
-5.26978 -2.92138 17.3039 53 103 91
-5.28704 -2.93314 17.3732 67 121 108
3.72852 -5.91753 33.5217 80 147 132
7.18509 -6.86064 38.5682 80 146 135
0 0 0 82 134 116
-5.06565 -3.00223 17.8177 129 196 169
4.10799 -6.00159 34.1308 86 148 142
0 0 0 90 142 124
-5.09939 -2.99457 17.8109 150 225 197
-2.73606 -3.90116 22.7771 93 161 150
2.62274 -5.57185 31.8707 158 234 222
0 0 0 88 159 143
0 0 0 82 159 132
0 0 0 57 114 83
-3.47064 -3.63207 21.3674 75 153 130
-3.10758 -3.78898 22.2968 127 208 163
-3.03663 -3.74571 22.0766 144 223 174
-3.97575 -3.42349 20.2845 146 206 188
-2.62092 -3.92751 23.0242 73 133 123
0 0 0 158 216 198
-6.31289 -2.4865 15.1165 75 160 122
-5.55664 -2.78215 16.7516 165 209 203
5.75453 -6.29586 35.9975 75 140 124
-4.15068 -3.33516 19.8354 58 128 111
-3.21727 -3.66896 21.8197 158 227 200
6.02963 -6.48118 37.19 105 165 154
0 0 0 78 131 118
-4.82613 -3.07485 18.4718 65 126 112
-4.69903 -3.07292 18.4496 76 137 123
-4.86007 -3.05458 18.3708 83 157 139
0 0 0 110 167 159
0 0 0 66 135 122
-0.52831 0.183521 -1.39753 77 111 105
0 0 0 84 145 135
-6.07404 -2.57065 15.7851 140 186 157
-6.06936 -2.56844 15.7707 140 186 157
-3.59891 -3.54654 21.2623 92 152 141
6.99744 -6.57293 38.0306 163 224 214
-5.97251 -2.59018 15.9644 140 207 176
-5.54493 -2.73884 16.7934 44 119 87
6.1627 -6.4604 37.5258 89 152 142
11.0094 -7.36731 42.3371 98 155 147
-0.567008 0.665924 -1.6313 166 221 206
-6.05745 -2.55532 15.8302 136 207 174
-5.54732 -2.71461 16.685 150 222 192
0 0 0 79 142 132
-5.31163 -2.8261 17.355 85 145 121
-4.07941 -3.29572 19.9966 93 142 128
3.37176 -5.6575 33.2047 62 127 118
-3.90088 -3.36787 20.4471 170 219 203
7.42398 -6.61137 38.4985 71 124 115
0 0 0 91 144 135
-4.33992 -3.17442 19.3628 137 194 185
0.629697 -4.8545 28.864 91 152 142
-2.97703 -3.68835 22.3269 152 204 180
-6.18284 -2.46914 15.4473 163 229 194
-6.0536 -2.53215 15.803 54 104 80
-5.877 -2.57127 16.0398 148 204 191
-1.09435 -4.32592 26.0261 92 184 159
-5.2996 -2.79879 17.3904 71 134 114
0 0 0 80 129 121
-6.55766 -2.31873 14.6385 151 214 204
-6.1979 -2.45468 15.4424 89 156 129
-3.50016 -3.48562 21.3732 84 153 138
-3.17819 -3.61187 22.1332 71 143 113
0 0 0 155 181 158
-5.85695 -2.58366 16.2157 94 149 134
-3.19177 -3.56596 21.8987 136 206 176
7.17208 -6.48795 38.4406 87 152 137
-5.34869 -2.78828 17.443 64 123 103
-5.26918 -2.79913 17.491 161 227 215
-5.4845 -2.69841 16.976 59 118 87
-4.27869 -3.13642 19.4891 61 116 107
-2.10854 -3.92349 24.0419 76 146 133
0 0 0 74 135 121
-5.50387 -2.68103 16.9625 80 138 103
-5.31655 -2.7501 17.3332 146 222 198
3.55849 -5.61391 33.7496 90 149 145
0 0 0 99 156 141
0 0 0 96 150 143
-4.57536 -3.03678 19.0761 160 210 192
0.51279 -4.73289 28.9007 71 143 131
0 0 0 171 233 217
-3.30796 -3.48155 21.7674 67 120 111
-2.89092 -3.62748 22.5736 164 225 205
-2.3277 -3.82204 23.73 55 124 113
-4.28653 -3.09894 19.5932 159 218 198
4.04901 -5.62802 34.2052 82 139 130
0 0 0 168 231 215
0.787562 -4.74559 29.2676 77 157 140
0 0 0 76 134 123
-3.17542 -3.49624 22.0367 62 134 114
0 0 0 85 154 141
0 0 0 90 152 130
-5.81833 -2.49909 16.1916 148 207 179
-4.60033 -2.96878 18.9541 155 209 196
-5.3255 -2.68257 17.3317 65 124 96
-5.30285 -2.70021 17.4259 68 123 106
-3.74726 -3.24215 20.7128 175 228 214
8.32312 -6.52565 39.8458 73 148 134
0 0 0 61 105 88
0 0 0 153 221 198
-4.15004 -3.09163 19.8318 74 124 112
-0.376943 -4.35504 27.363 134 218 184
0 0 0 100 170 157
-5.31674 -2.69296 17.4986 162 216 199
0 0 0 53 95 78
-4.69569 -2.91134 18.8816 84 144 134
-4.18324 -3.10304 19.9717 71 124 114
-2.28132 -3.70318 23.5917 77 146 133
0 0 0 91 153 135
-5.53455 -2.58202 16.9227 81 148 117
-5.49146 -2.62389 17.177 160 230 199
0 0 0 73 139 128
-5.91164 -2.44328 16.1094 86 133 124
-6.4596 -2.25027 14.9683 56 136 105
-6.23384 -2.35102 15.5881 50 114 92
0 0 0 96 149 139
-4.44341 -2.97316 19.3662 82 137 122
7.23316 -6.17558 38.3371 89 144 135
0 0 0 75 135 124
-5.96787 -2.40639 15.9862 184 231 215
4.86065 -5.68009 35.731 70 149 135
-4.21661 -3.04558 19.9264 77 132 113
7.31458 -6.18567 38.6647 161 234 226
0 0 0 165 220 211
-5.83691 -2.4263 16.2036 75 134 120
-4.78352 -2.80956 18.4921 65 134 113
-0.470326 -4.22642 27.1114 67 157 128
0 0 0 159 230 190
-5.16353 -2.70236 17.9095 87 134 118
-4.41587 -2.93883 19.3451 91 143 133
0 0 0 66 131 109
-5.98866 -2.37261 15.9655 57 116 88
-5.96815 -2.37072 15.9604 122 196 170
-5.81925 -2.40651 16.1857 156 221 199
-5.5116 -2.54476 17.0499 157 210 190
-5.14671 -2.67174 17.8259 91 146 127
0.862343 -4.5805 29.4486 90 151 153
0 0 0 78 130 123
-5.92641 -2.36249 15.9726 122 197 175
0 0 0 61 135 111
-5.86215 -2.38337 16.1778 157 216 202
-3.15355 -3.34539 22.0907 79 150 130
-1.09692 -4.00901 26.1353 76 140 128
0 0 0 77 144 135
-0.193214 -4.2533 27.6889 76 156 139
-5.88925 -2.34084 16.0111 78 142 120
-5.61199 -2.50807 17.007 85 148 128
2.64002 -5.01206 32.3259 79 147 140
0 0 0 133 188 179
-6.03752 -2.31915 15.8866 74 113 91
-5.32463 -2.58184 17.4757 158 239 212
-3.45384 -3.22883 21.5434 81 143 129
0 0 0 49 107 78
-4.34252 -2.91983 19.6273 171 239 214
-6.4018 -2.22126 15.3357 65 134 113
-5.68817 -2.43089 16.6646 85 147 135
-2.36844 -3.55155 23.6406 81 128 120
-1.66405 -3.77794 25.0566 79 170 145
-2.29166 -3.55202 23.7589 192 247 228
-6.12318 -2.255 15.6624 84 136 119
-3.04532 -3.32549 22.4082 62 114 97
-4.11436 -2.9471 20.0422 76 125 117
0 0 0 170 232 218
-5.83299 -2.32998 16.2056 139 204 183
-1.88056 -3.67071 24.6593 73 146 138
-4.4943 -2.79946 19.1855 102 156 149
-1.67807 -3.74299 25.1547 65 143 126
-6.28191 -2.20995 15.4901 60 119 99
5.71356 -5.67448 37.2268 81 148 141
0 0 0 105 174 159
-2.49149 -3.46874 23.5052 85 145 135
0 0 0 77 153 135
-5.64801 -2.41844 16.9384 105 164 149
-5.06352 -2.60379 18.0564 86 151 130
-4.1333 -2.93605 20.1483 141 205 193
-4.91318 -2.64605 18.3481 89 154 139
5.6977 -5.55718 36.7009 78 144 139
0 0 0 69 134 118
-3.56792 -3.09586 21.3361 98 165 150
-3.48414 -3.13409 21.5663 72 133 123
-6.02237 -2.23981 15.9245 148 210 180
-3.61692 -3.06234 21.1509 84 130 118
0 0 0 162 237 221
-5.58568 -2.3858 16.8857 172 231 216
-5.86223 -2.2667 16.2441 149 221 191
-4.28891 -2.79653 19.5919 48 97 69
-2.66419 -3.33696 23.138 94 162 145
0 0 0 165 237 224
-1.18886 -3.75603 25.9052 73 139 128
5.42744 -5.41348 36.3808 84 157 149
-4.91986 -2.5905 18.3429 73 131 103
-4.94937 -2.59347 18.3993 147 213 184
-1.7127 -3.63529 25.2138 67 131 119
-1.19357 -3.74306 25.9339 91 151 140
0.932711 -4.3159 29.6302 140 211 191
-5.32263 -2.44293 17.512 150 191 170
-4.34984 -2.77518 19.6988 155 228 188
1.1099 -4.33116 29.7857 67 129 107
-3.57986 -3.01109 21.2875 170 235 214
-3.13026 -3.16476 22.3349 135 211 199
1.08257 -4.34942 29.9909 130 184 161
1.14101 -4.39373 30.2329 58 124 105
-5.26274 -2.45221 17.6696 125 178 164
-3.90982 -2.91748 20.7249 69 129 111
0.942455 -4.29618 29.7304 67 139 117
-5.78809 -2.26059 16.496 129 158 132
-4.49666 -2.6802 19.1717 91 144 131
-4.31037 -2.72991 19.5513 49 139 116
-3.79854 -2.93626 20.8828 100 163 143
-4.31827 -2.75523 19.745 148 227 206
-4.09494 -2.86713 20.4898 58 113 88
0.836667 -4.26165 29.5923 153 231 208
1.17141 -4.39026 30.4183 147 204 189
0 0 0 86 162 144
-4.98083 -2.51472 18.161 83 156 134
0 0 0 84 153 138
-4.07815 -2.8055 20.1624 160 247 214
-3.60332 -2.97523 21.2963 162 227 206
-4.54129 -2.65491 19.1949 88 148 138
-4.04416 -2.85853 20.5277 49 110 90
-6.12257 -2.1387 15.7718 146 220 194
-5.73504 -2.24807 16.5832 144 176 159
-4.54013 -2.65246 19.2372 80 140 130
-3.01098 -3.15781 22.5885 138 203 188
1.01933 -4.23658 29.8026 124 197 157
2.32028 -4.6381 32.3421 93 148 139
-3.09709 -3.1145 22.387 130 189 175
-5.73231 -2.25797 16.7366 148 192 185
-4.00413 -2.83131 20.5642 88 146 118
0 0 0 111 167 154
-5.58388 -2.2816 16.9292 151 214 198
0.622438 -4.13272 29.2708 54 123 108
-5.11684 -2.41957 17.8815 85 125 100
-2.42299 -3.27688 23.6628 95 143 125
2.25437 -4.50889 31.7672 159 219 208
-5.16192 -2.4232 17.9446 181 221 209
-4.04375 -2.78601 20.3928 71 132 106
-5.98633 -2.13273 16.0622 70 128 103
-5.19866 -2.41629 17.9225 170 214 201
-2.99978 -3.10973 22.5927 46 110 98
0.843529 -4.1664 29.6519 60 141 122
-5.27941 -2.38416 17.7268 50 102 78
-2.9779 -3.08755 22.4624 63 129 117
-1.52265 -3.5101 25.3305 64 139 123
-6.07457 -2.11158 15.9648 168 228 194
-4.36809 -2.61712 19.3628 76 131 116
-1.72383 -3.43139 24.9416 154 213 198
0.638937 -4.11462 29.4637 61 150 134
3.64565 -4.80653 33.9075 99 154 145
-3.70396 -2.85596 21.076 59 104 85
-5.2817 -2.33775 17.6029 133 201 166
-3.96724 -2.78361 20.5989 120 182 142
-2.57365 -3.19417 23.3646 178 231 217
-6.00674 -2.09217 15.9462 113 174 154
-5.25736 -2.32488 17.5037 121 186 154
-2.31541 -3.25156 23.8028 103 159 154
0.0058846 -3.89747 28.2701 85 167 155
2.18358 -4.42908 31.8173 50 110 79
-4.43936 -2.60097 19.4772 90 160 143
4.72939 -5.00103 35.7114 69 137 136
-5.1479 -2.35693 17.8561 160 220 189
-5.68964 -2.17705 16.6881 160 229 216
-5.00044 -2.39883 18.1555 88 152 122
-4.2719 -2.64541 19.8727 65 119 106
-4.15074 -2.68662 20.1734 44 90 61
-0.999072 -3.56636 26.2919 161 224 214
-4.57928 -2.51165 19.1259 94 145 137
-4.0134 -2.69954 20.4424 161 244 199
-3.36219 -2.91836 21.9294 174 233 219
0.844975 -4.02494 29.5667 55 162 136
-3.70641 -2.78703 21.1466 92 154 136
-4.36356 -2.55906 19.5556 162 226 196
-4.19583 -2.60643 19.9017 38 112 86
-5.29163 -2.29596 17.7422 137 191 178
6.49683 -5.21677 37.9014 85 146 148
-4.4392 -2.5268 19.4551 75 137 123
-4.04143 -2.65714 20.3619 147 211 175
-6.07886 -2.00421 15.794 166 235 202
-5.4841 -2.21206 17.2901 174 228 211
-4.82998 -2.41165 18.671 75 132 123
0.0305397 -3.77699 28.2854 70 151 142
4.83463 -4.83116 35.6814 88 148 137
-5.45441 -2.18505 17.2352 56 100 83
-3.9646 -2.65089 20.5414 62 107 74
-1.71459 -3.24737 24.7184 86 154 143
-3.64812 -2.77465 21.4353 61 120 105
-4.88603 -2.36614 18.5832 93 143 125
-4.00463 -2.6352 20.5405 130 220 177
-3.76996 -2.72106 21.1119 65 125 107
-5.64831 -2.16009 17.1766 153 198 181
-0.930543 -3.49768 26.7227 97 155 150
-5.14312 -2.262 17.9019 74 135 115
-3.92957 -2.6522 20.7569 70 140 99
-0.566052 0.325982 -1.03413 77 182 155
-3.92818 -2.65165 20.7473 70 140 99
-5.46495 -2.14529 17.1814 117 193 162
-5.50652 -2.16455 17.3401 135 217 182
-5.47975 -2.16342 17.3705 151 205 168
-4.73574 -2.36259 18.745 76 133 124
-4.32816 -2.50649 19.8206 66 124 96
-0.356298 -0.0481264 0.993213 146 213 181
-3.91151 -2.63745 20.7925 53 114 80
5.16624 -4.82355 36.3886 90 153 143
-5.69972 -2.07924 16.8692 55 114 86
-5.50676 -2.14999 17.3905 60 114 91
-4.01044 -2.59585 20.6066 156 235 186
-2.31879 -3.05413 23.9119 85 155 142
-5.38709 -2.1747 17.5772 78 121 94
-4.13173 -2.54338 20.2918 89 159 129
2.86746 -4.31986 32.9656 81 137 132
0 0 0 112 145 148
-5.96286 -1.96623 16.1951 150 233 188
-3.91581 -2.59251 20.7755 44 105 71
0 0 0 98 152 145
0 0 0 110 154 147
-5.79916 -2.00057 16.5475 67 105 83
-1.48375 -3.23167 25.5685 68 127 123
-3.56762 -2.65692 21.404 92 155 139
-3.04366 -2.82246 22.6802 85 151 139
0 0 0 170 235 219
0 0 0 96 166 149
0 0 0 95 158 142
-6.00056 -1.89444 16.0278 160 237 200
-5.77311 -1.97448 16.7048 129 171 148
-4.83661 -2.24077 18.6294 85 146 132
-4.71064 -2.26957 18.8959 77 139 123
-0.999895 -3.27584 26.4716 77 147 134
0 0 0 158 210 200
-0.271356 -3.44782 27.7796 78 152 140
-6.34463 -1.78228 15.2794 163 227 215
-5.9637 -1.89235 16.1955 57 132 94
0 0 0 81 144 118
-5.33769 -2.08036 17.5665 162 214 190
-4.47154 -2.31522 19.4191 75 123 105
-3.58986 -2.58865 21.4535 66 118 95
0 0 0 163 216 206
-5.96509 -1.89263 16.1999 56 131 93
-4.54913 -2.30089 19.321 162 226 207
-1.83564 -3.04804 24.995 87 149 135
-0.493844 -3.36401 27.3777 65 156 133
0 0 0 99 157 146
0 0 0 116 176 170
-5.4372 -2.04263 17.461 147 219 196
-5.29282 -2.09777 17.8235 84 130 118
10.7674 -5.45613 42.9017 100 169 156
-5.10991 -2.10492 18.011 65 121 108
-3.52511 -2.58127 21.677 82 128 109
-5.23356 -2.10829 18.0966 74 127 117
-4.33233 -2.3474 19.985 129 194 162
-1.18161 -3.15343 26.1768 77 135 117
-6.27304 -1.75596 15.431 141 214 182
10.5237 -5.39039 43.0652 79 148 138
-6.30892 -1.76625 15.5352 131 199 168
0 0 0 95 149 136
-6.26037 -1.77786 15.6972 70 135 113
-4.63773 -2.21365 19.0779 168 236 225
-3.59798 -2.54396 21.6987 73 132 104
-1.18501 -3.13797 26.2896 147 212 197
0 0 0 93 150 147
-5.41325 -2.00809 17.5434 157 208 201
2.98026 -4.05271 33.3372 170 227 228
-5.55668 -1.94977 17.1517 149 198 178
-3.64012 -2.50019 21.469 149 248 210
-3.8622 -2.44388 21.039 84 143 123
-4.39299 -2.26493 19.6751 156 216 185
-0.724349 -3.20863 27.1021 70 140 127
-5.36341 -1.99872 17.6276 72 134 120
2.90089 -3.97488 33.0217 88 144 139
-5.40226 -1.98076 17.5001 54 100 81
-4.3874 -2.23698 19.586 80 140 110
-3.61358 -2.46331 21.3826 152 232 197
0 0 0 86 152 140
-4.81478 -2.11168 18.6374 79 142 132
0 0 0 137 208 192
-6.53723 -1.67121 15.1725 80 155 139
-6.27076 -1.71732 15.555 71 144 112
9.96915 -5.14225 42.2834 68 146 123
0 0 0 82 142 131
-2.30816 -2.78997 24.2657 74 145 119
-6.19083 -1.71415 15.6382 142 209 177
-4.0719 -2.33495 20.6259 153 218 197
-2.14796 -2.80175 24.3621 79 134 119
2.37269 -3.81569 32.288 104 167 157
-0.634066 0.00105638 1.42986 144 210 169
-5.92568 -1.78186 16.3102 141 184 139
-4.51598 -2.1642 19.3733 64 129 113
-5.46847 -1.95279 17.7079 134 192 167
-3.63355 -2.40727 21.5493 159 229 198
-1.2449 -2.97164 26.0708 101 172 152
0 0 0 88 158 141
-2.11941 -2.74575 24.2789 166 220 207
-6.46978 -1.64383 15.3272 89 138 122
-3.88745 -2.32165 20.9038 167 239 196
0 0 0 169 233 214
-0.399507 -0.229218 1.37801 107 150 137
0 0 0 161 234 218
0 0 0 182 241 227
-5.72445 -1.83232 17.0433 98 155 130
-5.33386 -1.92078 17.7648 158 210 192
-3.5722 -2.38646 21.6246 77 139 127
-2.1998 -2.70059 24.2106 147 207 176
-0.923598 -3.0128 26.6977 68 134 123
-0.21206 -3.20957 28.3102 47 139 120
0 0 0 100 156 145
0 0 0 126 177 173
-1.1759 -2.95228 26.3255 70 140 133
-5.85859 -1.77954 16.7091 51 130 103
0 0 0 105 143 147
-3.59795 -2.3622 21.6071 177 241 222
0 0 0 140 193 183
0 0 0 89 139 135
-5.61171 -1.8293 17.2138 74 136 112
-4.86236 -2.01473 18.7375 73 135 129
-6.17446 -1.63185 15.61 137 207 171
-5.59863 -1.80334 17.0749 134 180 161
-6.2423 -1.63055 15.6856 147 217 180
-6.24231 -1.64963 15.8131 157 230 198
-2.13218 -2.66087 24.3546 103 171 136
0 0 0 87 161 135
0 0 0 93 167 141
-0.330984 -0.0422309 0.959712 134 202 177
-0.223506 -0.164653 1.01531 79 137 119
-3.82517 -2.27953 21.2148 135 202 170
-2.22532 -2.66938 24.4794 62 142 105
-5.80036 -1.72215 16.5894 51 87 65
-1.02769 -2.91477 26.5518 65 150 135
0 0 0 106 147 140
0 0 0 147 196 188
-3.12088 -2.40555 22.3555 77 142 121
0 0 0 81 150 123
-5.30545 -1.87422 17.9497 114 156 138
-3.75131 -2.25697 21.1933 58 118 87
1.64294 -3.46629 31.2866 98 154 143
0 0 0 91 141 131
0 0 0 181 223 216
-6.20763 -1.60004 15.6189 65 130 98
-5.04087 -1.94163 18.5586 64 126 90
-4.96224 -1.9361 18.4462 142 200 171
10.2259 -4.82635 42.458 89 152 136
0 0 0 94 151 136
-5.86517 -1.67916 16.3562 80 155 123
-3.93975 -2.21408 21.0037 68 134 105
-2.92639 -2.44585 22.8731 67 135 112
10.2397 -4.86677 42.9247 76 155 141
0 0 0 165 217 207
-5.80626 -1.73066 16.8598 143 212 169
-4.64344 -2.00165 19.1301 80 150 120
-3.52808 -2.3015 21.7504 76 136 126
0 0 0 101 159 148
-4.96124 -1.92351 18.5076 52 117 92
-3.02257 -2.41324 22.7849 68 130 112
-6.26719 -1.58753 15.7305 50 118 87
-5.21348 -1.87369 18.1254 69 132 112
0 0 0 66 126 115
0 0 0 71 140 125
-6.25158 -1.5833 15.6842 58 128 97
-6.12657 -1.60217 15.918 152 233 194
-5.99335 -1.63245 16.1146 84 152 129
0 0 0 94 167 141
-1.76125 -1.76595 5.18796 153 220 191
-0.65854 -2.91471 27.4289 82 136 136
0 0 0 61 108 92
-6.06173 -1.60107 16.0284 125 191 162
-3.45973 -2.24851 21.728 72 133 119
-3.45968 -2.24839 21.7276 72 133 119
-3.39982 -2.26427 21.8714 161 232 206
-3.41507 -2.27785 22.0082 166 234 211
-2.12492 -2.55919 24.4425 166 229 209
0 0 0 145 205 194
0 0 0 84 144 133
-6.42191 -1.52416 15.4901 140 214 188
-6.41306 -1.52173 15.465 140 214 188
-6.14304 -1.56773 15.914 139 220 193
1.56107 -3.30225 31.064 149 209 201
0 0 0 93 130 122
0 0 0 90 140 128
0 0 0 167 239 209
0 0 0 80 125 116
-6.47616 -1.50368 15.342 59 122 106
-5.98733 -1.61035 16.3139 153 202 174
-5.87439 -1.62744 16.5027 158 227 190
-4.98363 -1.8504 18.3676 171 238 206
-0.185248 -0.151223 1.28798 82 147 108
0 0 0 83 126 117
-6.07133 -1.56588 15.9607 162 219 180
-5.79221 -1.68159 16.9872 154 229 197
-5.04101 -1.84179 18.4039 89 158 137
-3.53441 -2.23112 21.8719 83 126 117
-2.98661 -2.34106 22.8083 65 124 93
0 0 0 79 131 113
0 0 0 163 245 216
-6.11648 -1.57772 16.1016 142 191 153
-5.81333 -1.65073 16.8191 184 244 214
-3.51453 -2.18665 21.6431 179 232 205
1.72766 -3.29796 31.3559 68 136 125
0 0 0 79 140 130
-5.99547 -1.58292 16.2488 133 194 156
-5.74988 -1.66761 17.0297 158 219 191
-5.51262 -1.71186 17.4074 93 135 112
-4.50895 -1.95407 19.5122 58 122 103
0.824501 -3.12379 29.9022 99 153 146
-5.84037 -1.61802 16.6562 72 135 109
-3.5626 -2.17956 21.671 52 96 79
0 0 0 162 211 203
0 0 0 92 145 136
-5.95174 -1.57169 16.2252 123 172 140
-5.02115 -1.8088 18.3494 160 218 177
-3.47944 -2.17071 21.6585 68 123 108
-2.72727 -2.3675 23.39 64 128 106
1.1411 -3.1602 30.3875 99 156 147
1.54022 -3.25354 31.2821 61 132 116
-5.98631 -1.56102 16.189 33 74 46
-5.5879 -1.67465 17.2541 80 146 121
-5.59065 -1.67588 17.2644 80 146 121
-5.17855 -1.7865 18.2504 65 120 105
-3.60038 -2.15133 21.5633 137 209 179
-3.51651 -2.16865 21.7245 76 137 109
0 0 0 160 207 199
-5.07185 -1.7982 18.4161 159 214 187
-3.3573 -2.21688 22.1739 148 200 176
-5.8514 -1.59796 16.6897 148 218 182
-5.00792 -1.79697 18.4983 50 92 69
-3.57714 -2.1446 21.6963 141 213 166
-0.636509 -2.76737 27.3497 97 151 144
-6.29844 -1.47496 15.6494 155 218 198
-5.546 -1.6807 17.5431 65 141 117
0 0 0 166 226 202
0 0 0 112 171 163
-5.77933 -1.59411 16.8358 43 89 77
-5.55472 -1.66739 17.4606 64 138 108
-4.48275 -1.91561 19.7465 77 140 114
-3.95088 -2.05487 21.069 77 141 106
-3.43756 -2.14641 21.9508 160 203 166
-3.6978 -2.09945 21.5662 66 119 92
0 0 0 84 135 127
5.37035 -3.08692 12.9305 113 169 156
-6.04326 -1.4953 16.018 80 138 103
1.48525 -3.14361 31.0933 63 127 115
-6.35293 -1.46462 15.7283 80 145 124
-5.99912 -1.49683 16.0816 144 226 183
-4.2534 -1.94478 20.1881 73 120 94
0 0 0 169 236 207
0 0 0 165 218 204
-5.27472 -1.69247 17.9188 72 133 105
-4.44754 -1.8888 19.7851 64 115 88
-3.70481 -2.05894 21.4102 32 98 63
4.51774 -3.63496 35.7387 102 162 152
-6.00912 -1.49201 16.158 60 126 84
-5.78294 -1.58846 17.0336 141 197 178
-3.00609 -2.20965 22.8151 166 245 206
-2.65727 -2.28227 23.4077 161 228 201
-4.29655 -1.91774 20.1132 146 202 173
-3.69614 -2.05876 21.5202 121 198 160
-3.60942 -2.07032 21.6639 167 251 203
1.36844 -3.05159 30.7412 144 218 188
-4.36106 -1.9056 20.0678 161 224 182
0.934081 -3.03063 30.5294 83 162 149
0 0 0 169 220 212
-6.14744 -1.47082 16.0787 131 173 155
-3.29358 -2.12375 22.1874 73 139 114
1.41656 -3.07506 31.0567 56 125 110
0 0 0 178 245 218
10.0385 -4.35503 42.5985 93 159 148
0 0 0 168 230 200
0 0 0 64 138 126
1.10558 -2.97666 30.2729 47 126 112
0 0 0 74 133 118
0 0 0 89 144 135
0 0 0 79 151 138
0 0 0 78 136 112
0 0 0 115 178 162
0 0 0 65 134 121
-5.95154 -1.48027 16.4568 60 122 86
-5.72689 -1.54744 17.1163 96 157 143
-5.6012 -1.58573 17.4533 60 119 99
-4.24941 -1.88543 20.2882 58 107 93
-4.50569 -1.81379 19.7184 147 214 185
6.18757 -3.73686 37.8647 68 124 119
0 0 0 160 226 197
0 0 0 65 137 114
0 0 0 109 168 148
0 0 0 97 153 142
-6.0801 -1.41647 15.9859 148 206 178
-5.92966 -1.47165 16.4532 144 219 175
1.91343 -3.04891 31.5848 169 227 222
0 0 0 95 158 148
-5.53163 -1.56765 17.5024 76 138 116
-0.72549 -2.56817 27.1646 105 167 155
3.06263 -3.25678 33.6041 159 219 201
0 0 0 108 166 161
-2.30322 -2.25607 24.2463 65 136 116
-0.694087 -2.58306 27.3458 88 146 135
0 0 0 77 129 122
-4.25603 -1.84869 20.3658 81 137 116
3.10493 -3.2401 33.7029 68 133 118
0 0 0 66 124 119
-4.94819 -1.66961 18.62 62 124 112
-4.5685 -1.76202 19.5248 168 213 187
-4.28395 -1.81901 20.1209 167 230 198
-3.38325 -2.01006 22.0508 132 208 190
-2.891 -2.10437 23.0771 179 244 222
-6.51012 -1.33283 15.3804 83 148 133
5.98057 -3.62195 37.7385 178 235 226
-6.10243 -1.37926 15.9966 68 133 88
-5.27319 -1.59062 18.0605 61 141 106
9.87455 -4.13404 42.434 167 231 219
-3.89472 -1.89432 21.1852 88 146 122
2.95646 -3.16649 33.4693 115 175 165
0 0 0 100 158 140
-6.023 -1.36804 16.0455 143 207 177
-5.22963 -1.56987 18.0354 59 126 97
-3.29111 -1.99194 22.2332 152 206 177
-5.54518 -1.51563 17.526 50 105 80
-5.2305 -1.57105 18.0391 59 126 97
-5.10223 -1.59853 18.2742 152 224 202
-4.47492 -1.73921 19.7061 124 177 157
-2.53979 -2.14288 23.7976 84 154 131
-1.25985 -2.40687 26.3705 81 147 136
-4.22979 -1.78751 20.2866 94 156 132
-4.26366 -1.80662 20.4971 69 131 113
-3.93871 -1.86009 21.0033 156 212 189
-0.595709 -2.53594 27.8093 64 112 100
-5.64442 -1.49152 17.3739 66 131 106
-4.91432 -1.61894 18.6515 149 221 208
-3.40024 -1.96455 22.1938 50 86 56
2.19526 -2.99005 32.3244 90 139 131
0 0 0 78 142 113
-3.4955 -1.92239 21.8599 142 210 157
-6.0567 -1.34922 16.1011 130 222 179
-5.72486 -1.46487 17.2345 82 151 124
-2.10674 -2.20303 24.6436 62 131 111
0 0 0 75 139 110
-0.514118 -2.51007 27.8763 74 116 99
-5.55139 -1.5011 17.7514 68 120 97
-2.07462 -2.17631 24.59 152 232 203
3.64588 -3.18358 34.6022 170 224 217
-5.8787 -1.39796 16.7227 33 112 68
-5.56453 -1.48144 17.5767 159 228 195
-0.912586 -2.41472 27.0361 69 121 111
-5.58193 -1.44412 17.2266 89 131 113
-5.29222 -1.52243 18.0727 149 218 185
-4.02461 -1.80212 20.983 86 138 120
-2.07245 -2.19084 25.0273 66 133 118
-1.32088 -2.30401 26.186 96 164 153
-4.36103 -1.6993 19.9563 90 153 137
-3.18025 -1.96637 22.7571 157 217 186
-0.574014 -2.45197 27.7264 141 203 181
-0.498167 -2.44024 27.6446 141 194 181
0 0 0 83 146 126
-3.26393 -1.92714 22.4376 88 147 127
-2.64078 -2.03311 23.5046 142 204 180
-0.764235 -2.39211 27.2046 76 136 128
5.06125 -3.31208 36.5163 171 229 228
0 0 0 65 144 105
-4.58758 -1.6647 19.8337 59 119 85
-3.52614 -1.85157 21.7929 125 187 151
0 0 0 58 115 94
0 0 0 55 112 91
-6.29244 -1.26734 15.6154 42 117 103
-6.12223 -1.29631 16.0177 153 230 186
-2.62992 -2.02505 23.6346 67 111 94
-1.94529 -2.14479 24.8686 95 157 141
-0.56784 -2.41506 27.6624 88 150 128
-5.3692 -1.46461 17.7701 60 112 95
-3.53317 -1.81427 21.6263 36 86 54
-5.92252 -1.33981 16.6051 34 87 54
-5.76019 -1.38671 17.0493 147 213 188
-5.73189 -1.38553 17.0296 63 128 102
-5.72644 -1.40228 17.2404 140 211 184
1.04151 -2.67415 30.4803 103 169 157
4.56545 -3.20465 35.8391 168 234 222
0 0 0 88 159 133
0 0 0 107 141 147
-4.50576 -1.62992 19.6951 70 134 105
-4.15497 -1.72161 20.6723 103 158 141
-3.53338 -1.81386 21.7943 120 185 146
4.17946 -3.15671 35.5034 84 143 139
10.4456 -3.91438 43.0562 52 130 107
-5.9732 -1.29963 16.3841 83 131 102
-3.02609 -1.92265 22.9133 150 194 163
0 0 0 79 150 140
0 0 0 93 156 147
-5.4678 -1.42919 17.7701 73 141 116
6.33059 -3.40132 38.3776 89 155 144
-6.23111 -1.24504 15.8568 81 133 116
-2.62534 -1.98076 23.7956 83 152 132
-2.54896 -2.02114 24.2241 67 126 106
6.54845 -3.38786 38.2903 24 74 62
10.8923 -3.88744 43.1544 77 136 108
-5.98628 -1.27911 16.2864 45 115 84
0 0 0 53 137 112
0 0 0 71 131 123
-6.22927 -1.24438 15.9039 72 120 108
-4.53251 -1.61832 19.9582 60 131 111
-3.86034 -1.73594 21.274 168 226 208
-2.62309 -1.97526 23.7625 78 153 131
-2.53068 -1.9961 23.9442 61 123 101
6.58262 -3.39419 38.7045 64 119 102
-6.41282 -1.21144 15.5772 140 216 192
-5.72718 -1.34333 17.0955 164 235 202
-5.43729 -1.40785 17.7663 154 218 196
-4.27614 -1.65453 20.4098 66 134 117
3.37369 -2.95702 34.2983 182 231 229
-3.03705 -1.86065 22.7293 127 193 158
-3.02816 -1.86812 22.8702 47 114 85
-3.94313 -1.69752 21.0144 67 143 111
-3.16333 -1.84953 22.8088 152 208 167
0 0 0 87 151 146
-3.60518 -1.74224 21.7017 64 137 91
0 0 0 164 211 203
-4.08109 -1.67464 20.9143 92 146 133
-3.93065 -1.69295 21.1888 43 110 79
6.84451 -3.36993 39.1438 78 139 125
6.97901 -3.37832 39.1389 90 153 143
10.4156 -3.73915 42.8844 107 181 151
0 0 0 62 124 94
0 0 0 92 145 131
0 0 0 91 158 137
-6.11133 -1.21499 15.9499 145 222 188
-5.78898 -1.31703 17.1401 78 147 126
-3.3419 -1.79641 22.4006 98 154 133
0 0 0 94 146 139
-6.10018 -1.22196 16.1186 81 136 103
-5.7791 -1.3105 17.1046 72 147 125
-3.34699 -1.78027 22.3038 50 96 83
0 0 0 112 164 154
-5.45713 -1.36485 17.8992 94 137 122
-1.09044 -2.14418 26.5203 97 157 147
-5.44364 -1.34501 17.716 180 239 224
-4.7379 -1.48445 19.2516 96 151 132
6.72458 -3.25501 38.6985 55 123 116
0 0 0 147 208 174
0 0 0 77 125 119
-5.97866 -1.21787 16.3656 168 241 203
-3.06618 -1.81683 23.0379 74 150 126
0 0 0 51 124 84
-5.04047 -1.40937 18.5706 174 228 211
-5.02766 -1.41397 18.6053 67 117 105
0 0 0 72 141 126
-3.40721 -1.71788 22.1486 148 206 181
0 0 0 87 156 135
-5.65905 -1.29745 17.4526 60 126 97
-3.81092 -1.6497 21.4952 114 149 122
-2.4903 -1.88175 24.0516 139 213 185
6.56619 -3.2136 38.8723 55 153 111
0 0 0 130 204 170
0 0 0 157 221 191
-4.37889 -1.53176 20.1137 83 153 122
-0.811404 -2.15959 27.2506 170 234 228
-5.9233 -1.21256 16.5973 130 218 178
-2.74192 -1.81465 23.5391 80 122 111
4.97009 -2.98548 36.5029 91 143 133
5.04906 -3.00942 36.8524 65 121 110
0 0 0 175 242 197
0 0 0 81 132 112
-2.4175 -1.86348 24.1388 158 220 202
-5.08816 -1.35734 18.4121 60 118 89
-5.06701 -1.38127 18.6316 69 143 113
-4.19139 -1.53634 20.4127 62 125 105
-4.19071 -1.5535 20.68 75 115 103
-2.97612 -1.75354 23.0347 65 123 95
-2.58668 -1.80339 23.6261 51 105 82
0.265973 -2.32567 29.5672 96 162 151
4.58482 -2.88572 36.0098 94 141 138
0 0 0 62 112 94
-6.28019 -1.11956 15.7362 51 109 84
-2.99204 -1.73094 22.9808 157 211 188
0.544507 -2.33282 29.8986 165 220 211
-4.71501 -1.41011 19.2655 87 151 121
0 0 0 178 236 211
0 0 0 147 224 203
0 0 0 175 234 220
-6.26858 -1.11276 15.8796 80 135 108
-5.70588 -1.23322 17.3242 81 135 100
-4.3627 -1.48468 20.2407 83 137 107
-4.12687 -1.52098 20.7568 148 212 182
-3.71092 -1.586 21.5705 130 154 130
-2.74938 -1.75424 23.5279 170 238 215
0.553001 -2.30455 29.8715 88 145 136
-5.65725 -1.22766 17.3165 134 190 167
-4.08417 -1.54778 21.1218 142 182 157
0 0 0 130 202 172
-5.5471 -1.25167 17.6084 156 218 204
-4.39524 -1.47842 20.3303 66 124 95
6.44308 -3.04566 38.6082 95 164 149
-3.02063 -1.69399 22.9413 55 128 102
-2.24852 -1.81207 24.3588 56 121 106
9.41125 -3.36731 42.1276 103 162 154
-5.96096 -1.1471 16.574 115 176 142
-4.95006 -1.33422 18.672 57 119 105
-3.39714 -1.60572 22.0426 93 146 133
-1.87701 -1.88597 25.4156 89 152 142
-0.133662 -2.17143 28.6223 69 145 134
-0.698003 -2.06122 27.5928 171 237 225
-6.08686 -1.10885 16.1873 116 190 166
5.04871 -2.86094 36.9281 86 144 133
5.29077 -2.85971 36.9695 76 134 123
6.51509 -3.01781 38.7722 76 133 125
-5.13203 -1.29695 18.5195 139 209 179
-2.69625 -1.7079 23.4794 164 229 207
0 0 0 76 141 115
0 0 0 109 175 163
0 0 0 109 175 163
-4.46052 -1.41205 19.959 86 138 115
10.4124 -3.36229 42.8515 80 166 132
0 0 0 93 148 133
-5.90426 -1.13123 16.6625 140 203 177
0 0 0 147 226 205
0 0 0 93 148 133
-4.76167 -1.35917 19.5176 145 214 181
0.637053 1.29749 -3.46106 156 219 179
0.342955 -2.1551 29.23 106 178 166
-5.09902 -1.27501 18.5925 82 144 130
-0.946853 -1.95404 27.0553 172 219 211
0 0 0 65 140 119
-5.0128 -1.28186 18.8047 66 112 100
-2.78587 -1.65685 23.4956 69 140 113
-3.7872 -1.48289 21.6423 122 189 152
9.90354 -3.2551 42.9802 171 231 220
-5.87378 -1.11034 16.8925 87 157 134
-3.70579 -1.47577 21.6549 155 213 189
-2.77105 -1.61635 23.5549 44 113 92
-6.38737 -0.989979 15.6007 75 132 111
-4.92003 -1.25449 18.9674 80 157 136
-5.0958 -1.21407 18.4835 62 122 112
-3.63145 -1.45127 21.6978 64 137 105
-5.95786 -1.06023 16.6503 63 120 99
-2.517 -1.61735 23.853 150 224 190
9.85172 -3.16364 42.9856 98 158 148
0 0 0 90 164 138
0.586906 -2.07969 29.8105 96 159 150
-4.38984 -1.32662 20.2708 138 216 175
0 0 0 103 165 165
0 0 0 157 213 192
-4.98733 -1.20974 18.8093 87 148 134
-4.77688 -1.23376 19.2872 147 221 191
-0.673185 -1.86524 27.6483 186 239 230
0 0 0 80 158 141
-4.91635 -1.19944 18.8576 58 127 106
-3.80268 -1.39507 21.5925 114 183 146
-3.77616 -1.39766 21.5913 55 122 91
-0.673226 -1.86506 27.6443 186 239 230
0 0 0 81 156 140
0 0 0 78 118 107
-4.35822 -1.29278 20.4276 45 109 73
-4.17641 -1.32027 20.6681 67 149 106
-3.99256 -1.34754 21.1055 74 140 121
-5.18733 -1.1414 18.3311 71 105 94
-3.64912 -1.39271 21.8992 69 134 118
-5.98451 -1.00087 16.6018 58 135 108
-4.95619 -1.18098 18.9343 171 239 214
-4.00626 -1.3512 21.2006 76 135 120
-5.9844 -0.993436 16.6575 135 204 183
-2.83926 -1.47753 23.3713 82 140 115
-0.111681 -1.86825 28.7022 82 145 129
-6.02093 -0.967895 16.5258 80 134 105
-0.0385688 -1.86416 28.8232 72 125 122
-0.0883786 -1.85252 28.7874 154 233 212
-4.28772 -1.23269 20.4597 132 218 170
-3.60292 -1.33051 21.8693 61 124 104
-4.16294 -1.25107 20.8579 162 228 186
-3.14619 -1.40601 22.9274 64 142 111
-2.28586 -1.51687 24.5716 161 226 210
0 0 0 108 169 155
-2.07318 -0.0417411 -2.65066 96 158 146
-3.48255 -1.34238 22.1006 73 135 111
3.29433 -2.21833 34.1127 90 152 146
0.759963 -1.91063 30.2494 87 147 137
5.30988 -2.45105 37.4605 96 159 157
0 0 0 175 229 212
-2.07435 -1.52136 24.9297 76 138 126
0 0 0 84 134 122
0 0 0 84 134 122
-4.04447 -1.24245 21.0375 48 103 84
-3.09343 -1.36736 22.8486 84 149 128
-2.46343 -1.4468 24.006 152 216 194
-1.08065 -1.65848 26.8937 167 228 214
-3.80237 -1.26451 21.497 143 207 177
-0.811873 -1.67608 27.377 80 145 136
-4.12297 -1.21922 20.8919 65 127 97
0 0 0 79 138 124
0 0 0 163 223 192
0 0 0 179 226 217
-4.09083 -1.21525 21.0318 41 96 71
-4.10903 -1.22223 21.1543 36 90 67
-6.24804 -0.867817 16.0124 81 153 131
-3.3556 -1.29067 22.3133 145 214 194
0 0 0 167 214 205
-5.84443 -0.938941 17.1719 88 145 137
-5.99092 -0.903198 16.7094 63 144 119
-5.8766 -0.927404 17.0886 69 130 116
-5.07247 -1.03594 18.6348 69 114 105
-2.77486 -1.37389 23.6088 104 169 148
0 0 0 143 229 199
0 0 0 69 138 117
0 0 0 169 222 208
-1.03519 -1.59737 26.9607 159 224 208
0 0 0 66 122 103
-5.08212 -1.01219 18.5202 61 125 96
-4.99825 -1.03622 18.8138 77 138 118
0 0 0 98 149 151
-5.54842 -0.953983 17.7831 135 197 179
