ply
format ascii 1.0
element vertex 1283
property double x
property double y
property double z
property uchar blue
property uchar green
property uchar red
end_header
-445.059 -320.235 1026.07 227 227 215
-444.691 -320.598 1026.06 216 214 203
-443.622 -319.162 1026.13 124 120 115
-445.081 -318.792 1026.11 215 214 204
-445.065 -319.874 1026.08 229 229 217
-444.333 -320.239 1026.08 166 164 153
-444.349 -319.157 1026.12 161 159 149
-444.524 -319.543 1027.37 124 121 113
-444.354 -318.797 1026.13 152 150 140
-444.529 -319.182 1027.38 121 118 110
-444.701 -319.876 1026.09 199 197 186
-444.723 -318.434 1026.13 182 180 170
-444.717 -318.794 1026.12 186 184 174
-444.359 -318.436 1026.14 138 136 126
-444.728 -318.073 1026.15 223 221 210
-444.365 -318.075 1026.15 173 169 158
-445.086 -318.432 1026.13 217 216 206
-444.007 -317.717 1026.17 177 172 163
-444.37 -317.715 1026.17 216 212 201
-444.012 -317.356 1026.19 211 206 197
-443.643 -317.719 1026.18 146 143 135
-444.187 -317.74 1027.44 176 170 163
-443.627 -318.801 1026.15 121 117 112
-443.633 -318.44 1026.16 115 112 104
-443.654 -316.998 1026.21 163 157 150
-444.381 -316.993 1026.19 209 203 192
-444.744 -316.991 1026.18 208 202 191
-443.638 -318.08 1026.17 118 115 107
-444.001 -318.078 1026.16 127 122 113
-443.28 -317.721 1026.19 155 152 147
-443.264 -318.803 1026.15 150 145 142
-444.017 -316.996 1026.2 194 188 177
-444.386 -316.633 1026.2 182 174 161
-444.391 -316.272 1026.22 155 147 134
-444.023 -316.635 1026.21 152 143 133
-442.938 -316.281 1026.25 132 127 124
-444.028 -316.274 1026.22 133 124 114
-443.301 -316.279 1026.24 145 139 132
-445.123 -315.907 1026.21 221 212 202
-444.76 -315.909 1026.22 168 159 146
-444.755 -316.27 1026.21 190 182 169
-445.118 -316.268 1026.2 225 219 208
-443.67 -315.916 1026.24 169 160 151
-444.033 -315.913 1026.24 140 130 120
-443.665 -316.276 1026.23 138 131 122
-444.771 -315.188 1026.25 173 167 154
-444.749 -316.631 1026.2 204 198 187
-444.407 -315.19 1026.25 127 121 108
-445.129 -315.546 1026.23 221 212 202
-445.134 -315.186 1026.24 226 223 209
-445.113 -316.628 1026.19 230 224 213
-444.039 -315.553 1026.25 137 127 117
-444.953 -315.166 1024.98 235 229 218
-444.397 -315.911 1026.23 137 128 115
-444.776 -314.827 1026.26 203 197 184
-444.413 -314.829 1026.26 164 158 145
-443.659 -316.637 1026.22 131 124 115
-443.675 -315.555 1026.26 167 158 149
-443.307 -315.918 1026.25 194 188 181
-443.681 -315.194 1026.27 132 126 115
-444.957 -314.846 1027.52 208 202 189
-444.781 -314.466 1026.27 228 222 209
-444.593 -314.849 1027.53 176 170 159
-444.599 -314.487 1027.54 199 190 180
-445.15 -314.103 1026.27 223 217 204
-444.792 -313.745 1026.29 198 192 179
-444.968 -314.124 1027.55 183 174 164
-444.224 -315.212 1027.52 117 110 101
-444.962 -314.485 1027.53 209 203 190
-444.415 -314.509 1028.82 179 170 167
-444.24 -314.128 1027.56 174 166 159
-444.235 -314.49 1027.55 193 186 177
-443.855 -315.575 1027.52 150 142 135
-443.871 -314.492 1027.56 185 176 172
-443.86 -315.214 1027.53 124 116 109
-445.139 -314.825 1026.25 235 232 218
-444.049 -314.831 1026.27 131 125 114
-444.685 -320.958 1026.05 220 219 205
-444.604 -314.126 1027.55 176 167 158
-445.155 -313.743 1026.29 215 209 198
-445.166 -313.021 1026.31 213 207 196
-444.609 -313.765 1027.57 142 133 124
-445.161 -313.382 1026.3 212 206 195
-444.439 -313.025 1026.33 152 143 133
-444.434 -313.386 1026.31 156 147 137
-444.99 -312.644 1025.06 238 231 222
-444.985 -313.004 1025.05 237 231 220
-444.076 -313.027 1026.33 140 131 122
-444.229 -314.851 1027.54 155 148 139
-443.491 -315.577 1027.53 160 151 147
-443.507 -314.494 1027.56 186 179 176
-443.513 -314.133 1027.58 179 171 171
-444.808 -312.662 1026.33 199 190 180
-445.54 -312.297 1026.33 222 213 203
-444.797 -313.384 1026.31 183 174 164
-444.445 -312.665 1026.34 176 167 158
-444.813 -312.302 1026.34 199 191 184
-445.903 -312.295 1026.32 218 210 197
-445.722 -312.314 1027.59 181 174 165
-445.545 -311.937 1026.34 185 179 168
-444.455 -311.943 1026.36 168 159 155
-444.092 -311.945 1026.37 170 163 160
-445.177 -312.3 1026.34 225 216 207
-445.171 -312.66 1026.32 224 215 205
-444.803 -313.023 1026.32 181 172 162
-444.819 -311.941 1026.36 176 168 161
-445.909 -311.934 1026.33 205 196 186
-446.455 -311.948 1027.59 204 198 187
-446.277 -311.572 1026.34 228 222 211
-444.824 -311.58 1026.37 143 135 128
-444.081 -312.667 1026.35 178 168 161
147.61 -260.646 1181.88 44 99 72
148.443 -261.471 1181.8 35 102 71
148.861 -261.462 1181.76 22 89 58
146.98 -260.281 1180.21 52 108 79
-519.64 -453.821 1192.07 26 66 65
-519.971 -453.208 1193.81 35 73 77
-326.028 -229.639 1021.74 171 175 176
-325.642 -228.281 1020.53 200 201 205
-430.329 -336.972 1025.9 149 137 135
-158.76 -266.259 1075.31 146 147 145
-158.759 -266.64 1075.3 143 144 142
-158.735 -265.581 1072.54 149 151 151
-158.167 -266.675 1073.89 104 105 103
-158.165 -267.056 1073.87 102 103 101
-358.618 -241.792 1022.05 178 188 218
-1.92191 18.258 1177.95 73 100 150
-1.92431 17.8634 1179.63 80 107 157
-0.238974 17.8688 1179.52 44 69 109
-0.239414 18.2904 1179.53 53 79 116
-1.50292 17.8647 1179.61 65 92 142
-1.50342 18.2863 1179.61 60 87 137
-1.50192 17.0215 1179.59 84 111 162
-1.50018 17.4173 1177.91 93 120 170
-1.08304 19.1309 1179.6 76 101 151
327.286 -326.634 1176.74 25 44 52
328.17 -327.093 1178.41 27 46 54
-428.651 -326.886 1026.27 203 189 171
-370.66 -248.225 1023.04 158 154 153
-481.422 -337.132 1028.58 186 196 196
-487.518 -259.399 1026.72 148 150 161
-487.88 -259.397 1026.71 151 144 147
-326.007 -228.282 1020.53 188 188 194
-651.297 -573.363 1193.1 45 66 87
-650.885 -573.376 1193.13 59 80 101
-650.858 -574.62 1193.08 58 79 106
-650.528 -575.455 1194.83 60 79 106
-650.063 -573.404 1193.19 97 114 135
-650.036 -574.647 1193.14 65 84 111
-649.651 -573.418 1193.21 115 132 153
-650.876 -573.791 1193.12 67 88 110
-652.137 -572.506 1193.08 58 76 93
-649.992 -572.173 1191.49 48 65 84
-650.483 -572.976 1193.17 67 84 103
-652.632 -573.31 1194.77 48 66 83
-650.867 -574.205 1193.1 71 91 116
-650.456 -574.219 1193.13 81 101 126
-650.474 -573.39 1193.16 77 96 117
-650.071 -572.99 1193.2 86 103 124
-651.279 -574.191 1193.07 52 74 99
-650.447 -574.634 1193.11 66 85 112
-650.045 -574.233 1193.16 83 103 128
-651.734 -572.106 1193.12 67 87 105
-652.238 -572.494 1194.82 81 101 119
-651.323 -572.119 1193.15 55 75 93
-651.744 -571.691 1193.14 89 109 127
-653.446 -573.697 1194.7 55 73 90
-652.977 -571.649 1193.06 82 101 122
-652.557 -572.078 1193.07 87 107 125
-652.95 -572.892 1193.01 62 79 98
-652.968 -572.064 1193.04 88 108 126
-653.473 -572.452 1194.74 99 119 137
-651.826 -572.508 1194.85 72 92 110
-652.548 -572.492 1193.05 69 86 105
-652.575 -571.249 1193.1 89 108 129
-652.155 -571.677 1193.11 98 118 136
-653.07 -572.051 1194.79 105 124 145
-651.314 -572.534 1193.14 38 55 74
-652.146 -572.092 1193.1 75 95 113
-653.079 -571.636 1194.8 89 108 129
-650.912 -572.133 1193.18 42 62 80
-652.668 -571.65 1194.83 103 124 145
-651.405 -572.937 1194.86 35 55 73
-650.519 -571.318 1193.24 84 106 124
-651.011 -572.121 1194.92 73 95 113
-649.214 -570.131 1191.63 95 118 134
-649.678 -572.175 1193.26 58 77 98
-649.705 -570.931 1193.31 83 108 124
-650.098 -571.747 1193.25 48 68 86
-650.089 -572.161 1193.23 39 58 79
-649.687 -571.76 1193.28 48 68 86
-652.986 -571.235 1193.07 63 82 103
-652.959 -572.478 1193.03 78 95 114
-650.51 -571.733 1193.22 60 80 98
-650.027 -570.518 1191.56 90 112 130
-649.276 -571.774 1193.3 62 82 100
-650.054 -569.276 1191.6 102 124 142
-649.284 -571.36 1193.32 59 82 98
-649.669 -572.589 1193.24 86 103 124
-649.179 -571.787 1191.56 59 76 97
-649.696 -571.346 1193.29 60 82 100
-649.267 -572.189 1193.29 84 103 124
-648.864 -571.788 1193.33 78 98 116
-649.731 -574.238 1194.93 106 120 143
-648.855 -572.202 1193.31 100 119 140
-648.837 -573.031 1193.28 119 135 158
-649.249 -573.017 1193.26 118 134 157
-649.354 -572.591 1195.02 91 117 134
-649.328 -573.836 1194.97 106 126 144
-649.66 -573.004 1193.23 105 122 143
-648.461 -571.387 1193.37 76 102 119
-648.539 -572.204 1195.09 105 126 141
-648.951 -572.19 1195.06 88 113 129
-649.258 -572.603 1193.27 109 125 148
-648.513 -573.449 1195.04 99 122 137
-648.023 -572.644 1193.35 111 134 150
-649.293 -570.945 1193.33 73 98 114
-649.749 -573.408 1194.96 118 134 157
-648.521 -573.034 1195.06 114 137 152
-649.346 -573.006 1195 107 131 149
-647.733 -571.401 1195.17 98 122 134
-648.942 -572.605 1195.04 104 129 145
-648.626 -572.607 1196.82 109 129 140
-647.209 -572.257 1193.42 108 130 141
-647.697 -573.062 1195.11 99 123 129
-648.136 -571.802 1195.13 99 121 133
-648.916 -573.85 1195 94 114 131
-648.504 -573.864 1195.02 74 100 114
-649.434 -573.411 1196.73 118 139 154
-649.319 -574.251 1194.95 85 102 128
-649.31 -574.667 1194.94 55 75 100
-649.722 -574.653 1194.91 79 95 118
-648.1 -573.463 1195.07 83 110 120
-648.495 -574.279 1195.01 53 77 97
-650.125 -575.054 1194.87 68 85 111
-649.713 -575.068 1194.9 52 69 95
-649.231 -573.846 1193.23 95 111 134
-648.898 -574.68 1194.97 52 72 97
-648.907 -574.265 1194.98 67 87 112
-650.116 -575.469 1194.85 51 70 97
-650.537 -575.04 1194.84 81 98 124
-649.301 -575.082 1194.92 38 60 85
-648.091 -573.878 1195.05 63 92 101
-650.931 -575.856 1194.78 50 68 97
-647.647 -571 1193.44 86 109 125
-649.03 -573.009 1196.78 114 133 146
-647.329 -571 1195.22 100 129 138
-646.439 -569.797 1193.57 104 125 140
-647.665 -570.171 1193.47 82 107 123
-649.642 -573.832 1193.2 102 118 141
-649.625 -570.118 1191.6 97 119 137
-650.867 -569.663 1191.53 88 109 130
-649.537 -569.72 1189.88 96 116 134
-650.465 -569.262 1191.58 86 107 128
-651.287 -573.777 1193.09 50 71 93
-649.59 -571.773 1191.54 42 59 78
-652.584 -570.835 1193.12 67 86 107
-647.688 -573.477 1195.09 72 102 107
-647.285 -573.075 1195.14 93 121 122
-647.774 -573.882 1196.83 90 123 119
-647.294 -572.66 1195.15 117 139 144
-652.686 -570.82 1194.86 60 81 103
-652.593 -570.42 1193.13 49 67 90
-653.088 -571.221 1194.82 66 84 107
-651.871 -570.433 1194.93 78 99 121
-652.283 -570.419 1194.9 58 75 101
-651.386 -569.218 1193.26 46 66 91
-651.88 -570.018 1194.95 61 82 104
-652.995 -570.821 1193.09 48 67 88
-652.191 -570.02 1193.17 49 70 92
-653.397 -571.221 1193.05 46 65 86
-651.788 -569.619 1193.22 49 66 92
-651.056 -570.046 1195 83 107 127
-650.563 -569.246 1193.32 77 98 120
-650.572 -568.831 1193.33 53 77 99
-651.065 -569.631 1195.02 65 90 110
-651.038 -570.876 1194.97 98 123 139
-653.379 -572.05 1193.01 75 95 113
-651.343 -575.842 1194.75 48 66 95
-647.32 -571.415 1195.2 104 132 139
-653.388 -571.636 1193.03 59 78 99
-645.983 -571.884 1193.52 109 137 137
-646.469 -572.688 1195.21 95 130 126
-647.276 -573.49 1195.12 64 98 98
-646.806 -571.857 1193.47 117 138 146
-646.842 -570.198 1193.53 92 120 131
-651.459 -570.447 1194.96 96 117 139
-650.081 -568.034 1191.65 43 66 88
-650.644 -570.059 1195.03 89 113 133
-650.653 -569.644 1195.04 74 99 119
-649.338 -568.872 1193.41 84 110 127
-649.347 -568.458 1193.43 66 94 111
-649.838 -569.257 1195.11 76 104 121
-648.533 -568.071 1193.5 66 93 113
-648.944 -568.057 1193.47 55 83 100
-648.524 -568.485 1193.48 80 108 125
-650.635 -570.474 1195.01 99 120 141
-647.719 -567.683 1193.57 78 106 123
-647.231 -566.888 1191.89 66 93 113
-648.953 -567.643 1193.49 40 67 87
-647.701 -568.513 1193.54 95 121 137
-648.857 -567.661 1191.75 57 84 104
-648.542 -567.656 1193.51 48 78 97
-649.356 -568.043 1193.44 49 76 96
-647.222 -567.302 1191.87 81 109 126
-646.904 -567.296 1193.64 68 95 109
-647.298 -568.112 1193.58 94 123 138
-646.886 -568.125 1193.61 103 130 144
-646.418 -566.501 1191.96 65 94 109
-647.289 -568.526 1193.56 102 128 144
-646.913 -566.881 1193.65 55 82 96
-646.483 -567.724 1193.65 90 118 129
-646.971 -568.522 1195.34 92 121 128
-648.208 -568.481 1195.26 81 110 125
-646.962 -568.937 1195.32 98 129 138
-646.475 -568.139 1193.63 105 133 144
-646.501 -566.895 1193.68 57 86 95
-646.081 -567.323 1193.69 79 108 115
-647.392 -568.093 1195.33 72 101 110
-646.895 -567.71 1193.62 86 113 127
-646.829 -566.487 1191.93 59 87 104
-650.849 -575.034 1193.07 44 62 91
-435.453 -322.49 1025.02 233 226 211
-435.459 -322.129 1025.04 232 223 209
-260.317 -506.016 1188.29 74 105 104
-260.678 -507.981 1189.94 34 59 63
-261.529 -507.982 1189.94 27 52 56
-488.639 -264.852 1025.23 184 176 163
-488.043 -264.896 1023.98 222 213 199
-340.944 -230.076 1020.5 121 113 160
-426.934 -245.157 1023.92 196 200 205
-427.103 -244.368 1025.2 167 170 175
-427.467 -244.367 1025.19 148 151 156
-428.195 -244.366 1025.18 144 146 154
-427.088 -245.453 1025.16 213 218 221
-428.18 -245.45 1025.15 120 124 129
-428.04 -244.072 1023.94 148 148 154
-426.734 -244.731 1025.19 205 207 215
-426.729 -245.092 1025.18 218 221 225
-427.303 -244.795 1023.92 107 111 116
-427.811 -245.812 1025.14 205 209 214
-427.806 -246.174 1025.13 213 218 221
-426.576 -244.797 1023.93 188 193 196
-426.581 -244.436 1023.95 163 165 173
-427.651 -245.878 1023.88 147 151 156
-427.656 -245.517 1023.89 135 139 144
-427.149 -244.501 1022.68 95 99 104
-426.376 -244.37 1025.21 225 228 232
-426.939 -244.796 1023.93 145 149 154
-427.472 -244.006 1025.21 194 199 202
-427.108 -244.007 1025.21 196 201 202
-426.745 -244.008 1025.22 212 217 218
-426.74 -244.369 1025.2 199 202 207
-427.298 -245.156 1023.91 162 166 171
-427.831 -244.367 1025.19 143 145 153
-426.371 -244.731 1025.2 228 231 236
-427.477 -243.644 1025.22 227 233 232
-427.632 -243.938 1026.47 225 231 230
-427.462 -244.729 1025.18 123 124 134
-426.929 -245.518 1023.9 236 241 244
-428.528 -246.533 1025.1 145 144 153
-428.164 -246.534 1025.11 193 198 201
-428.533 -246.172 1025.12 97 96 106
-427.635 -246.96 1023.84 213 218 221
-428.902 -245.81 1025.12 143 142 152
-427.79 -247.258 1025.09 228 233 234
-429.266 -245.809 1025.12 196 195 204
-428.897 -246.171 1025.11 97 96 105
-427.416 -247.982 1025.07 223 227 232
-427.262 -247.683 1023.82 188 192 197
-427.994 -247.32 1023.82 139 136 145
-428.523 -246.895 1025.09 183 182 191
-427.282 -246.239 1023.87 225 230 233
-428.352 -247.68 1023.81 133 133 139
-428.372 -246.237 1023.86 110 109 118
-428.21 -243.281 1025.22 201 207 206
-427.846 -243.282 1025.23 223 229 228
-427.841 -243.644 1025.21 230 235 236
-427.836 -244.005 1025.2 200 205 208
-428.569 -243.642 1025.2 197 196 205
-427.852 -242.921 1025.24 211 219 219
-427.857 -242.559 1025.25 212 218 223
-428.933 -243.641 1025.2 150 149 158
-428.564 -244.003 1025.19 196 195 204
-428.579 -242.919 1025.23 118 114 126
-428.055 -242.989 1023.97 155 151 162
-428.2 -244.004 1025.19 200 205 208
-428.216 -242.92 1025.23 172 180 180
-428.221 -242.558 1025.24 168 174 179
-428.065 -242.266 1024 125 120 135
-428.938 -243.279 1025.21 111 107 118
-428.403 -244.071 1023.93 163 163 169
-428.518 -247.256 1025.08 167 166 175
-428.538 -245.81 1025.13 107 106 116
-428.362 -246.959 1023.83 157 154 163
-427.63 -247.321 1023.83 173 178 179
-427.625 -247.682 1023.82 139 143 148
-427.785 -247.619 1025.08 210 215 216
-429.235 -247.977 1025.04 143 143 149
-427.411 -248.343 1025.06 222 226 231
-427.257 -248.044 1023.81 172 176 181
-428.502 -248.34 1025.04 131 130 139
-427.764 -249.065 1025.03 191 195 200
-428.128 -249.064 1025.02 125 129 134
-427.77 -248.703 1025.04 171 175 180
-428.497 -248.701 1025.03 126 125 134
-428.123 -249.425 1025.01 164 168 173
-427.406 -248.704 1025.05 220 224 229
-428.487 -249.424 1025 125 124 133
-428.138 -248.341 1025.05 125 129 134
-427.396 -249.427 1025.02 234 238 243
-428.482 -249.785 1024.99 180 179 188
-429.219 -249.061 1025.01 120 120 126
-427.759 -249.426 1025.02 219 223 228
-428.856 -249.062 1025.01 110 109 118
-428.851 -249.423 1025 116 115 124
-428.695 -249.123 1023.75 114 114 120
-428.866 -248.339 1025.04 171 170 179
-429.23 -248.338 1025.03 187 187 193
-428.492 -249.063 1025.02 101 100 109
-427.401 -249.066 1025.03 224 228 233
-428.477 -250.147 1024.98 173 172 182
-428.861 -248.701 1025.02 154 153 162
-427.749 -250.149 1024.99 226 230 235
-428.321 -249.846 1023.73 149 148 157
-428.845 -249.785 1024.99 152 151 160
-429.225 -248.7 1025.02 197 197 203
-428.113 -250.148 1024.98 212 216 221
-428.311 -250.568 1023.71 122 123 133
-428.471 -250.508 1024.97 115 114 124
-427.375 -250.872 1024.97 191 194 208
-428.316 -250.207 1023.72 109 108 117
-427.744 -250.51 1024.98 192 196 201
-427.38 -250.511 1024.98 214 218 223
-428.466 -250.869 1024.95 100 101 111
-428.108 -250.509 1024.97 143 147 152
-428.092 -251.593 1024.94 122 122 138
-428.097 -251.232 1024.95 117 117 135
-429.188 -251.229 1024.93 215 214 223
-428.664 -251.288 1023.68 228 225 234
-427.734 -251.233 1024.95 156 156 172
-428.825 -251.23 1024.94 163 164 174
-428.102 -250.87 1024.96 104 106 124
-428.674 -250.567 1023.7 136 138 146
-427.365 -251.595 1024.95 217 219 230
-427.36 -251.956 1024.93 208 209 219
-427.001 -251.596 1024.95 235 238 246
-426.996 -251.957 1024.94 232 235 240
-427.011 -250.873 1024.98 225 227 237
-428.456 -251.592 1024.93 135 134 144
-428.087 -251.954 1024.92 106 105 121
-427.535 -250.813 1026.23 229 234 237
-427.723 -251.955 1024.93 153 153 167
-427.718 -252.316 1024.92 149 149 161
-427.564 -252.013 1023.67 105 105 119
-426.991 -252.318 1024.93 229 232 237
-427.006 -251.235 1024.96 232 235 243
-427.729 -251.594 1024.94 165 166 180
-427.713 -252.678 1024.9 182 180 192
-428.077 -252.677 1024.9 149 147 159
-426.986 -252.68 1024.92 233 234 238
-427.355 -252.317 1024.92 202 203 213
-427.37 -251.234 1024.96 207 209 220
-428.461 -251.231 1024.94 137 138 148
-428.446 -252.314 1024.91 96 90 101
-427.553 -252.734 1023.65 175 173 185
-427.708 -253.039 1024.89 205 204 214
-427.349 -252.679 1024.91 218 217 226
-428.441 -252.676 1024.89 143 137 148
-427.703 -253.4 1024.88 197 193 204
-427.548 -253.095 1023.63 158 154 166
-427.339 -253.401 1024.89 230 228 234
-427.344 -253.04 1024.9 231 230 239
-428.43 -253.398 1024.87 139 133 144
-426.965 -254.125 1024.87 226 225 234
-427.698 -253.761 1024.87 166 163 178
-427.693 -254.123 1024.86 144 142 154
-427.543 -253.456 1023.62 127 124 139
-427.329 -254.124 1024.86 193 192 202
-427.334 -253.762 1024.87 209 207 219
-428.42 -254.121 1024.84 146 137 150
-427.682 -254.845 1024.83 148 147 156
-426.96 -254.486 1024.85 226 226 232
-426.955 -254.847 1024.84 224 224 230
-428.046 -254.844 1024.82 112 111 121
-427.324 -254.485 1024.85 190 189 198
-427.314 -255.207 1024.82 220 220 226
-428.041 -255.205 1024.81 123 122 131
-428.036 -255.566 1024.8 169 168 177
-428.4 -255.565 1024.79 147 142 151
-428.405 -255.204 1024.81 106 100 111
-427.677 -255.206 1024.82 178 177 186
-427.319 -254.846 1024.84 201 200 209
-426.786 -255.623 1023.56 211 210 219
-428.41 -254.843 1024.82 152 144 155
-427.672 -255.567 1024.81 213 212 221
-426.423 -255.624 1023.56 201 200 209
-427.513 -255.621 1023.55 196 195 204
-428.301 -251.289 1023.68 174 170 181
-428.295 -251.65 1023.67 136 130 141
-428.763 -255.564 1024.79 138 133 142
-427.149 -255.622 1023.55 214 213 222
-428.773 -254.842 1024.81 175 169 180
-429.952 -248.698 1025.01 199 198 202
-429.957 -248.336 1025.02 200 199 203
-430.115 -248.636 1026.27 212 212 218
-430.326 -247.974 1025.02 141 142 146
-429.599 -247.976 1025.04 145 145 151
-429.583 -249.06 1025 122 122 128
-430.69 -247.973 1025.02 119 120 124
-430.669 -249.418 1024.97 111 113 113
-430.153 -248.758 1023.74 126 128 128
-430.163 -248.037 1023.77 152 154 155
-431.059 -247.611 1025.03 157 162 160
-430.695 -247.612 1025.03 129 132 130
-431.064 -247.249 1025.04 176 179 177
-431.223 -247.547 1026.29 161 163 163
-431.776 -248.331 1024.99 192 196 197
-431.781 -247.97 1025 207 211 212
-431.417 -247.971 1025.01 163 165 166
-431.433 -246.887 1025.04 200 205 203
-431.412 -248.332 1024.99 137 139 140
-431.427 -247.248 1025.03 215 220 218
-431.796 -246.886 1025.04 227 232 230
-431.791 -247.247 1025.03 236 243 240
-431.422 -247.61 1025.02 199 204 202
-432.134 -248.692 1024.97 221 227 226
-431.401 -249.055 1024.97 157 159 159
-431.053 -247.972 1025.01 117 119 120
-432.129 -249.053 1024.96 224 230 229
-432.139 -248.33 1024.98 227 232 233
-431.069 -246.888 1025.05 157 159 159
-431.621 -247.672 1023.75 226 231 232
-431.396 -249.416 1024.96 186 189 187
-431.765 -249.054 1024.96 202 207 205
-431.237 -249.116 1023.71 215 220 218
-431.77 -248.693 1024.98 187 192 191
-430.516 -248.757 1023.74 126 128 128
-431.033 -249.417 1024.96 151 154 152
-431.786 -247.609 1025.01 225 232 229
-430.316 -248.697 1025 181 183 184
-486.016 -336.416 1029.75 187 194 197
-485.79 -336.009 1028.5 186 193 196
-518.584 -222.469 1025.07 145 174 205
-519.217 -222.374 1026.32 111 145 175
-518.856 -222.375 1026.33 137 165 199
-517.509 -222.114 1025.12 145 165 206
-517.482 -223.558 1025.06 133 153 178
-517.489 -223.197 1025.08 144 165 196
-517.773 -222.381 1026.36 130 149 192
-517.502 -222.475 1025.1 160 179 217
-518.849 -222.737 1026.32 164 192 223
-517.766 -222.742 1026.35 137 154 197
-517.753 -223.466 1026.32 135 155 190
-517.746 -223.827 1026.31 114 132 161
-519.564 -223.095 1026.28 152 187 213
-517.85 -223.195 1025.06 168 193 219
-519.558 -223.456 1026.27 173 208 228
-519.292 -223.188 1025.02 155 195 214
-518.217 -222.832 1025.07 180 206 236
-517.87 -222.112 1025.1 150 176 212
-519.299 -222.827 1025.03 121 158 184
-518.21 -223.193 1025.05 186 214 238
-517.876 -221.751 1025.12 117 145 180
-518.951 -222.106 1025.07 92 128 158
-518.237 -221.749 1025.11 105 136 169
-520.273 -223.814 1026.23 159 195 211
-519.932 -222.731 1026.28 92 129 157
-520.279 -223.453 1026.25 125 166 188
-519.912 -223.816 1026.24 177 212 226
-520.988 -224.172 1026.2 151 179 196
-520.627 -224.174 1026.21 172 198 214
-520.353 -224.265 1024.95 180 200 217
-520.62 -224.535 1026.19 192 211 224
-520.647 -223.089 1026.25 92 132 157
-519.203 -223.097 1026.29 173 203 230
-520.286 -223.091 1026.26 99 139 164
-520.013 -223.184 1025 107 148 170
-518.203 -223.554 1025.04 185 210 226
-518.197 -223.916 1025.03 193 211 222
-517.476 -223.919 1025.05 150 164 182
-517.496 -222.836 1025.09 157 176 213
-517.759 -223.104 1026.34 144 162 203
-517.933 -223.647 1023.78 198 219 227
-519.571 -222.733 1026.3 117 151 180
-520.634 -223.812 1026.22 139 175 193
-518.598 -221.747 1025.1 92 127 160
-520.266 -224.176 1026.22 184 212 223
-521.342 -224.531 1026.17 173 190 209
-520.72 -223.902 1024.95 141 166 186
-521.696 -224.891 1026.15 196 203 218
-521.074 -224.262 1024.93 169 184 203
-521.335 -224.893 1026.16 213 221 234
-520.346 -224.626 1024.93 215 222 231
-518.468 -223.823 1026.29 165 189 209
-517.836 -223.917 1025.04 177 193 206
-517.469 -224.28 1025.04 185 194 208
-517.83 -224.279 1025.02 199 209 219
-519.176 -224.543 1026.24 218 232 238
-517.102 -224.643 1025.03 220 226 233
-517.108 -224.282 1025.05 172 181 201
-517.462 -224.641 1025.02 223 229 234
-518.19 -224.277 1025.01 215 226 234
-516.387 -224.286 1025.07 187 196 223
-516.748 -224.284 1025.06 175 182 207
-516.394 -223.925 1025.08 129 143 172
-516.132 -223.656 1023.84 125 137 165
-516.741 -224.645 1025.04 217 225 232
-516.033 -223.927 1025.09 146 177 198
-516.02 -224.649 1025.07 218 230 232
-516.295 -224.196 1026.34 165 197 216
-516.302 -223.834 1026.35 148 189 214
-516.04 -223.565 1025.11 123 162 190
-516.38 -224.647 1025.06 220 227 236
-516.4 -223.564 1025.09 114 133 168
-517.823 -224.64 1025.01 223 230 233
-516.026 -224.288 1025.08 190 213 229
-516.288 -224.558 1026.33 194 220 234
-516.046 -223.204 1025.12 119 161 196
-516.308 -223.473 1026.37 134 179 212
-515.312 -223.93 1025.11 174 208 224
-520.454 -223.634 1023.7 143 167 187
-515.927 -224.559 1026.34 197 223 235
-516.407 -223.202 1025.11 132 150 191
-515.573 -224.2 1026.36 166 204 216
-522.05 -225.25 1026.12 204 211 226
-522.07 -224.166 1026.16 139 160 181
-522.404 -225.61 1026.1 167 170 184
-522.397 -225.971 1026.09 177 179 189
-522.417 -224.887 1026.13 141 148 167
-522.135 -225.339 1024.85 103 109 128
-522.424 -224.526 1026.14 136 149 171
-522.128 -225.7 1024.84 115 119 138
-522.148 -224.617 1024.88 100 107 127
-522.155 -224.256 1024.89 108 122 141
-522.481 -226.059 1024.81 82 84 102
-522.036 -225.973 1026.1 223 225 235
-522.488 -225.698 1024.83 66 70 88
-522.029 -226.335 1026.08 226 229 234
-522.751 -226.331 1026.06 134 135 155
-522.502 -224.976 1024.85 59 66 85
-522.475 -226.42 1024.8 93 95 113
-522.043 -225.612 1026.11 218 222 233
-522.744 -226.692 1026.05 156 156 174
-522.023 -226.696 1026.07 227 230 235
-522.495 -225.337 1024.84 55 61 80
-522.377 -227.056 1026.04 215 218 222
-522.39 -226.333 1026.07 193 195 203
-522.37 -227.417 1026.03 224 227 231
-522.821 -227.14 1024.76 62 63 77
-522.108 -226.783 1024.8 173 173 191
-522.101 -227.144 1024.78 186 184 203
-522.552 -226.867 1023.52 41 45 56
-522.559 -226.507 1023.53 43 47 58
-522.063 -224.528 1026.15 154 168 190
-522.724 -227.776 1026.01 192 188 207
-522.461 -227.142 1024.77 117 117 133
-522.454 -227.503 1024.76 130 126 145
-522.801 -228.222 1024.72 80 78 90
-522.808 -227.862 1024.73 69 69 83
-522.016 -227.057 1026.06 229 232 236
-522.213 -225.788 1023.57 58 63 78
-522.219 -225.427 1023.58 50 57 72
-521.781 -224.98 1024.88 154 161 178
-522.468 -226.781 1024.79 105 105 121
-522.383 -226.694 1026.06 206 209 214
-522.363 -227.778 1026.02 234 236 237
-522.815 -227.501 1024.75 59 58 74
-522.142 -224.978 1024.86 100 107 127
-522.539 -227.588 1023.49 49 49 63
-522.447 -227.863 1024.75 135 132 148
-522.441 -228.224 1024.73 141 138 153
-522.206 -226.148 1023.56 59 62 76
-523.161 -228.22 1024.71 51 51 63
-517.863 -222.473 1025.09 171 193 229
-523.154 -228.581 1024.7 54 55 65
-523.148 -228.942 1024.68 53 52 61
-522.427 -228.946 1024.71 165 161 172
-522.434 -228.585 1024.72 158 154 166
-522.431 -224.164 1026.15 122 143 164
-522.162 -223.895 1024.9 105 120 139
-522.169 -223.534 1024.92 116 136 154
-522.438 -223.803 1026.17 115 144 165
-353.618 -246.075 1023.43 153 148 147
-353.991 -245.353 1023.45 194 191 187
-352.895 -245.352 1023.45 157 143 137
-386.951 -339.862 1024.57 191 193 193
-387.316 -339.86 1024.57 185 190 189
-386.222 -339.865 1024.58 160 162 162
-386.578 -340.584 1024.55 171 173 173
-386.582 -340.223 1024.57 166 168 168
-387.689 -339.138 1024.59 166 168 169
-387.684 -339.499 1024.58 169 173 174
-387.311 -340.221 1024.56 169 174 173
-387.777 -340.991 1025.79 168 174 173
-385.854 -340.226 1024.57 157 159 159
-386.947 -340.222 1024.56 180 182 182
-456.819 -236.583 1024.5 192 198 197
-455.748 -235.503 1024.56 204 209 207
-456.63 -236.299 1023.26 209 217 217
-456.825 -236.222 1024.51 196 202 201
-456.635 -235.938 1023.27 220 228 227
-455.754 -235.142 1024.57 204 209 208
-457.176 -236.943 1024.48 214 219 220
-456.462 -236.223 1024.52 184 189 188
-576.212 -334.162 1047.95 238 241 232
-476.425 -235.046 1022.6 124 117 132
-478.031 -258.463 1024.47 115 114 124
-472.308 -267.468 1025.55 122 120 142
-490.516 -326.193 1027.62 219 225 236
-491.602 -326.184 1027.59 192 201 211
-491.578 -327.626 1027.54 186 195 199
-491.81 -328.023 1028.79 187 196 200
-433.549 -265.813 1024.85 167 176 185
-52.9779 -173.317 1183.34 47 60 104
-52.5532 -174.154 1183.3 65 80 129
-52.5537 -173.733 1183.31 68 83 132
-53.323 -174.757 1181.63 25 36 74
-53.3246 -173.496 1181.66 13 25 65
-53.3235 -174.336 1181.64 20 32 72
-52.9774 -173.738 1183.33 41 54 98
-52.9763 -174.579 1183.31 46 59 103
-52.9757 -175 1183.3 48 60 102
-52.901 -173.912 1181.63 42 55 99
-52.8995 -175.173 1181.59 42 54 96
-52.8989 -175.593 1181.58 41 53 95
-52.5511 -175.838 1183.25 67 80 124
-52.5516 -175.417 1183.27 70 83 129
-52.5527 -174.575 1183.29 73 88 137
-52.4769 -174.748 1181.58 76 89 135
-52.127 -176.254 1183.22 82 96 144
-52.1275 -175.833 1183.23 80 94 142
-52.4754 -176.009 1181.55 70 83 127
-52.4749 -176.429 1181.54 68 81 125
-52.1265 -176.675 1183.21 79 93 141
-53.3225 -175.177 1181.62 20 31 69
-52.128 -175.413 1183.24 81 95 143
-52.9726 -177.525 1183.23 38 52 94
-52.8984 -176.013 1181.57 46 58 100
-52.8973 -176.853 1181.55 38 52 94
-52.5485 -177.941 1183.2 62 78 121
-52.548 -178.362 1183.19 61 77 120
-52.5495 -177.1 1183.22 65 81 124
-52.1249 -177.937 1183.18 84 99 145
-52.1259 -177.096 1183.2 80 94 142
-52.1244 -178.358 1183.17 82 96 144
-52.9716 -178.366 1183.21 31 46 85
-52.971 -178.787 1183.2 38 53 92
-52.1254 -177.516 1183.19 86 101 147
-52.1239 -178.779 1183.15 82 98 144
-52.549 -177.521 1183.21 67 83 126
-52.5474 -178.783 1183.18 64 80 123
-52.4717 -178.95 1181.47 59 75 117
-52.1233 -179.199 1183.14 79 95 141
-52.9721 -177.946 1183.22 30 44 86
-52.9736 -176.683 1183.25 42 56 98
-52.9705 -179.208 1183.19 36 52 89
-463.469 -277.09 1020.6 212 202 195
-464.185 -277.445 1020.57 230 227 223
-374.873 -248.728 1023.57 211 216 219
-359.415 -242.445 1023.28 134 143 177
-359.343 -242.154 1022.03 116 125 159
-359.339 -242.514 1022.02 106 115 148
-358.974 -242.514 1022.02 121 128 161
-358.891 -243.304 1020.75 121 128 153
-359.788 -241.722 1023.3 164 173 210
-359.784 -242.084 1023.29 139 147 184
-359.716 -241.432 1022.06 145 153 190
-359.711 -241.793 1022.04 120 129 163
-360.137 -243.168 1023.25 105 113 142
-359.419 -242.084 1023.29 157 167 201
-360.076 -241.793 1022.04 116 123 156
-360.084 -241.071 1022.07 154 164 198
-360.157 -241.361 1023.31 169 180 212
-360.088 -240.71 1022.08 181 192 224
-360.161 -241 1023.32 183 194 226
-360.51 -242.445 1023.27 105 113 143
-359.708 -242.154 1022.03 106 115 148
-359.792 -241.361 1023.31 185 196 226
-359.423 -241.722 1023.3 177 187 221
-360.08 -241.432 1022.05 137 146 180
-360.506 -242.807 1023.26 117 125 154
-360.449 -241.071 1022.06 155 165 199
-360.453 -240.71 1022.08 178 187 221
-360.437 -242.154 1022.03 115 123 152
-360.441 -241.793 1022.04 117 125 155
-360.813 -241.071 1022.06 153 162 195
-360.797 -242.515 1022.02 161 172 194
-360.433 -242.515 1022.02 140 150 174
-360.883 -241.723 1023.3 134 139 172
-360.801 -242.154 1022.03 140 147 172
-360.809 -241.432 1022.05 132 136 165
-360.818 -240.711 1022.07 171 180 213
-361.182 -240.711 1022.07 164 172 202
-361.174 -241.432 1022.05 130 133 161
-361.17 -241.793 1022.04 137 141 166
-361.915 -240.35 1022.08 175 179 207
-361.99 -240.639 1023.33 179 183 211
-361.907 -241.072 1022.06 114 118 147
-361.919 -239.989 1022.09 186 191 212
-361.543 -241.072 1022.06 126 131 162
-361.555 -239.989 1022.09 186 193 213
-361.903 -241.433 1022.05 125 122 148
-360.826 -239.989 1022.1 185 193 216
-360.461 -239.989 1022.1 184 192 215
-361.539 -241.433 1022.05 127 126 152
-361.547 -240.711 1022.07 157 162 193
-361.559 -239.628 1022.11 211 218 233
-361.178 -241.072 1022.06 141 148 181
-362.276 -240.711 1022.07 135 138 166
-362.272 -241.072 1022.06 100 104 132
-362.64 -240.711 1022.07 120 123 151
-362.636 -241.072 1022.06 87 90 118
-361.633 -239.916 1023.35 206 214 227
-361.629 -240.278 1023.34 186 193 213
-362.649 -239.989 1022.09 191 197 216
-362.284 -239.989 1022.09 187 193 212
-362.288 -239.628 1022.1 211 218 233
-362.653 -239.629 1022.1 214 221 236
-362.364 -239.917 1023.35 212 219 234
-362.351 -241.001 1023.31 149 153 182
-361.708 -240.206 1024.6 203 211 224
-362.28 -240.35 1022.08 171 175 200
-362.268 -241.433 1022.05 120 116 141
-361.625 -240.639 1023.33 180 186 215
-362.644 -240.35 1022.08 166 170 195
-362.264 -241.794 1022.03 141 138 163
-361.534 -241.793 1022.04 138 139 165
-362.628 -241.794 1022.03 135 132 157
-361.563 -239.267 1022.12 219 225 236
-362.292 -239.267 1022.12 217 223 236
-361.638 -239.555 1023.36 218 224 235
-361.899 -241.794 1022.04 144 144 168
-362.368 -239.555 1023.36 218 224 237
-362.372 -239.194 1023.37 175 179 197
-361.277 -239.194 1023.38 208 212 223
-361.202 -238.906 1022.13 189 195 208
-361.272 -239.555 1023.36 220 227 236
-362.007 -239.194 1023.37 180 185 200
-362.737 -239.194 1023.37 176 180 198
-363.102 -239.194 1023.37 185 189 208
-362.011 -238.833 1023.38 146 150 169
-363.106 -238.833 1023.38 156 158 182
-363.098 -239.556 1023.36 222 228 241
-361.281 -238.832 1023.39 181 184 198
-361.285 -238.471 1023.4 180 179 205
-362.376 -238.833 1023.38 146 149 170
-360.465 -239.628 1022.11 202 211 224
-360.916 -238.832 1023.39 206 210 221
-360.977 -240.205 1024.6 199 208 221
-360.92 -238.471 1023.4 206 207 227
-363.013 -239.99 1022.09 194 201 220
-363.009 -240.35 1022.08 159 163 188
-363.073 -241.724 1023.29 109 105 130
-362.997 -241.433 1022.04 102 100 119
-363.001 -241.072 1022.05 83 86 114
-363.811 -241.001 1023.31 105 109 137
-363.815 -240.64 1023.32 157 162 187
-363.738 -240.351 1022.07 156 161 186
-363.734 -240.711 1022.06 110 114 142
-363.824 -239.917 1023.34 211 220 233
-364.107 -239.99 1022.08 187 194 214
-364.103 -240.351 1022.07 159 163 191
-364.09 -241.433 1022.04 123 123 147
-364.184 -240.279 1023.33 187 194 213
-364.168 -241.724 1023.28 114 113 133
-364.463 -240.712 1022.06 129 135 164
-364.467 -240.351 1022.07 173 177 205
-364.832 -240.351 1022.07 171 178 205
-364.828 -240.712 1022.06 142 147 178
-364.918 -239.917 1023.34 208 215 230
-365.196 -240.351 1022.07 171 177 206
-365.279 -240.279 1023.32 191 198 218
-365.188 -241.073 1022.05 139 147 177
-365.267 -241.363 1023.29 124 132 162
-363.819 -240.279 1023.33 190 197 216
-364.914 -240.279 1023.33 191 198 218
-363.807 -241.362 1023.3 87 91 119
-364.902 -241.363 1023.29 120 126 155
-363.446 -241.001 1023.31 105 108 136
-363.459 -239.917 1023.34 212 222 232
-364.099 -240.712 1022.06 115 119 148
-364.189 -239.917 1023.34 215 224 237
-364.553 -239.917 1023.34 216 223 238
-363.803 -241.724 1023.28 106 104 123
-365.192 -240.712 1022.06 158 166 196
-365.917 -241.073 1022.04 169 178 211
-366.009 -240.279 1023.32 196 202 225
-365.552 -241.073 1022.04 140 149 182
-365.557 -240.712 1022.06 170 178 208
-366.013 -239.918 1023.33 215 220 235
-364.447 -242.155 1022.01 167 174 199
-364.811 -242.155 1022.01 156 167 194
-363.722 -241.794 1022.03 155 156 176
-364.894 -242.085 1023.27 132 136 161
-363.799 -242.085 1023.27 157 157 175
-364.815 -241.794 1022.02 122 129 156
-363.353 -242.155 1022.02 176 178 196
-364.086 -241.794 1022.03 145 148 169
-365.171 -242.516 1022 178 197 224
-364.807 -242.516 1022 185 200 226
-365.18 -241.794 1022.02 120 128 158
-365.536 -242.516 1022 172 190 219
-364.443 -242.516 1022 181 193 217
-365.548 -241.434 1022.03 127 134 167
-365.532 -242.877 1021.99 182 203 231
-365.628 -241.724 1023.28 120 125 156
-365.544 -241.794 1022.02 125 134 167
-365.611 -243.169 1023.23 180 201 229
-365.176 -242.155 1022.01 143 157 185
-366.337 -243.53 1023.21 167 187 218
-365.163 -243.238 1021.98 157 177 208
-366.273 -241.794 1022.02 159 170 202
-366.353 -242.085 1023.26 132 143 175
-365.905 -242.155 1022.01 127 142 174
-365.896 -242.877 1021.98 173 193 224
-366.269 -242.155 1022.01 142 155 187
-364.082 -242.155 1022.02 175 182 202
-363.349 -242.516 1022.01 169 173 192
-363.43 -242.446 1023.26 164 164 182
-363.426 -242.807 1023.25 152 156 174
-363.345 -242.876 1022 162 171 191
-365.54 -242.155 1022.01 136 150 179
-365.972 -243.53 1023.22 149 169 200
-362.993 -241.794 1022.03 152 150 169
-363.467 -239.194 1023.37 196 206 216
-363.475 -238.472 1023.39 174 184 201
-363.471 -238.833 1023.38 182 191 205
-361.166 -242.154 1022.03 153 159 182
-361.53 -242.154 1022.03 161 166 187
-365.644 -240.279 1023.32 193 199 222
-365.648 -239.918 1023.33 212 219 236
-360.911 -239.193 1023.38 219 224 233
-360.064 -242.876 1022.01 127 137 161
-358.97 -242.875 1022.01 107 115 145
-365.913 -241.434 1022.03 148 154 189
-365.9 -242.516 1022 150 168 197
-366.638 -241.795 1022.02 175 184 217
-366.731 -241.002 1023.29 173 182 215
-366.633 -242.155 1022 163 177 206
-366.017 -239.556 1023.34 205 208 223
-365.652 -239.556 1023.35 212 215 230
-366.005 -240.64 1023.31 174 180 209
-366.739 -240.279 1023.32 191 198 218
-366.743 -239.918 1023.33 221 227 240
-365.292 -239.195 1023.36 196 197 217
-366.374 -240.279 1023.32 188 195 215
-365.657 -239.195 1023.36 168 167 187
-366.387 -239.195 1023.35 142 140 160
-365.296 -238.834 1023.37 193 193 217
-366.378 -239.918 1023.33 224 229 244
-366.751 -239.195 1023.35 143 141 160
-365.661 -238.834 1023.37 169 166 191
-366.382 -239.556 1023.34 195 198 212
-367.546 -240.93 1024.55 164 171 198
-367.112 -239.557 1023.34 199 201 211
-367.477 -239.557 1023.34 210 213 221
-367.465 -240.64 1023.3 168 175 202
-367.473 -239.918 1023.33 218 225 234
-366.37 -240.64 1023.31 165 171 200
-367.108 -239.918 1023.33 220 226 237
-367.104 -240.279 1023.32 193 200 219
-367.116 -239.195 1023.35 151 150 166
-366.747 -239.556 1023.34 194 195 209
-366.735 -240.64 1023.31 164 170 199
-367.838 -239.918 1023.32 217 225 232
-367.829 -240.64 1023.3 169 176 203
-367.469 -240.279 1023.31 197 204 221
-367.485 -238.834 1023.36 159 155 174
-368.203 -239.918 1023.32 214 223 227
-368.194 -240.641 1023.3 171 178 203
-360.924 -238.109 1023.41 210 211 231
-360.096 -239.988 1022.1 182 190 213
-365.288 -239.556 1023.35 215 220 235
-361.162 -242.515 1022.02 171 180 200
-362.255 -242.515 1022.01 163 170 190
-360.429 -242.876 1022.01 164 175 197
-360.425 -243.236 1022 157 171 190
-361.895 -242.154 1022.02 172 175 196
-360.793 -242.876 1022.01 183 194 214
-360.789 -243.237 1021.99 180 194 212
-360.785 -243.597 1021.98 168 184 201
-360.06 -243.236 1022 123 134 156
-360.056 -243.597 1021.99 124 135 155
-359.691 -243.597 1021.99 114 125 147
-360.133 -243.529 1023.24 108 118 142
-361.141 -244.319 1021.96 178 194 211
-360.052 -243.958 1021.97 134 145 165
-361.146 -243.958 1021.97 178 196 213
-360.048 -244.319 1021.96 146 160 178
-360.416 -243.958 1021.97 136 150 168
-360.421 -243.597 1021.98 141 155 173
-360.781 -243.958 1021.97 165 181 198
-360.773 -244.68 1021.95 150 165 181
-360.769 -245.041 1021.94 141 154 170
-361.867 -244.68 1021.94 165 182 203
-361.941 -244.975 1023.19 180 195 214
-360.777 -244.319 1021.96 156 171 187
-359.687 -243.958 1021.97 146 155 175
-361.137 -244.68 1021.95 168 182 200
-360.044 -244.68 1021.95 139 153 171
-361.871 -244.319 1021.96 174 190 213
-361.933 -245.697 1023.16 186 198 216
-360.765 -245.401 1021.92 125 135 152
-361.289 -238.109 1023.41 192 194 218
-367.834 -240.279 1023.31 198 205 220
-368.559 -240.641 1023.3 176 181 206
-359.323 -243.958 1021.98 137 145 168
-362.688 -243.53 1023.23 155 169 191
-361.572 -245.336 1023.18 162 174 192
-366.722 -241.724 1023.27 173 182 216
-365.665 -238.472 1023.38 176 177 203
-366.03 -238.472 1023.38 164 163 189
-368.928 -240.279 1023.31 197 205 218
-368.924 -240.641 1023.29 171 176 201
-368.563 -240.279 1023.31 200 208 221
-367.846 -239.195 1023.35 198 199 209
-369.654 -240.641 1023.29 147 147 159
-369.289 -240.641 1023.29 163 163 177
-369.285 -241.002 1023.28 143 141 160
-369.297 -239.918 1023.32 226 228 236
-369.662 -239.918 1023.31 227 230 235
-368.199 -240.279 1023.31 199 206 221
-369.293 -240.279 1023.3 205 206 216
-369.658 -240.279 1023.3 203 204 214
-369.281 -241.363 1023.27 137 135 155
-368.551 -241.363 1023.27 177 183 218
-368.92 -241.002 1023.28 166 171 204
-370.019 -240.641 1023.29 147 148 158
-370.838 -240.569 1024.54 205 208 212
-370.752 -240.279 1023.3 205 209 210
-370.379 -241.002 1023.28 143 142 151
-371.113 -240.641 1023.28 183 185 185
-371.199 -240.931 1024.53 175 177 178
-371.577 -239.845 1024.56 216 219 227
-370.383 -240.641 1023.29 163 163 169
-369.381 -240.207 1024.56 215 224 227
-370.023 -240.279 1023.3 205 207 215
-371.117 -240.279 1023.3 214 216 217
-371.105 -241.363 1023.26 155 155 155
-370.01 -241.363 1023.27 143 143 157
-371.474 -241.002 1023.27 179 180 178
-371.478 -240.641 1023.28 202 202 202
-368.916 -241.363 1023.27 156 162 197
-371.838 -241.002 1023.27 213 214 212
-371.942 -239.845 1024.56 211 213 224
-371.843 -240.641 1023.28 226 228 228
-359.315 -244.679 1021.95 154 169 188
-371.469 -241.363 1023.26 181 179 178
-371.482 -240.279 1023.29 227 229 230
-371.834 -241.363 1023.26 225 223 222
-371.83 -241.724 1023.24 218 214 213
-371.826 -242.085 1023.23 208 206 205
-371.096 -242.086 1023.24 120 118 117
-371.1 -241.724 1023.25 128 126 126
-372.195 -241.724 1023.24 206 201 202
-371.461 -242.085 1023.23 185 183 182
-371.457 -242.447 1023.22 186 187 183
-372.564 -241.363 1023.25 219 219 219
-371.092 -242.447 1023.23 116 117 115
-372.199 -241.363 1023.25 217 218 216
-371.088 -242.808 1023.21 118 121 119
-371.821 -242.447 1023.22 200 201 197
-371.083 -243.169 1023.2 121 126 124
-372.303 -240.207 1024.55 223 226 234
-366.265 -242.516 1021.99 139 157 186
-366.697 -243.892 1023.2 170 187 220
-367.075 -242.808 1023.23 157 173 202
-366.693 -244.253 1023.19 174 191 224
-365.603 -243.892 1023.21 147 164 197
-365.599 -244.253 1023.19 146 161 194
-367.85 -238.834 1023.36 193 190 206
-362.251 -242.876 1022 154 165 185
-361.568 -245.697 1023.17 166 176 194
-365.3 -238.472 1023.38 190 194 219
-366.395 -238.472 1023.38 187 184 210
-371.465 -241.724 1023.25 185 181 180
-365.669 -238.111 1023.39 173 177 201
-366.118 -238.036 1024.65 188 194 213
-381.497 -338.801 1024.67 117 116 125
-443.707 -313.39 1026.33 129 121 114
-443.882 -313.769 1027.58 132 123 120
-443.887 -313.408 1027.59 118 108 108
-443.898 -312.686 1027.62 218 210 211
-443.903 -312.324 1027.63 191 183 183
-443.528 -313.049 1027.61 152 144 145
-443.354 -312.671 1026.36 168 158 158
-443.523 -313.41 1027.6 114 106 107
-442.617 -313.397 1026.35 137 131 132
-442.79 -313.776 1027.6 131 126 128
-443.344 -313.068 1028.89 234 229 228
-443.17 -312.69 1027.63 228 223 222
-443.333 -313.792 1028.86 105 100 102
-443.159 -313.412 1027.61 112 105 108
-444.267 -312.322 1027.62 177 170 167
-444.261 -312.684 1027.61 211 203 203
-442.264 -312.677 1026.38 143 137 142
-441.901 -312.679 1026.39 138 134 139
-442.416 -314.5 1027.59 183 179 178
-442.243 -314.121 1026.33 181 176 175
-442.421 -314.139 1027.6 178 176 176
-442.248 -313.76 1026.35 185 180 181
-441.527 -313.403 1026.37 126 126 126
-441.89 -313.401 1026.37 138 135 137
-442.444 -313.019 1025.1 128 120 120
-441.542 -312.321 1026.41 223 220 216
-441.906 -312.319 1026.4 236 233 229
-441.163 -313.405 1026.38 123 125 125
-441.714 -312.698 1027.66 211 208 203
-441.168 -313.044 1026.39 102 104 104
-440.997 -312.667 1025.14 106 105 107
-441.345 -313.062 1027.66 121 123 123
-441.174 -312.684 1026.4 122 124 125
-440.619 -313.75 1025.11 178 179 175
-440.624 -313.39 1025.13 167 168 166
-440.794 -313.768 1026.38 181 185 180
-441.158 -313.081 1028.93 205 206 197
-440.986 -312.702 1027.68 208 209 199
-440.971 -313.786 1027.64 112 113 109
-441.163 -312.719 1028.94 235 234 224
-440.607 -313.788 1027.65 109 110 106
-440.992 -312.341 1027.69 236 236 224
-440.8 -313.407 1026.39 123 126 124
-440.815 -312.325 1026.42 213 210 205
-440.821 -311.964 1026.44 242 240 232
-442.628 -312.675 1026.38 152 145 148
-441.537 -312.681 1026.4 125 124 126
-441.516 -314.125 1026.35 174 173 169
-442.071 -313.742 1025.08 194 186 186
-442.612 -313.758 1026.34 178 172 173
-441.521 -313.764 1026.36 174 175 173
-443.534 -312.688 1027.63 223 217 218
-443.181 -312.294 1025.11 178 167 163
-440.447 -312.688 1026.42 127 126 130
-440.431 -313.77 1026.38 190 193 184
-440.255 -313.752 1025.12 188 190 184
-440.426 -314.131 1026.37 208 209 199
-440.264 -312.345 1027.7 233 232 222
-440.258 -312.706 1027.69 198 199 190
-440.243 -313.79 1027.65 106 105 101
-440.617 -313.066 1027.67 117 116 120
-440.067 -313.772 1026.39 206 207 198
-439.9 -312.347 1027.71 227 225 217
-440.429 -313.085 1028.95 190 191 182
-440.413 -314.17 1028.91 108 105 100
-440.253 -313.068 1027.68 127 124 126
-439.525 -313.072 1027.69 137 133 132
-439.53 -312.711 1027.71 189 187 179
-439.7 -313.089 1028.96 196 194 186
-439.695 -313.451 1028.95 159 154 151
-440.07 -312.725 1028.97 222 219 211
-439.515 -313.794 1027.67 132 129 121
-440.959 -313.825 1030.19 123 121 121
-440.24 -313.104 1030.23 219 217 207
-441.511 -314.485 1026.34 139 138 134
-443.312 -315.238 1028.81 139 134 133
-441.683 -314.866 1027.59 140 140 134
-443.138 -314.857 1027.56 141 134 131
-441.505 -314.846 1026.32 120 120 114
-442.769 -315.221 1027.55 108 103 100
-481.445 -335.688 1028.63 162 176 182
-481.808 -335.685 1028.62 172 191 196
-481.451 -335.327 1028.65 137 157 168
-481.231 -334.922 1027.39 143 168 178
-481.077 -336.052 1028.63 187 193 198
-481.088 -335.33 1028.66 114 132 143
-480.714 -336.055 1028.64 178 184 189
-480.512 -334.568 1027.42 97 124 138
-480.138 -335.292 1027.41 123 132 141
-480.357 -335.698 1028.66 132 139 148
-481.083 -335.691 1028.64 145 156 164
-480.351 -336.059 1028.65 170 176 181
-480.15 -334.571 1027.43 93 116 131
-480.369 -334.975 1028.69 109 128 143
-479.408 -335.659 1027.42 164 170 175
-479.402 -336.019 1027.4 192 199 202
-479.425 -334.577 1027.45 94 110 123
-479.782 -334.934 1027.43 105 117 129
-479.057 -334.941 1027.45 127 133 144
-479.051 -335.301 1027.44 161 167 174
-479.04 -336.023 1027.41 210 218 218
-478.671 -336.386 1027.41 207 209 210
-479.034 -336.383 1027.4 205 209 210
-478.695 -334.944 1027.46 161 165 176
-478.689 -335.305 1027.45 196 199 207
-479.758 -336.377 1027.38 181 189 189
-479.431 -334.216 1027.47 115 141 155
-479.414 -335.298 1027.43 136 142 149
-479.794 -334.213 1027.46 124 155 170
-478.683 -335.665 1027.44 217 224 227
-478.701 -334.583 1027.47 129 137 150
-478.707 -334.223 1027.49 115 128 142
-478.344 -334.226 1027.5 145 154 167
-478.338 -334.587 1027.48 144 147 161
-478.321 -335.668 1027.45 221 226 229
-478.315 -336.029 1027.43 202 208 207
-478.332 -334.947 1027.47 161 163 173
-479.063 -334.58 1027.46 102 113 127
-479.075 -333.859 1027.49 137 164 178
-478.718 -333.501 1027.51 156 182 196
-478.712 -333.862 1027.5 131 152 167
-479.081 -333.498 1027.5 148 182 195
-479.437 -333.856 1027.48 135 170 184
-479.22 -333.453 1026.23 137 179 192
-478.35 -333.865 1027.51 145 161 174
-478.362 -333.144 1027.53 174 196 208
-479.449 -333.135 1027.5 148 184 194
-478.724 -333.141 1027.52 156 182 194
-478.356 -333.505 1027.52 157 174 187
-479.443 -333.495 1027.49 149 191 204
-478.309 -336.39 1027.42 189 186 188
-478.303 -336.75 1027.41 166 163 165
-478.665 -336.747 1027.4 182 181 183
-479.752 -336.737 1027.37 181 189 189
-477.952 -336.032 1027.44 186 188 188
-479.045 -335.662 1027.43 196 203 206
-477.59 -336.035 1027.45 164 162 161
-477.596 -335.675 1027.47 195 193 193
-477.381 -335.27 1026.21 213 215 216
-477.941 -336.753 1027.42 154 147 150
-479.022 -337.104 1027.38 180 180 180
-478.66 -337.108 1027.39 163 161 161
-477.584 -336.396 1027.44 151 142 145
-477.239 -335.317 1027.49 179 173 178
-477.811 -336.081 1028.72 166 160 161
-477.946 -336.393 1027.43 161 156 158
-478.543 -335.714 1028.71 201 201 207
-476.877 -335.32 1027.5 161 154 157
-477.227 -336.039 1027.46 147 139 139
-478.297 -337.111 1027.4 152 146 147
-479.092 -332.777 1027.53 130 156 170
-478.011 -332.426 1027.57 164 175 189
-478.005 -332.786 1027.56 199 212 226
-478.73 -332.78 1027.54 146 167 182
-479.098 -332.416 1027.54 120 137 156
-478.227 -332.828 1028.82 205 215 225
-479.316 -332.819 1028.79 113 127 146
-477.993 -333.508 1027.53 164 178 190
-479.069 -334.22 1027.48 106 125 140
-478.875 -332.375 1026.28 134 163 177
-477.999 -333.147 1027.54 181 199 210
-479.086 -333.138 1027.51 156 186 197
-478.368 -332.783 1027.55 174 190 206
-478.566 -334.269 1028.76 170 179 192
-479.243 -332.012 1026.28 122 148 165
-479.829 -332.049 1027.53 113 132 153
-479.026 -331.612 1025.03 130 161 176
-479.611 -331.649 1026.28 117 141 159
-480.197 -331.686 1027.53 102 120 137
-479.973 -331.646 1026.27 124 153 168
-480.156 -334.21 1027.45 112 147 161
-479.817 -332.771 1027.51 130 165 178
-479.461 -332.413 1027.53 114 136 154
-478.953 -332.822 1028.8 124 136 154
-480.047 -332.451 1028.79 114 127 149
-478.379 -332.062 1027.57 114 119 140
-479.233 -337.873 1028.62 160 154 155
-52.9026 -172.651 1181.66 53 66 110
-388.053 -339.137 1024.58 172 174 175
-388.036 -340.578 1024.54 161 167 166
-388.04 -340.218 1024.55 178 183 182
-374.197 -312.145 1024.72 140 151 143
-373.544 -313.608 1025.94 112 119 114
-373.468 -312.147 1024.72 123 130 125
-516.638 -452.008 1193.99 71 105 104
-517.05 -452.419 1193.95 57 92 95
-517.356 -453.056 1195.65 52 86 86
-516.653 -451.174 1194.02 65 112 104
-360.173 -239.916 1023.36 198 208 218
149.696 -261.446 1181.69 55 117 87
-354.941 -252.275 1021.97 150 153 151
-354.937 -252.636 1021.96 170 174 169
-355.666 -252.636 1021.96 169 170 168
-355.302 -252.636 1021.96 170 173 171
-355.662 -252.997 1021.95 190 198 191
-356.035 -252.275 1021.97 123 121 121
-354.945 -251.914 1021.98 127 129 129
-355.305 -252.275 1021.97 139 140 138
-355.967 -251.972 1020.73 117 115 115
-354.878 -251.612 1020.74 118 117 119
-355.955 -253.053 1020.69 171 178 173
-356.039 -251.914 1021.98 110 107 109
-356.027 -252.997 1021.94 195 203 196
