ply
format ascii 1.0
element vertex 526
property float x
property float y
property float z
property uchar blue
property uchar green
property uchar red
end_header
1.09291 -1.07433 3.32999 131 190 182
-0.474182 -0.474845 3.3422 89 142 115
1.47367 0.269223 3.17028 91 130 109
1.44206 0.368767 3.16397 37 59 41
1.44221 0.370987 3.16141 114 139 119
0.384929 0.387492 3.28186 117 168 160
-0.717565 -0.421411 -2.7041 29 60 39
2.02713 -1.29185 3.33406 77 113 101
0.118996 -1.14397 3.32835 134 198 179
1.6122 -0.884181 3.28372 105 152 144
-0.0772447 -0.740323 3.32437 110 166 145
0.280332 -0.594007 3.31712 99 164 143
-0.232242 -0.549997 3.32055 57 105 79
0.393953 0.377523 3.27362 138 178 167
1.44197 0.370874 3.16115 116 142 124
1.44252 0.4003 3.16487 112 158 139
0.221287 0.573116 3.2711 141 210 197
1.3472 -1.46714 3.32413 135 212 191
0.28271 -1.46905 3.33285 148 217 196
0.502771 -1.42215 3.33184 117 179 155
0.547938 -1.41148 3.31568 62 90 70
0.101261 -1.38454 3.32977 97 157 146
1.23738 -1.38229 3.34387 81 110 107
1.34879 -1.29799 3.32339 101 129 136
2.0266 -1.29075 3.32677 76 94 81
0.10445 -1.26794 3.32 85 127 116
0.205758 -1.25991 3.31348 76 116 98
0.538494 -1.24924 3.32807 93 144 116
1.19295 -1.20506 3.33251 163 223 212
0.139494 -1.17344 3.31656 66 93 77
1.11105 -1.10542 3.32335 92 114 109
0.566681 -1.09528 3.31411 114 165 158
1.10842 -1.07018 3.32416 122 176 171
0.341003 -0.995782 3.32017 71 130 110
1.01973 -0.975321 3.30447 96 121 111
1.44435 -0.863345 3.30362 68 134 129
-0.224605 -0.851295 3.32925 86 118 99
0.34089 -0.817407 3.31103 70 121 101
0.63306 -0.814676 3.30757 77 131 118
0.510931 -0.774393 3.31033 100 144 131
-0.136595 -0.692803 3.31845 90 168 121
-0.292279 -0.684311 3.32975 74 127 100
0.39286 -0.663991 3.31595 160 240 209
0.181605 -0.642312 3.3203 99 144 117
-0.229406 -0.632963 3.32412 57 106 86
-1.13196 -0.624197 3.37191 156 195 193
-1.47121 -0.527666 3.38964 127 156 160
-1.10495 -0.494386 3.37257 105 139 133
-0.386066 -0.479753 3.33041 84 148 126
0.396962 -0.474249 3.30641 90 118 105
0.400432 -0.476272 3.30529 105 150 124
-0.392448 -0.477308 3.34222 88 152 133
0.33979 -0.445117 3.30316 89 127 121
0.417453 -0.430194 3.31313 118 211 172
-0.276029 -0.419223 3.32775 62 121 100
0.405356 -0.401511 3.29944 73 122 102
0.361395 -0.345679 3.30819 82 121 119
0.817197 -0.17231 3.27317 76 122 129
1.95691 0.0377377 3.21054 99 129 124
0.758325 0.11162 3.2567 94 148 141
-0.862699 0.148854 3.3738 164 217 208
1.56003 0.166027 3.16807 157 222 201
1.55355 0.312031 3.12958 59 81 69
0.39722 0.335937 3.27377 90 142 132
1.5403 0.325924 3.11948 149 200 180
1.44101 0.366242 3.1595 41 70 47
0.400544 0.394246 3.27703 123 151 138
1.49583 0.379095 3.13378 94 118 100
-0.965972 0.409884 3.38004 168 222 223
1.44225 0.392016 3.16984 107 158 131
0.385698 0.43978 3.27673 125 147 135
0.4027 0.457878 3.26841 101 137 123
0.353811 0.519105 3.26828 145 197 190
0.336881 0.537762 3.27477 87 121 111
0.224337 0.566212 3.27118 76 121 112
0.280912 0.599597 3.26207 64 106 99
1.63311 -1.4315 3.32929 83 108 104
0.537253 -1.41002 3.32336 114 169 152
1.23574 -1.38195 3.34096 86 117 114
0.495965 -1.34718 3.32713 128 153 139
1.0801 -1.34675 3.34366 50 87 67
1.21424 -1.31858 3.32868 98 113 116
1.64894 -1.30423 3.32658 105 136 137
0.315482 -1.29491 3.33253 115 145 126
1.35265 -1.29554 3.33892 156 189 185
0.615294 -1.28433 3.32408 85 125 100
0.0679907 -1.27996 3.33217 77 118 103
-0.00539889 -1.24211 3.32646 103 158 139
1.2228 -1.20867 3.32756 148 200 193
0.0679166 -1.20282 3.32864 145 205 175
1.20898 -1.17298 3.32934 101 132 135
0.115887 -1.14399 3.33114 159 210 196
0.477611 -1.14015 3.32253 136 206 183
0.540312 -1.14163 3.32344 113 179 150
1.13259 -1.10537 3.30558 93 117 105
0.508526 -1.10676 3.31672 83 144 130
0.53148 -1.0275 3.32188 74 132 108
0.34116 -0.995778 3.32253 70 130 112
1.0678 -0.988594 3.3052 185 224 209
1.5792 -0.946702 3.30038 71 92 94
-0.351554 -0.956988 3.34826 93 126 112
1.08032 -0.941651 3.31692 116 147 132
1.14337 -0.929216 3.29474 88 123 113
2.07777 -0.869976 3.29274 59 121 103
1.44435 -0.863345 3.30362 68 134 129
-0.550134 -0.842085 3.34698 97 157 147
0.361173 -0.774259 3.31719 64 106 75
0.328872 -0.765514 3.31912 78 114 90
0.349064 -0.744317 3.31601 64 111 95
2.06625 -0.719248 3.28145 74 88 86
-0.0966333 -0.720847 3.3296 100 146 133
-0.190061 -0.702849 3.32969 80 121 100
0.672033 -0.677259 3.29721 101 155 142
-0.199098 -0.635311 3.32291 67 110 83
-0.229736 -0.553164 3.31743 59 116 78
1.20682 -0.543261 3.27329 141 207 182
-0.34711 -0.519616 3.33288 75 124 108
-0.0241289 -0.505734 3.31951 74 110 94
-0.0773869 -0.489322 3.31631 73 110 94
0.396589 -0.474309 3.306 80 110 99
0.424349 -0.407032 3.30173 187 228 221
0.403242 -0.40113 3.30137 84 135 115
1.70148 -0.382316 3.25202 71 103 98
1.87079 -0.38011 3.2449 95 109 108
-1.09806 -0.333067 3.36826 93 136 125
-0.385793 -0.286729 3.33583 87 132 106
0.871497 -0.251197 3.26558 107 138 141
1.50908 0.0395554 3.23014 108 111 132
1.09906 0.0531115 3.24527 78 130 130
1.70276 0.0556482 3.21943 96 105 119
1.50139 0.0648915 3.21991 96 144 146
1.23738 0.0694193 3.2372 88 140 133
-0.853222 0.130528 3.36613 154 199 190
-1.06264 0.173704 3.39175 163 198 201
1.55635 0.165961 3.16616 136 200 181
1.56369 0.174765 3.16812 44 55 53
-0.878624 0.192669 3.37725 127 189 171
-0.819596 0.221767 3.36324 105 151 145
1.50757 0.218456 3.1821 108 158 140
-1.02803 0.235159 3.37593 85 103 96
1.49251 0.257893 3.15062 145 204 160
0.417514 0.327114 3.27474 122 181 167
-1.03546 0.350575 3.37803 82 121 113
0.399356 0.353098 3.28293 88 109 101
1.52067 0.365008 3.11108 155 205 175
-0.505271 0.400103 3.33436 108 150 133
-0.966432 0.410627 3.38182 173 225 225
0.384141 0.401296 3.28086 154 208 201
0.356415 0.415834 3.27767 86 112 98
-0.550104 0.451177 3.34225 128 182 169
0.38018 0.439483 3.27578 108 134 121
0.343265 0.452192 3.28494 98 152 135
0.40195 0.458598 3.27 105 140 126
0.35814 0.471715 3.27393 80 117 113
0.391235 0.484326 3.26509 144 199 190
1.49516 0.470553 3.12754 57 89 65
0.281835 -1.46807 3.33391 135 200 178
0.285115 -1.44796 3.31982 77 108 87
0.50575 -1.44176 3.32788 120 182 164
1.31567 -1.44574 3.33883 62 78 84
0.306712 -1.43359 3.33008 123 186 170
1.63311 -1.43167 3.33067 84 103 100
0.0636645 -1.41851 3.33343 103 146 133
0.504016 -1.42265 3.3358 132 191 163
1.27576 -1.39962 3.30822 97 131 125
0.537578 -1.40023 3.32868 77 129 99
1.85084 -1.39441 3.33466 105 136 133
0.0944017 -1.38275 3.33366 76 131 116
0.287232 -1.3672 3.32833 60 88 75
0.461982 -1.37421 3.33381 140 199 171
1.25729 -1.36662 3.32622 28 46 47
0.435571 -1.35311 3.33 74 103 80
0.421501 -1.33309 3.32857 114 183 162
1.37727 -1.33001 3.32386 130 183 173
1.0136 -1.32418 3.3353 86 124 112
1.01871 -1.326 3.35408 89 144 127
0.268939 -1.29352 3.30544 67 90 76
-0.144096 -1.30476 3.34267 93 148 131
0.388695 -1.27911 3.32648 127 187 177
1.35796 -1.28599 3.33883 122 160 164
0.0687363 -1.27989 3.32973 66 109 94
1.13362 -1.27207 3.32992 76 123 120
0.398129 -1.26452 3.32757 126 179 166
0.570855 -1.26074 3.3159 91 160 127
0.266992 -1.25086 3.31463 56 75 56
0.411343 -1.23933 3.30226 130 179 171
0.696102 -1.24818 3.32232 130 194 172
0.220869 -1.24573 3.32438 144 205 185
0.560623 -1.22116 3.31617 36 70 46
1.66229 -1.19439 3.31368 98 150 140
1.19322 -1.19724 3.31736 93 133 122
0.142084 -1.17473 3.32368 71 97 79
0.10358 -1.15306 3.32603 163 219 208
1.62169 -1.14179 3.30588 113 150 140
0.144897 -1.13923 3.32473 59 98 82
1.32893 -1.10705 3.31159 71 108 106
0.161412 -1.10517 3.32759 82 133 125
0.466698 -1.08281 3.31473 134 205 188
0.527773 -1.02739 3.31736 84 140 117
1.76059 -1.0185 3.31153 110 157 155
-0.426304 -1.00167 3.33512 92 152 141
0.141453 -0.988167 3.33049 82 135 122
1.57373 -0.953862 3.30523 88 105 102
-0.35045 -0.957075 3.34189 98 112 100
1.07216 -0.929469 3.30953 55 74 57
1.00481 -0.920416 3.31313 54 99 83
1.01884 -0.898823 3.31245 37 99 85
-0.18048 -0.861516 3.33746 101 159 130
1.51085 -0.85097 3.29131 90 118 118
-0.29158 -0.851676 3.33263 73 112 91
0.49412 -0.838813 3.31658 80 113 98
1.63711 -0.822877 3.27454 156 218 206
1.66621 -0.824807 3.27418 78 134 129
-1.26568 -0.840447 3.36497 106 141 127
1.5703 -0.814749 3.29821 98 127 131
0.25211 -0.810057 3.3142 90 122 103
0.366039 -0.778507 3.32411 64 114 80
0.366594 -0.778092 3.33031 74 116 85
0.328846 -0.765524 3.31898 74 108 84
-0.162431 -0.696434 3.3284 81 127 115
-0.12736 -0.695362 3.32057 63 123 92
1.20954 -0.664564 3.29434 70 109 107
1.75822 -0.63892 3.27258 102 118 124
-1.26303 -0.649496 3.37069 112 146 140
-0.115746 -0.625111 3.31287 52 100 72
-0.259461 -0.604841 3.32617 73 115 97
0.414117 -0.601269 3.30838 60 121 95
-1.17329 -0.544062 3.38362 176 222 216
-1.09828 -0.49474 3.37356 90 114 112
-0.0768483 -0.48904 3.31819 84 126 109
-1.36717 -0.421339 3.38737 118 129 133
0.423583 -0.407105 3.30127 171 223 216
-1.14176 -0.40223 3.38123 95 131 125
0.460095 -0.39349 3.31504 90 160 137
1.97125 -0.388969 3.24726 122 158 158
0.28778 -0.363414 3.31205 90 130 119
0.385548 -0.355773 3.29632 79 114 100
-1.10249 -0.359753 3.38315 90 114 106
-0.0809146 -0.346309 3.31106 88 148 124
1.99888 -0.340238 3.23987 107 135 136
1.74813 -0.321553 3.24725 104 137 146
1.79084 -0.280622 3.2449 180 216 224
-0.282101 -0.266802 3.3256 79 128 106
1.81997 -0.23774 3.23753 101 127 134
1.69401 -0.227454 3.23414 114 139 129
0.753396 -0.217348 3.27703 111 157 158
1.71151 -0.197076 3.23268 177 221 215
0.718889 -0.175248 3.27305 108 150 139
1.35563 -0.175107 3.24843 91 128 124
1.75734 -0.172585 3.23213 91 142 135
0.72454 -0.172418 3.28584 108 145 135
0.909287 -0.159714 3.26409 92 142 132
1.5042 -0.123453 3.23094 88 99 107
0.740255 -0.107115 3.26609 108 158 148
0.305336 -0.093394 3.30322 86 125 110
1.99157 -0.0562968 3.21362 178 219 211
1.57112 -0.0402265 3.22929 91 127 133
1.38128 -0.026133 3.23015 55 70 73
1.65541 -0.0121106 3.2299 91 122 131
0.399895 -0.0130821 3.29673 87 132 116
1.72482 -0.00600719 3.21527 93 119 133
1.35701 0.0102941 3.24671 74 106 101
-0.192198 0.0179 3.32003 78 144 133
1.28721 0.0283758 3.22557 92 115 117
1.9585 0.035826 3.20334 85 97 97
0.675353 0.0509802 3.26529 60 107 98
-0.241901 0.060553 3.32667 100 154 137
1.50292 0.0663571 3.22431 96 147 149
1.48377 0.0887786 3.21722 100 144 143
-1.0036 0.114357 3.35967 128 193 177
1.57003 0.11232 3.20704 83 95 99
-0.911306 0.124943 3.37426 93 112 109
-1.01163 0.135925 3.38559 92 112 100
-0.956215 0.138013 3.37609 92 118 112
-1.0098 0.163044 3.37608 153 197 191
-0.946164 0.164546 3.36594 73 94 86
-1.08275 0.169872 3.40496 84 107 102
-1.06309 0.174372 3.39369 163 198 201
-1.03543 0.184564 3.38463 150 188 190
-0.735488 0.194839 3.36521 97 144 136
-1.07228 0.213665 3.39681 103 134 133
1.44913 0.219766 3.20248 55 85 74
1.92003 0.214259 3.16026 158 228 188
-1.05928 0.238145 3.38361 94 107 105
-0.776193 0.251648 3.36831 85 134 120
1.52334 0.241551 3.14028 47 61 55
1.51173 0.242707 3.14897 39 46 41
1.54627 0.251769 3.13497 151 206 191
1.47625 0.263746 3.17348 39 54 50
-0.449098 0.287198 3.31669 114 166 136
-0.449703 0.289677 3.32309 96 142 120
1.44762 0.289155 3.18534 58 75 71
0.426975 0.305248 3.27432 84 115 94
-0.929956 0.316491 3.36643 215 244 249
-0.744335 0.321742 3.35656 100 134 128
1.52756 0.306098 3.1183 121 168 152
-0.451221 0.340924 3.33199 129 189 158
0.39953 0.350261 3.27487 76 97 88
-0.787141 0.366828 3.36283 108 142 135
-0.992804 0.374909 3.37805 98 125 116
0.593447 0.34135 3.08401 60 68 58
1.42581 0.349814 3.14287 145 224 180
0.384616 0.382413 3.29571 128 182 175
1.43858 0.362721 3.1729 150 223 183
1.51859 0.360981 3.10199 148 204 183
-1.04479 0.402922 3.38571 88 122 121
-0.922826 0.401492 3.36591 79 112 105
-0.504162 0.399249 3.33236 113 153 135
0.830002 0.361817 2.95924 63 76 60
0.792038 0.379792 2.97809 53 71 54
0.352932 0.420326 3.28558 77 107 96
1.44751 0.408241 3.15889 39 51 39
1.61238 0.402323 3.04666 108 197 177
-0.543152 0.445044 3.33409 70 117 101
0.343473 0.448977 3.2777 82 130 112
1.4684 0.432929 3.15387 85 129 106
0.352992 0.456798 3.2715 136 198 182
1.47119 0.450153 3.15138 158 233 205
0.35709 0.471493 3.27341 83 124 119
1.3761 0.45694 3.15506 88 139 125
1.49774 0.458065 3.1276 118 176 135
1.49661 0.471143 3.12882 45 64 45
0.235565 0.556366 3.27614 83 119 102
-0.688599 0.584172 3.34722 108 164 145
0.32231 0.578269 3.26656 163 227 208
0.498132 -1.44345 3.30884 102 143 135
0.242098 -1.44744 3.32209 71 143 130
0.285458 -1.44838 3.32287 79 112 91
0.466523 -1.45012 3.35454 56 74 57
0.338047 -1.42952 3.33122 69 95 81
0.516614 -1.42162 3.32568 58 87 64
1.62035 -1.42961 3.33251 107 121 119
1.07009 -1.4065 3.31099 49 64 66
1.35485 -1.41045 3.32699 79 85 98
1.24948 -1.39024 3.31962 57 76 73
1.93404 -1.39338 3.3292 68 93 89
1.15086 -1.37779 3.35551 77 116 108
0.28552 -1.3679 3.33465 61 88 78
1.00031 -1.36414 3.31542 49 88 67
1.96196 -1.35728 3.33634 89 120 121
0.485853 -1.34161 3.32092 88 111 96
1.00856 -1.32254 3.31836 84 120 106
1.24699 -1.34298 3.33632 144 208 189
1.3183 -1.33365 3.32291 75 96 94
1.07223 -1.33602 3.34743 71 114 99
0.205262 -1.314 3.31093 150 210 200
1.0108 -1.32363 3.32977 96 132 120
0.533068 -1.30758 3.31832 79 123 106
1.63455 -1.3035 3.32127 121 162 157
0.169513 -1.3013 3.32651 90 136 117
0.509705 -1.29612 3.32097 107 161 138
1.33179 -1.30077 3.33409 74 88 82
0.19375 -1.28097 3.29525 72 105 84
0.973056 -1.29463 3.32841 192 229 227
0.25483 -1.27974 3.31348 127 186 178
2.03398 -1.28913 3.32866 77 94 81
0.0692002 -1.27991 3.32765 87 126 111
1.66768 -1.28345 3.32576 107 147 142
1.21496 -1.27241 3.32611 55 69 65
0.447118 -1.26521 3.32195 120 151 142
0.718576 -1.2625 3.3153 57 78 56
0.978494 -1.26326 3.32898 84 141 126
0.685811 -1.2483 3.32028 134 199 174
0.737261 -1.25453 3.31235 118 187 166
0.792711 -1.24213 3.3126 124 173 151
0.528415 -1.23821 3.33754 114 164 140
0.701641 -1.23371 3.31454 75 118 97
1.32927 -1.24184 3.3268 81 110 107
1.8744 -1.23768 3.32466 120 157 155
0.64669 -1.2311 3.32066 75 140 125
0.608504 -1.21996 3.30751 90 156 144
0.289736 -1.20958 3.33122 65 96 81
0.329219 -1.20124 3.31898 99 161 143
0.356818 -1.20961 3.34657 55 84 68
1.19439 -1.19745 3.32093 94 129 119
0.0796934 -1.19068 3.3206 70 96 80
0.323882 -1.19591 3.3504 118 198 185
0.40993 -1.19555 3.32248 70 84 72
0.418225 -1.17999 3.31285 140 190 180
-0.165987 -1.16993 3.33209 96 139 130
0.63742 -1.15122 3.31899 62 132 119
1.79603 -1.14799 3.32696 58 95 85
1.8009 -1.14824 3.31034 71 92 84
0.131594 -1.14487 3.33513 52 82 69
1.35765 -1.13533 3.3221 61 96 92
0.412548 -1.12248 3.31414 65 110 93
1.82178 -1.11769 3.32278 92 135 126
1.32696 -1.10646 3.32095 70 107 105
0.485104 -1.08304 3.31506 63 89 76
0.263828 -1.07173 3.28378 78 114 98
1.0991 -1.08219 3.32728 77 100 95
1.19453 -1.05918 3.30035 96 134 122
1.14051 -1.06691 3.33431 69 77 76
1.20921 -1.05993 3.34193 80 94 92
1.76088 -1.01851 3.31105 114 161 159
0.0106697 -0.998072 3.32016 134 180 157
0.139722 -0.992782 3.33995 81 141 123
1.06096 -0.96579 3.30486 69 79 63
1.57436 -0.952607 3.29903 86 103 100
1.6368 -0.942143 3.27924 82 127 124
1.0656 -0.928678 3.30829 64 82 65
1.09495 -0.92807 3.3074 98 141 128
1.68301 -0.928688 3.2956 78 96 103
1.14347 -0.9219 3.31373 91 125 119
0.272323 -0.900645 3.32064 108 157 135
1.01453 -0.882046 3.31485 79 126 118
1.50565 -0.850097 3.28874 107 144 142
0.513191 -0.853673 3.31526 201 235 234
1.58593 -0.824827 3.27354 74 100 94
0.310092 -0.79658 3.31195 133 207 177
1.6199 -0.786368 3.29144 83 115 110
1.1245 -0.666084 3.29724 78 129 122
1.38339 -0.65342 3.2778 87 126 118
-1.38084 -0.657834 3.37947 113 154 147
1.36486 -0.636632 3.29083 68 101 94
-0.200916 -0.617846 3.32085 67 116 88
0.405953 -0.602341 3.30184 70 116 97
1.1773 -0.55125 3.28297 66 102 96
1.64724 -0.489331 3.26967 92 135 126
1.95474 -0.484752 3.25744 104 142 136
-0.481664 -0.471724 3.33432 113 159 136
-1.34019 -0.473257 3.4004 111 145 139
1.42346 -0.452751 3.27218 75 109 102
-1.43548 -0.462191 3.38925 123 160 156
1.73834 -0.440528 3.26271 95 142 140
-1.31568 -0.440523 3.38623 104 141 133
0.388882 -0.425419 3.29285 58 79 54
1.80716 -0.418816 3.25199 90 120 121
-1.36673 -0.421054 3.38454 115 127 131
1.69533 -0.379389 3.25177 88 124 118
1.86835 -0.380179 3.24831 91 105 104
0.433184 -0.373232 3.29269 99 134 120
0.375161 -0.352205 3.29397 84 121 111
1.83528 -0.344336 3.24495 76 89 91
-1.09455 -0.331408 3.37069 91 135 122
1.94806 -0.322628 3.24432 85 112 116
1.77073 -0.316113 3.25583 152 207 210
1.79239 -0.316175 3.24683 85 102 115
1.73962 -0.310789 3.24247 98 126 133
1.80785 -0.294756 3.24582 144 184 196
1.4972 -0.285976 3.25301 74 80 79
1.87828 -0.285291 3.24419 77 86 90
1.05647 -0.272835 3.27317 106 161 152
1.79922 -0.268558 3.22323 99 105 116
0.794848 -0.24041 3.27026 82 116 115
1.1447 -0.239263 3.27598 84 108 100
1.76828 -0.238905 3.23914 70 86 92
1.81687 -0.238655 3.23359 96 122 128
0.751143 -0.239753 3.26798 159 212 203
1.71102 -0.197188 3.23222 173 218 215
1.78881 -0.178495 3.21256 126 140 158
1.94444 -0.172488 3.2293 103 143 138
1.95382 -0.146659 3.22878 120 147 143
1.55303 -0.120333 3.22621 122 159 155
1.4646 -0.101274 3.24146 109 127 134
1.76875 -0.0961891 3.22993 120 161 164
1.11493 -0.0601313 3.25351 72 135 126
1.13179 -0.0388738 3.25071 63 113 101
1.54481 -0.0382288 3.21014 148 212 207
1.41116 -0.0129165 3.25162 55 90 86
0.388824 -0.012604 3.29113 85 122 106
1.50835 -0.0123209 3.2198 78 110 116
1.65989 -0.0090247 3.23996 93 128 132
1.65985 -0.0108061 3.23427 99 125 131
1.72668 -0.00514508 3.21808 88 116 127
1.45095 0.000690981 3.22918 78 113 117
1.35666 0.0128578 3.25478 127 178 171
1.35284 0.00724557 3.23691 89 117 111
1.37844 0.0129157 3.21859 59 73 69
1.40619 0.0152347 3.22949 80 103 105
1.55216 0.0212447 3.21052 84 92 99
1.50802 0.0371536 3.22888 85 102 111
1.30148 0.0446245 3.24125 71 81 88
1.11715 0.0659436 3.23753 100 130 135
1.4698 0.0635874 3.22557 71 99 106
-1.04396 0.0872886 3.38261 87 107 102
-1.0013 0.0885799 3.38294 89 119 108
1.29787 0.0840159 3.24429 103 138 141
1.58546 0.101257 3.1925 201 232 233
-1.03518 0.143219 3.37863 222 246 252
-1.18763 0.151888 3.39968 99 128 119
-0.87517 0.154421 3.3646 133 194 184
-1.07044 0.159893 3.39883 100 116 109
-1.0693 0.176218 3.38854 162 197 200
-0.821092 0.187439 3.36053 96 137 130
-0.862257 0.191608 3.36918 71 91 72
-0.983494 0.202887 3.38432 84 106 94
-1.04298 0.222187 3.39229 185 217 222
1.47769 0.209995 3.19257 153 207 172
-1.06038 0.23933 3.43976 182 222 240
-1.06309 0.241878 3.39379 94 107 105
1.36506 0.229764 3.19807 83 110 106
1.56892 0.224245 3.11657 67 88 79
-1.1063 0.25451 3.39653 119 163 157
1.51461 0.243723 3.15161 37 47 41
1.57583 0.229637 3.1303 66 88 76
1.42723 0.258293 3.20094 79 96 92
0.705346 0.261295 3.0705 36 49 35
1.42385 0.268704 3.13504 66 96 85
-0.451723 0.289242 3.32071 99 145 122
0.455278 0.283238 3.27063 108 132 124
-0.81256 0.303215 3.38477 157 205 199
1.44045 0.283754 3.17223 62 87 73
0.409897 0.303156 3.27275 140 184 177
0.428297 0.303785 3.27071 89 117 97
0.470055 0.313243 3.27572 123 179 168
-0.527617 0.331062 3.33223 102 144 126
0.402758 0.323935 3.27231 121 176 173
1.50329 0.306155 3.13349 155 214 193
0.402153 0.344913 3.27372 102 127 117
-0.822886 0.358532 3.3675 192 230 235
-0.786558 0.364889 3.35804 114 151 141
1.42486 0.354326 3.15022 113 191 150
0.589133 0.354004 3.04041 142 196 167
-0.958297 0.415967 3.37253 104 125 122
0.376409 0.400848 3.27567 152 214 208
1.44206 0.380391 3.14438 116 164 136
0.352103 0.416518 3.27677 102 128 114
1.68456 0.380614 2.99716 69 101 90
1.45376 0.412844 3.17258 50 62 50
-0.543949 0.444923 3.33722 70 117 101
0.801849 0.3937 2.97122 158 208 176
1.48421 0.454206 3.12575 132 209 171
0.31619 0.520511 3.2655 92 122 111
-0.239652 -0.602688 -1.29809 124 177 134
-0.240424 -0.602611 -1.29851 109 159 119
