ply
format ascii 1.0
element vertex 1254
property float x
property float y
property float z
property uchar blue
property uchar green
property uchar red
end_header
0.907642 -0.651212 3.83514 105 150 163
-1.23868 -0.612722 3.61668 102 131 122
-1.20658 -0.612017 3.62123 92 137 128
-1.07001 -0.614514 3.63124 127 181 168
0.464921 -0.636317 3.78602 153 180 200
1.48847 -0.650344 3.87639 122 171 163
-1.07638 -0.606039 3.6281 136 176 164
0.0977143 -0.625912 3.74501 128 160 166
-0.28308 -0.61777 3.71563 80 142 130
0.172115 -0.62603 3.75059 97 143 144
-1.20671 -0.601575 3.62713 91 135 129
0.181908 -0.622042 3.75742 132 182 182
-1.17399 -0.599327 3.62629 73 129 116
-1.0917 -0.598416 3.61867 201 228 225
-0.403488 -0.611673 3.699 159 196 194
-0.086594 -0.61532 3.7289 185 235 225
-1.40265 -0.591937 3.60473 105 156 149
-0.269769 -0.611031 3.71766 169 229 211
0.0196805 -0.612291 3.74238 85 115 110
1.4677 -0.636197 3.87955 106 151 142
-0.510407 -0.602922 3.68866 177 203 197
-1.35084 -0.589182 3.6133 131 165 158
-1.08582 -0.589233 3.62444 215 239 239
0.0245244 -0.609295 3.73699 188 231 218
-1.38765 -0.584506 3.61156 202 244 237
-1.34339 -0.584005 3.61256 116 154 148
-0.350544 -0.601468 3.7097 79 102 104
0.414412 -0.613864 3.78136 141 176 180
-0.238685 -0.60129 3.72209 71 124 114
0.131031 -0.604993 3.74929 93 127 117
-1.04217 -0.585957 3.63499 163 207 194
-0.924334 -0.586037 3.64517 99 156 153
0.0195137 -0.601949 3.74407 154 187 180
0.413307 -0.609813 3.78097 112 146 146
-1.69985 -0.571084 3.5715 174 211 209
-1.55953 -0.574227 3.58807 109 141 140
-1.41579 -0.576241 3.60274 108 133 129
-0.350884 -0.595157 3.70686 167 209 216
0.455251 -0.606371 3.78533 106 135 140
-1.3261 -0.578934 3.61534 172 229 214
-0.43296 -0.591638 3.69488 83 123 118
0.139584 -0.601001 3.75277 172 233 223
-1.4113 -0.574297 3.60586 162 189 185
-1.23549 -0.576649 3.61823 172 225 212
0.55214 -0.606799 3.80421 122 167 181
-0.263798 -0.590245 3.72308 66 102 90
-0.189776 -0.591932 3.72566 185 226 221
-0.483818 -0.585658 3.69832 120 137 133
0.0205422 -0.591323 3.74011 84 113 104
0.386037 -0.599788 3.78038 135 177 182
0.456514 -0.600223 3.78407 156 204 206
-1.39341 -0.56721 3.60389 159 194 184
-0.49612 -0.583545 3.70052 194 227 223
-0.250693 -0.586457 3.71672 169 211 204
-0.130634 -0.58873 3.72837 75 111 105
0.187535 -0.591098 3.75351 191 243 236
0.678494 -0.600167 3.81253 174 228 223
0.731617 -0.596779 3.82011 114 168 168
1.53464 -0.611299 3.89949 103 156 146
-0.468365 -0.576639 3.70432 124 140 139
0.246214 -0.586253 3.76215 148 197 189
-2.09636 -0.551048 3.55411 110 150 155
-0.484161 -0.574246 3.69805 87 94 87
-0.287822 -0.570683 3.69217 97 118 120
-0.141595 -0.577593 3.72605 92 125 118
-0.432476 -0.571503 3.70216 98 152 152
0.103589 -0.579973 3.74705 193 232 224
0.159957 -0.577943 3.74989 99 159 153
0.244279 -0.578068 3.76824 126 163 167
0.161258 -0.576675 3.76098 89 151 151
0.396098 -0.577356 3.78024 197 220 216
-1.48597 -0.547319 3.59942 100 157 148
0.0257694 -0.567128 3.73728 105 132 129
0.234322 -0.574328 3.7714 131 181 181
-1.35591 -0.547441 3.61639 169 232 223
-0.470072 -0.560128 3.6972 170 204 194
0.245524 -0.570999 3.7666 209 241 240
0.476651 -0.574394 3.78548 128 172 179
-0.474025 -0.560157 3.69801 197 231 221
-0.44961 -0.559214 3.70355 174 211 209
-0.108457 -0.563117 3.72429 183 229 217
-0.0820198 -0.563316 3.73213 96 133 129
-0.197606 -0.560185 3.73272 133 170 168
-1.51462 -0.537663 3.5972 173 224 216
-1.49481 -0.537097 3.60105 91 134 123
0.126953 -0.559813 3.76028 105 153 141
-1.03072 -0.541143 3.64184 182 238 217
-0.206136 -0.553208 3.72966 177 221 215
-0.59765 -0.547584 3.69142 47 55 48
-1.53254 -0.529082 3.59263 150 196 197
-0.0790204 -0.551398 3.73271 108 140 135
0.0806454 -0.554577 3.75053 143 177 170
0.15779 -0.555159 3.76712 151 196 200
0.539357 -0.560666 3.79848 137 172 182
0.0751506 -0.54884 3.74382 128 170 163
1.43237 -0.567421 3.89005 124 184 174
-1.23711 -0.525816 3.6304 182 239 218
0.0592872 -0.545106 3.74721 116 163 154
0.085508 -0.543258 3.7477 99 133 127
0.632542 -0.553732 3.81205 71 132 128
-1.49038 -0.518953 3.60236 60 107 99
-0.100197 -0.539431 3.72677 101 133 128
-0.46084 -0.531507 3.70491 169 202 205
-0.0918496 -0.536841 3.73525 80 94 93
-0.035065 -0.536095 3.74441 129 166 158
0.100427 -0.53751 3.75687 159 195 189
-0.467323 -0.528191 3.7047 91 123 129
0.334482 -0.538748 3.77512 140 174 173
-1.94844 -0.505932 3.56325 175 214 206
-1.15483 -0.518289 3.64188 90 157 142
-1.21461 -0.514471 3.63039 90 149 135
-0.589146 -0.524387 3.69213 132 152 147
-0.415992 -0.524617 3.70512 82 108 108
0.0888309 -0.529273 3.75039 116 155 147
-1.91899 -0.501032 3.5673 92 124 119
-1.32518 -0.507232 3.62461 82 129 120
-0.100162 -0.521447 3.73138 145 184 182
-0.0131466 -0.524685 3.74417 92 136 129
0.0329379 -0.526199 3.75566 103 149 143
0.308614 -0.52763 3.77786 116 150 149
-1.57335 -0.497918 3.59315 179 226 218
-0.561372 -0.513697 3.69573 94 130 124
-1.04064 -0.50534 3.65019 93 147 134
-1.42576 -0.499101 3.61519 87 108 116
-1.37468 -0.499674 3.62137 83 119 113
0.150707 -0.520899 3.76585 193 239 233
-0.540305 -0.507351 3.69825 144 182 176
-0.60956 -0.504372 3.69065 131 145 143
0.0385577 -0.514293 3.75617 101 155 150
-1.08935 -0.495109 3.64127 135 177 166
-1.53102 -0.488508 3.59953 104 145 140
-0.178504 -0.506812 3.73851 189 216 212
-0.579474 -0.49978 3.69885 166 199 192
-1.51516 -0.484413 3.61133 77 128 121
-1.50051 -0.485408 3.60629 113 157 156
-0.478188 -0.495529 3.69171 155 193 181
-0.46672 -0.496842 3.70181 148 202 185
0.288028 -0.507711 3.78619 200 226 233
1.04971 -0.520569 3.86808 114 180 161
-0.431927 -0.496388 3.71241 48 85 77
1.27566 -0.522626 3.89716 107 161 156
-0.178787 -0.498821 3.73229 56 80 78
-1.05487 -0.484648 3.65431 89 133 127
-0.457483 -0.489321 3.69899 153 221 186
-0.432698 -0.491302 3.71175 155 194 173
1.30642 -0.517608 3.89817 125 173 174
-1.37033 -0.47766 3.62748 76 122 110
-1.23453 -0.478791 3.64043 171 236 221
-0.0223019 -0.492066 3.74187 118 152 146
-2.07627 -0.466636 3.56451 99 153 146
-1.05739 -0.479924 3.65431 143 193 183
-1.65814 -0.470419 3.59806 113 152 160
-0.424024 -0.485666 3.7101 62 72 60
-1.05677 -0.475655 3.65863 86 128 117
-1.08874 -0.471709 3.64231 144 182 160
-1.23099 -0.467764 3.64448 103 144 137
-0.616582 -0.477374 3.71093 54 68 66
-0.198392 -0.480421 3.7373 92 143 136
1.05516 -0.498995 3.87372 149 186 184
0.180767 -0.48607 3.77724 203 234 237
0.417419 -0.485893 3.8086 108 168 157
-1.29974 -0.459854 3.63973 110 166 161
-1.17157 -0.461563 3.64935 168 239 223
0.0703989 -0.475087 3.76477 91 135 134
-0.132348 -0.472383 3.75183 97 130 123
-1.77374 -0.450973 3.59274 77 114 112
0.1467 -0.473019 3.77236 164 194 205
-2.09292 -0.445197 3.56918 82 139 138
-1.96468 -0.441541 3.5736 125 154 158
0.00839995 -0.465874 3.76115 158 224 199
1.65472 -0.48781 3.93632 115 187 174
-0.0281497 -0.462754 3.75586 194 225 228
1.40214 -0.483552 3.91033 133 174 166
0.371708 -0.466998 3.80489 187 237 227
-1.50772 -0.441984 3.61482 95 130 133
-1.45549 -0.441586 3.63007 98 149 141
-0.202543 -0.456333 3.7511 114 156 161
0.578862 -0.466026 3.83127 121 170 168
1.39077 -0.476217 3.90593 164 233 200
0.108292 -0.455215 3.77794 224 247 249
-1.41294 -0.432451 3.63138 61 121 113
-1.91564 -0.424807 3.58329 99 128 135
-1.36372 -0.430228 3.63375 119 142 134
-0.871942 -0.418431 3.52329 153 203 179
0.844649 -0.459609 3.86019 152 209 200
0.108857 -0.447377 3.77674 124 145 153
0.190079 -0.447485 3.78576 187 216 220
-1.66064 -0.423874 3.60104 78 97 100
-1.26922 -0.429271 3.64832 167 213 194
-0.105691 -0.442841 3.7649 106 164 153
0.396153 -0.450492 3.80782 130 182 175
0.737412 -0.452947 3.84353 109 174 172
1.53792 -0.463641 3.93274 108 169 159
0.187749 -0.44097 3.78575 126 159 178
0.201653 -0.443019 3.78622 127 148 163
0.929859 -0.45342 3.8741 112 159 156
-1.33392 -0.423698 3.64438 53 99 87
0.3892 -0.442315 3.81291 104 158 158
-1.43788 -0.417342 3.63628 172 230 219
-0.217704 -0.431064 3.74561 89 112 104
-0.0458277 -0.432512 3.76801 124 180 175
0.257588 -0.435832 3.79748 131 172 174
0.57923 -0.439991 3.8297 139 180 175
-1.782 -0.410127 3.59537 106 126 127
-0.160755 -0.430551 3.76222 192 234 217
-0.102238 -0.430064 3.76613 93 139 127
-1.33169 -0.414897 3.6485 47 116 101
0.213347 -0.432413 3.79465 95 125 130
0.393406 -0.431762 3.81393 115 165 163
0.545375 -0.435426 3.83179 97 145 147
-1.66935 -0.405911 3.60255 54 85 82
-1.19746 -0.412125 3.65106 85 144 136
-1.79078 -0.40342 3.59695 162 199 197
-2.15664 -0.399622 3.57598 152 212 202
-1.78357 -0.40106 3.60027 91 129 123
0.260564 -0.424719 3.80082 120 156 162
0.687658 -0.429867 3.83914 99 153 148
-0.053969 -0.420695 3.76978 108 143 146
0.518581 -0.426444 3.82784 133 174 177
0.940334 -0.432176 3.87413 167 204 194
-1.33959 -0.403616 3.64651 139 206 179
-0.169793 -0.418041 3.75574 71 80 77
-0.158987 -0.415781 3.75562 197 228 229
-0.0912828 -0.417086 3.76744 117 156 154
0.939939 -0.427608 3.87553 86 110 102
-1.64402 -0.394023 3.6058 155 198 201
-0.231733 -0.408398 3.75256 88 133 124
0.972466 -0.421853 3.87244 134 191 192
0.913553 -0.419407 3.86516 72 125 112
-0.242554 -0.404311 3.74394 92 134 127
0.707379 -0.414741 3.85404 118 178 170
-1.19911 -0.390305 3.65768 84 147 131
-1.34324 -0.388474 3.6545 52 123 103
-0.593166 -0.395891 3.71828 149 203 190
-0.0300312 -0.400052 3.77839 132 160 171
0.949856 -0.411018 3.88171 188 235 232
-1.18791 -0.386573 3.66463 161 232 222
-0.2151 -0.395421 3.76223 193 235 224
-1.56251 -0.377909 3.62167 93 133 128
-1.10551 -0.381618 3.66349 133 203 180
-0.154988 -0.390776 3.76849 103 146 143
-0.0492349 -0.390175 3.776 169 215 203
-1.19992 -0.374691 3.65683 76 141 126
-1.09648 -0.375004 3.6628 156 225 192
-1.58345 -0.370636 3.62316 173 214 207
-1.32223 -0.375802 3.65968 80 142 128
-1.10838 -0.3734 3.66419 90 144 127
1.25231 -0.399225 3.90365 144 180 186
-1.53672 -0.366516 3.62905 169 221 211
-0.60044 -0.375187 3.71892 173 220 218
-0.240095 -0.379163 3.75966 180 220 209
1.81915 -0.402803 3.97474 132 188 175
-1.09798 -0.367446 3.66188 87 147 136
-1.63225 -0.360117 3.61483 86 135 133
0.583873 -0.385276 3.84719 80 103 95
-1.25824 -0.360476 3.66247 171 213 206
-1.43528 -0.357724 3.64861 65 103 91
-1.05446 -0.361661 3.6699 91 136 127
-0.267488 -0.366806 3.75585 43 70 61
0.617094 -0.375712 3.8527 70 133 124
-1.97354 -0.347125 3.59599 190 223 216
0.155422 -0.369906 3.79643 167 213 221
-1.65312 -0.348767 3.61825 74 105 106
-1.4621 -0.351341 3.64335 87 148 134
-0.244182 -0.362322 3.75862 105 142 140
0.218457 -0.367001 3.80462 99 122 124
0.828627 -0.371957 3.86342 118 175 167
-0.325227 -0.351138 3.70234 165 233 192
-0.163766 -0.357996 3.76825 139 176 172
-0.0982418 -0.356604 3.76043 104 141 139
-1.72559 -0.34167 3.61667 160 207 204
1.05932 -0.365152 3.90271 150 195 192
-1.8898 -0.333412 3.60738 122 151 155
1.71847 -0.367571 3.97641 108 171 161
0.230943 -0.350029 3.81101 92 138 139
-1.88691 -0.327426 3.60935 195 238 235
-0.253822 -0.339577 3.75472 73 96 92
-0.232821 -0.338282 3.76013 88 132 125
0.93513 -0.350451 3.89606 96 162 151
0.285467 -0.338957 3.82225 94 151 148
-1.04414 -0.322446 3.67493 158 198 197
0.224066 -0.334792 3.81897 122 164 176
-0.226056 -0.330256 3.77027 81 133 126
-0.178303 -0.329439 3.76851 86 130 123
-1.17205 -0.318545 3.67509 167 230 220
-1.79351 -0.312543 3.61837 93 140 138
-0.169142 -0.326465 3.76995 180 226 220
0.348506 -0.329681 3.82858 115 168 165
-1.11274 -0.313515 3.67244 145 182 180
-0.176281 -0.322476 3.76831 94 145 137
-0.140111 -0.322269 3.7769 81 102 94
-1.91681 -0.305378 3.60973 91 130 132
-1.16591 -0.312089 3.67402 67 134 119
-0.204713 -0.317845 3.76815 191 243 236
0.425576 -0.325235 3.83955 107 163 158
-1.54017 -0.305831 3.63898 169 216 213
0.22187 -0.32154 3.81787 117 165 166
0.499177 -0.32319 3.84557 113 169 170
-0.23219 -0.315345 3.77058 173 232 224
-0.00568422 -0.316918 3.79369 106 156 156
0.592578 -0.323117 3.85729 104 169 160
-1.20168 -0.303989 3.68169 80 141 127
-0.277076 -0.309004 3.74314 152 211 190
0.169734 -0.316259 3.81292 130 168 170
-0.245169 -0.309854 3.77236 44 67 63
-1.56876 -0.297268 3.63228 100 144 145
0.0548624 -0.310859 3.80286 102 157 154
-1.70646 -0.287145 3.6245 172 223 209
-0.997343 -0.293979 3.69338 136 198 182
-0.067892 -0.302489 3.78536 124 164 163
-1.6097 -0.286782 3.64977 124 146 141
-0.228288 -0.298712 3.77416 194 232 234
0.00694734 -0.300735 3.79624 99 142 139
-1.82284 -0.284094 3.61972 98 151 148
-1.73318 -0.28507 3.6255 185 237 230
-1.24248 -0.290263 3.68206 131 167 167
0.619105 -0.302311 3.86701 175 235 225
-1.60007 -0.282021 3.64315 173 221 215
-0.104594 -0.29281 3.78263 208 238 239
0.00979189 -0.293346 3.79807 99 142 139
-1.22983 -0.283158 3.67838 129 173 172
-0.162977 -0.28926 3.76966 186 218 217
0.417386 -0.294573 3.8432 110 166 161
-1.59644 -0.276944 3.64073 101 145 146
-1.3209 -0.279095 3.67461 92 142 130
0.683198 -0.286941 3.87412 77 143 131
0.998471 -0.285869 3.91238 117 173 168
-1.03326 -0.268471 3.69259 67 110 101
-1.13541 -0.263592 3.67505 109 150 142
0.31498 -0.277328 3.83259 99 145 146
-2.18553 -0.255525 3.59573 178 209 206
0.0996396 -0.273871 3.81227 116 167 169
0.118896 -0.273887 3.81443 87 150 154
-0.634566 -0.260892 3.73995 166 234 217
-0.617077 -0.26211 3.74714 155 217 199
0.749328 -0.271181 3.88801 117 177 169
-0.958532 -0.25641 3.70553 171 235 213
0.0247437 -0.262749 3.8108 105 153 147
-1.60137 -0.246344 3.64098 86 126 121
-1.41633 -0.248877 3.67038 107 144 140
-0.666038 -0.250006 3.73974 132 179 170
-0.635364 -0.250866 3.75142 64 128 116
-1.50856 -0.244123 3.66097 71 119 113
-1.40477 -0.245102 3.66984 80 133 120
0.271602 -0.256084 3.82739 122 175 172
-0.310445 -0.248057 3.77868 215 251 251
-1.34155 -0.238599 3.67449 102 150 138
-1.31204 -0.239191 3.68081 182 226 209
-0.00281341 -0.248174 3.80389 82 129 126
0.375793 -0.250967 3.84578 107 165 160
-1.32241 -0.237494 3.67896 91 136 119
-0.675886 -0.241779 3.73925 89 137 125
0.0973365 -0.248374 3.81882 105 168 159
0.614508 -0.248798 3.87978 166 226 215
-0.628632 -0.238706 3.75161 94 144 134
0.0428786 -0.240915 3.80897 173 233 225
0.288665 -0.239418 3.83948 123 174 176
2.12511 -0.254357 4.0419 123 183 172
-0.690699 -0.232343 3.74364 45 84 76
-0.6027 -0.233156 3.75249 109 170 166
-0.42015 -0.235721 3.77213 94 129 142
-1.11118 -0.226034 3.6943 88 112 110
0.336558 -0.236343 3.84849 104 155 157
0.141916 -0.232992 3.82557 161 219 208
0.13598 -0.23041 3.81911 104 164 158
-1.07859 -0.216531 3.68532 106 149 140
-0.43338 -0.221757 3.76983 85 131 138
-1.44338 -0.21243 3.67057 111 161 159
-1.56946 -0.208882 3.65469 181 224 221
0.640226 -0.223212 3.88234 102 164 158
-0.0475444 -0.212519 3.80766 127 173 181
-2.01086 -0.198486 3.61699 112 150 144
-1.20073 -0.203787 3.68983 84 139 124
-0.476263 -0.208127 3.76654 100 148 142
2.40425 -0.226671 4.08362 103 170 155
-1.46987 -0.200896 3.67214 85 138 128
0.109703 -0.209393 3.82687 122 172 162
0.839997 -0.214678 3.9101 112 168 157
-1.97143 -0.195466 3.61739 167 208 201
-0.570523 -0.203928 3.76269 77 150 140
0.234506 -0.207163 3.84141 109 161 161
-1.60372 -0.19437 3.65382 45 61 60
-0.680124 -0.199532 3.7491 156 213 198
-0.197817 -0.202247 3.80268 94 156 144
-0.168733 -0.202419 3.79714 189 236 233
-0.0738849 -0.203208 3.80967 82 135 138
-1.59567 -0.192903 3.65553 180 214 214
-1.48416 -0.189625 3.66338 80 120 115
0.452372 -0.202892 3.87167 108 161 152
-2.13797 -0.185808 3.60653 188 232 231
-1.37424 -0.190795 3.67583 179 206 203
-1.3037 -0.189177 3.69445 97 163 151
-0.662531 -0.192521 3.75037 84 119 115
-0.644386 -0.191863 3.75075 143 180 164
-0.629489 -0.191964 3.7532 178 230 220
0.141546 -0.195925 3.82692 127 165 169
-1.50209 -0.183464 3.66276 180 236 215
-1.90411 -0.180988 3.63061 119 163 157
-0.547292 -0.18605 3.77441 92 108 115
-0.558232 -0.185343 3.76152 66 135 124
-0.711865 -0.183594 3.74836 215 255 246
-0.0448662 -0.18626 3.81994 95 149 142
-2.10167 -0.173024 3.61293 104 141 131
-0.653694 -0.180073 3.74744 94 134 123
-2.03416 -0.171368 3.61187 180 223 220
-0.643201 -0.179538 3.7515 177 206 183
-0.0271522 -0.182242 3.82007 207 237 242
-2.07348 -0.169571 3.60577 167 201 194
-1.41954 -0.1741 3.68416 117 167 163
-1.21485 -0.17237 3.70187 173 234 220
-0.0397971 -0.177645 3.81918 66 107 102
-0.649763 -0.169639 3.74925 178 202 200
-0.621697 -0.170592 3.75985 74 99 89
1.35349 -0.177136 3.96027 117 170 160
-1.66381 -0.158929 3.6427 80 119 111
-1.56954 -0.160252 3.65275 107 150 147
-0.623137 -0.164567 3.75697 80 97 94
-0.044163 -0.168747 3.82041 64 127 117
0.351251 -0.169106 3.86033 161 234 224
1.80625 -0.177657 4.02293 91 151 140
-1.3381 -0.160295 3.69262 112 151 149
-0.221376 -0.165013 3.79698 113 147 146
-1.29384 -0.158727 3.69643 163 216 207
-1.25628 -0.158356 3.69871 183 230 227
-0.257805 -0.160808 3.79627 167 205 209
-0.180499 -0.160469 3.79539 157 198 193
-1.91114 -0.149569 3.6398 173 218 215
-1.83787 -0.149904 3.63453 192 232 227
1.23575 -0.160323 3.94948 111 177 166
-0.557957 -0.146221 3.76869 166 233 224
-0.228534 -0.147875 3.78714 73 85 87
0.636001 -0.147556 3.90182 120 176 171
-1.26885 -0.137092 3.7055 70 128 117
-0.60323 -0.140411 3.77044 166 228 216
0.14453 -0.14375 3.84381 98 152 145
-0.161782 -0.13987 3.80251 170 193 201
-0.0174875 -0.142141 3.82618 88 139 141
-1.89218 -0.130683 3.63907 133 154 156
-1.53776 -0.133002 3.66668 83 112 109
0.0998612 -0.141495 3.83971 85 152 143
-0.615109 -0.130175 3.77612 107 158 151
-1.3321 -0.126883 3.69986 168 226 215
-0.167099 -0.132759 3.80949 192 224 235
2.24816 -0.139684 4.08458 132 193 183
-1.53094 -0.124013 3.68271 106 146 151
-1.13353 -0.123172 3.7172 90 157 150
-0.0388495 -0.126062 3.82313 100 136 130
1.77183 -0.13073 4.02605 161 237 203
1.81148 -0.131396 4.03578 166 216 198
1.90971 -0.130454 4.04662 113 170 167
-1.71747 -0.114805 3.65437 204 236 231
-1.53694 -0.115718 3.67834 97 141 140
-0.511304 -0.119181 3.78663 101 159 158
-1.47518 -0.11145 3.6847 106 131 141
-1.39178 -0.112326 3.69507 86 105 120
1.93555 -0.122042 4.05458 118 168 166
2.21125 -0.123514 4.08184 140 194 181
-1.2163 -0.108513 3.71418 74 134 128
0.197426 -0.113394 3.85621 113 177 171
-0.613929 -0.108379 3.77911 90 147 144
-1.40124 -0.105215 3.695 193 231 235
-0.341135 -0.109166 3.80304 191 233 232
0.876801 -0.112211 3.93426 100 148 142
-1.39219 -0.103159 3.69896 92 107 109
-1.22599 -0.103931 3.70999 146 215 202
-1.771 -0.0985546 3.65564 96 144 146
0.0150478 -0.103758 3.83781 62 119 118
-1.89963 -0.0956865 3.64025 81 103 91
0.877155 -0.104315 3.92692 89 142 129
1.37117 -0.105353 3.97961 98 153 150
-1.95306 -0.0946207 3.63187 203 234 233
1.20167 -0.102889 3.96034 95 149 142
-1.26174 -0.0926114 3.70156 120 169 161
-0.550739 -0.0959093 3.77798 102 173 163
-0.528749 -0.0961273 3.78391 164 233 213
-0.0218259 -0.0968672 3.83482 78 107 112
-1.68896 -0.0887408 3.65855 91 143 133
-1.27573 -0.0913011 3.71161 186 239 230
0.856959 -0.0963247 3.92781 101 161 155
1.31307 -0.0952085 3.96468 111 165 158
-1.27701 -0.0871483 3.70759 103 149 143
-1.09788 -0.0849385 3.73082 186 243 235
0.183473 -0.0903041 3.86075 174 240 229
-1.58801 -0.0819137 3.68416 115 152 150
-1.44119 -0.0826363 3.6878 173 223 219
1.17366 -0.0894423 3.96298 108 170 164
-1.25107 -0.0815395 3.6942 157 188 173
-0.0178941 -0.0834917 3.84218 82 133 136
-0.477731 -0.08031 3.79281 187 231 225
-1.82417 -0.0744573 3.6374 112 148 136
-1.07287 -0.0799146 3.72794 108 168 160
-1.09696 -0.0760186 3.72824 72 118 106
-1.22856 -0.07284 3.71243 144 186 169
-0.156321 -0.075253 3.81876 106 165 167
0.305786 -0.0761319 3.861 112 164 170
-1.81161 -0.0683404 3.64021 139 169 164
-1.80792 -0.0635863 3.6449 59 72 64
-0.414832 -0.0641558 3.80412 80 137 138
-1.78503 -0.0594111 3.64969 62 86 78
-2.11002 -0.0492577 3.62144 113 166 153
-1.78474 -0.0512764 3.6638 87 111 109
-0.664915 -0.0547382 3.77586 131 182 174
-0.693295 -0.049342 3.77851 166 229 220
-1.24599 -0.0456397 3.71054 170 213 202
-0.575962 -0.0433749 3.79279 188 248 238
-0.684583 -0.041595 3.76894 90 140 130
-0.650841 -0.0401258 3.78848 69 119 109
-0.304669 -0.0401702 3.8126 145 163 170
-1.78064 -0.0370999 3.66145 191 231 226
-1.22758 -0.0368701 3.72385 78 130 123
-1.05395 -0.036535 3.72646 177 212 202
-0.699933 -0.0373928 3.77562 77 133 128
-0.0472927 -0.0393733 3.83544 185 216 209
-0.00687461 -0.0390851 3.8447 177 223 224
-1.87352 -0.0322806 3.64682 111 146 142
-1.05151 -0.0335002 3.72333 101 141 129
-0.674557 -0.033362 3.78168 107 163 152
-0.647166 -0.0348086 3.78335 149 208 193
-0.43626 -0.0317714 3.80785 116 157 160
-1.31765 -0.0304406 3.70802 81 120 118
-1.49967 -0.0276443 3.69533 165 206 209
0.442337 -0.0281471 3.89562 123 175 175
-0.0678457 -0.0289154 3.82996 100 129 133
0.265944 -0.0282298 3.87959 87 156 146
-1.73096 -0.0240457 3.6654 137 175 175
-0.191808 -0.025385 3.83021 75 124 122
0.333314 -0.0261886 3.88816 108 156 162
-1.81816 -0.0222665 3.66071 77 123 111
-1.57159 -0.0223905 3.69485 176 214 214
-1.34009 -0.0173223 3.71353 86 143 134
-1.38948 -0.01558 3.70587 153 201 195
0.166553 -0.0173334 3.87063 103 181 170
1.65963 -0.0118754 4.04363 99 174 166
-1.89521 -0.00720758 3.65927 175 219 220
0.597985 -0.00903146 3.91678 113 167 162
-1.65205 -0.00597379 3.68579 108 144 152
0.00629135 -0.00672332 3.85223 174 220 221
-0.426354 -0.00434052 3.81729 103 143 141
-0.33637 -0.00477327 3.82389 120 157 149
-1.61458 -0.00134618 3.68995 195 232 228
0.00489459 -0.00190624 3.85307 75 135 127
-1.97325 2.34098e-05 3.64792 77 111 110
-1.38029 -0.00174866 3.71153 76 121 118
0.908735 -0.0011094 3.9628 112 165 168
-0.248395 0.00474668 3.82658 103 140 136
-0.393052 0.00551364 3.82157 97 138 133
-0.308876 0.006487 3.82273 109 131 129
0.321829 0.00713205 3.89716 100 158 153
0.648718 0.00651899 3.92683 69 110 102
-1.69948 0.00871304 3.68096 89 120 121
-1.15743 0.00859052 3.72652 172 207 203
0.155535 0.0105853 3.87301 104 165 155
-0.728862 0.0127329 3.78736 75 142 133
0.684495 0.0128775 3.93541 94 150 145
-1.7185 0.0135926 3.67791 162 193 192
-0.455663 0.0146547 3.81178 83 139 126
-0.216163 0.0177463 3.8304 206 240 234
-0.14072 0.0169108 3.83296 82 105 101
-0.0282393 0.0166985 3.84832 88 130 129
0.257247 0.0166261 3.88981 89 148 144
0.652834 0.0173424 3.93589 59 96 86
-0.68315 0.0185352 3.79103 183 242 227
2.33597 0.0193116 4.12611 116 174 156
-1.50755 0.0219909 3.70825 97 160 151
0.601728 0.0223908 3.91585 90 154 154
0.96454 0.023026 3.9719 92 157 155
-0.188474 0.0236266 3.83452 178 218 213
0.0815585 0.0249449 3.86617 62 120 115
0.553767 0.0260385 3.91487 112 165 156
-1.23844 0.0252884 3.73439 119 164 161
-1.15307 0.027124 3.73342 171 202 193
-1.48922 0.0286846 3.70768 107 159 159
-1.23953 0.0258556 3.73649 132 177 174
-0.23324 0.0276531 3.82705 184 239 230
-0.147377 0.0302807 3.84102 203 232 237
0.115357 0.0309951 3.87547 188 240 230
-1.31853 0.031164 3.7247 128 162 156
-0.697827 0.0316549 3.79311 113 175 163
-1.13903 0.0314956 3.73636 83 114 105
-0.742172 0.0334843 3.78753 70 120 116
0.00882848 0.0356591 3.86264 103 160 159
1.27696 0.037018 3.99271 127 189 177
-1.15117 0.0360832 3.7371 85 137 120
0.861664 0.0376408 3.95874 96 157 153
-1.12985 0.0387023 3.73707 100 128 128
-1.42374 0.040121 3.71829 92 139 136
-1.28376 0.0418461 3.72503 107 152 143
0.0209137 0.0409367 3.86065 95 148 145
0.778916 0.0428536 3.95667 106 150 143
-1.57534 0.0415292 3.69985 164 211 203
-0.138644 0.0442674 3.83907 167 216 208
0.933512 0.0447529 3.97582 107 157 155
-1.80841 0.0419885 3.66802 111 148 146
-0.118461 0.0451761 3.84706 188 231 222
0.556607 0.0458188 3.92674 171 226 223
0.416293 0.0481398 3.90989 98 162 156
0.112224 0.0508271 3.87815 113 163 159
-2.0933 0.0500311 3.64754 144 187 176
-0.140397 0.053579 3.84794 88 140 133
-0.0714648 0.0550522 3.85222 212 251 243
0.803081 0.057652 3.95747 113 161 162
-0.0847225 0.0557052 3.84986 139 192 183
0.119707 0.057309 3.87827 204 243 245
-0.110254 0.0585422 3.8482 80 147 140
-0.164094 0.0609186 3.84787 88 117 114
-1.42972 0.0610163 3.72118 97 145 139
0.119525 0.0636662 3.88383 88 136 142
0.828846 0.0656214 3.96756 187 233 220
-1.07503 0.0678866 3.7464 157 193 187
1.71809 0.0741254 4.0671 115 180 165
-0.908386 0.0706892 3.76654 68 117 101
-0.282642 0.0717516 3.83087 103 143 141
1.72127 0.0746174 4.06825 115 171 160
-1.70183 0.0713794 3.69605 96 150 137
-2.07461 0.0725904 3.65601 140 196 185
0.533192 0.0776347 3.92311 83 144 134
-1.5093 0.0750296 3.71409 114 162 163
-1.2933 0.0749612 3.73598 149 183 176
-0.996867 0.0757135 3.76572 85 120 110
-0.63155 0.0767453 3.80901 91 156 141
-1.28043 0.0775737 3.73697 129 171 164
-0.702317 0.078223 3.79677 66 116 104
-0.552607 0.0806501 3.81914 60 125 110
0.925381 0.0843217 3.97671 91 128 132
-1.07985 0.0815335 3.75197 71 104 97
-0.697219 0.0832192 3.80039 168 224 213
-1.1735 0.0828952 3.74172 114 151 143
-0.925332 0.0823241 3.76366 130 177 168
-0.411033 0.0862297 3.81621 79 119 114
-1.34581 0.0849726 3.72134 188 233 224
-0.461541 0.089081 3.82395 59 111 104
-0.00108756 0.0905034 3.87178 169 226 218
-0.122463 0.0909332 3.85924 76 140 128
-0.451303 0.0935877 3.82919 56 88 83
0.0203428 0.0957593 3.87458 73 117 111
-0.918393 0.0959706 3.77367 188 228 226
-1.71359 0.0984877 3.69536 52 69 58
-1.88651 0.0980303 3.67871 88 136 130
-1.03683 0.099122 3.7517 117 145 139
0.284611 0.106158 3.90893 89 144 135
-1.19169 0.104037 3.74543 105 139 133
0.741334 0.109092 3.96484 204 236 235
0.0597186 0.108395 3.8848 168 214 208
0.553756 0.111213 3.94259 110 157 155
1.28957 0.117182 4.01101 110 176 164
0.249198 0.117015 3.9042 74 147 137
0.359969 0.117946 3.9152 109 156 154
0.500174 0.118399 3.93401 111 161 161
-0.710234 0.117297 3.80364 78 127 119
-0.0119161 0.119054 3.86608 180 217 221
0.335068 0.11992 3.91385 94 137 140
-0.462486 0.118932 3.83166 64 127 117
1.48308 0.124581 4.04218 99 170 160
-1.11133 0.118404 3.74141 186 230 223
-0.00654268 0.122881 3.86755 101 151 147
-0.652393 0.124306 3.81928 66 119 109
-0.20193 0.123871 3.8547 107 174 159
0.265633 0.126626 3.91201 117 185 178
0.842354 0.128508 3.97797 124 184 184
-1.54855 0.122338 3.71576 94 141 139
-0.00170756 0.125555 3.87122 185 234 226
-0.684699 0.126644 3.80725 90 157 148
0.361843 0.129415 3.91627 101 153 153
-0.814014 0.127998 3.79027 171 208 198
-0.463267 0.128916 3.83542 57 118 104
0.0194918 0.128777 3.87677 76 119 110
-1.68111 0.125729 3.69484 138 182 175
0.136218 0.133136 3.90251 194 238 237
0.388117 0.133808 3.91775 184 240 227
-0.963699 0.128729 3.77117 82 108 95
-0.675254 0.136073 3.81403 163 229 218
0.393567 0.140127 3.92391 106 159 149
1.46623 0.141696 4.0364 94 157 147
-0.568518 0.138993 3.82562 62 129 114
-0.475077 0.139118 3.83242 179 241 219
-0.905122 0.138203 3.78186 106 157 149
-0.466647 0.139397 3.83697 53 103 93
1.83082 0.150777 4.10072 111 173 155
-0.394716 0.144624 3.82942 185 226 221
-0.337578 0.143931 3.84472 130 177 169
-0.70916 0.145324 3.8132 51 133 115
0.376173 0.149625 3.92205 73 109 97
0.620291 0.150775 3.95855 111 172 176
0.954173 0.151748 3.99542 115 164 162
-1.42226 0.146317 3.73752 149 208 194
-0.971231 0.146504 3.76536 184 221 211
-0.960158 0.147587 3.77086 181 213 208
-0.559237 0.148465 3.82627 169 216 213
-1.58668 0.1458 3.71482 109 158 156
-0.746489 0.15047 3.80418 77 119 108
0.544516 0.154968 3.94116 165 218 209
1.79092 0.161739 4.09753 83 172 146
-1.1275 0.15089 3.7559 96 149 140
-0.78286 0.152463 3.79978 66 97 88
-1.28904 0.154324 3.7503 105 154 146
-0.513821 0.160811 3.83446 55 90 76
2.03312 0.171378 4.12501 104 161 136
2.4649 0.173765 4.16772 163 232 199
-0.929545 0.158861 3.77761 193 225 220
-0.722506 0.161194 3.80763 129 228 208
-0.709121 0.15978 3.81822 139 205 193
-0.697409 0.159647 3.81513 91 157 146
-1.51103 0.158111 3.71736 108 140 139
-1.24081 0.160221 3.74762 149 184 188
-0.715904 0.162473 3.81171 52 124 112
0.320845 0.167255 3.9032 169 234 218
1.02718 0.169911 4.00683 126 184 179
-0.446666 0.171108 3.84886 64 144 121
0.356328 0.174657 3.906 71 118 109
-1.85622 0.16774 3.68206 115 156 148
-1.74277 0.167 3.67371 127 157 132
-0.95918 0.172627 3.7805 100 137 133
-0.474468 0.173519 3.83873 79 137 112
1.80276 0.186156 4.1021 108 178 161
-1.09218 0.173862 3.75411 161 219 201
0.182532 0.180977 3.9125 87 147 139
-0.768662 0.17671 3.80448 115 163 157
-1.69959 0.175824 3.70551 92 121 118
1.58808 0.19166 4.07813 104 181 167
-0.462861 0.186797 3.85956 65 127 113
0.0372739 0.188764 3.90305 77 125 119
-0.949234 0.184836 3.77059 91 114 109
-0.937298 0.186595 3.78447 189 208 199
-0.334526 0.188289 3.86196 76 135 120
-0.100534 0.18982 3.88521 133 202 187
2.3601 0.204926 4.17219 199 248 234
-0.718792 0.188748 3.82007 169 227 222
-0.411007 0.188764 3.85045 60 140 117
-0.324436 0.190542 3.86253 167 234 219
0.0340495 0.195607 3.89819 82 136 143
1.37258 0.203833 4.04171 122 179 170
-0.189747 0.195601 3.87202 166 216 206
-0.660852 0.196811 3.82856 153 224 207
-0.421604 0.198323 3.85585 82 150 139
1.55169 0.208846 4.07325 84 151 136
-1.4601 0.195213 3.74518 184 232 226
2.0542 0.215774 4.13356 97 172 150
-1.34971 0.198806 3.75042 93 150 142
-1.94495 0.200069 3.69196 95 134 132
-1.69178 0.200669 3.712 80 137 129
-0.449994 0.206806 3.85191 147 197 187
0.334279 0.214347 3.9069 94 131 127
0.602848 0.218154 3.96398 87 150 141
0.166038 0.216177 3.91317 110 160 160
-1.62701 0.209585 3.7302 79 135 122
-1.20346 0.210351 3.75849 87 134 126
-1.38113 0.210985 3.74676 153 213 203
-0.0862181 0.219559 3.88847 56 116 105
-1.45137 0.213522 3.74377 173 224 216
-0.895754 0.216256 3.79483 171 219 195
-0.824182 0.215828 3.80198 80 123 112
-0.125385 0.221417 3.88797 84 157 141
0.0520655 0.222146 3.90785 85 155 148
0.447024 0.2251 3.94222 78 139 141
2.40314 0.237982 4.17656 101 158 133
-1.15943 0.216503 3.76276 163 231 206
-0.899626 0.221558 3.79984 68 107 92
-0.0549723 0.224186 3.89101 86 149 140
0.578967 0.228658 3.96497 69 150 141
-1.1621 0.219996 3.76157 76 122 110
-0.16702 0.226396 3.88373 57 100 89
0.146439 0.226733 3.91528 101 160 156
0.450829 0.229686 3.94354 161 221 221
1.48328 0.236101 4.06877 83 136 133
-0.713665 0.226174 3.82412 83 139 128
-0.627637 0.225625 3.83904 161 216 197
-0.440614 0.227755 3.84631 149 200 186
1.01671 0.236782 4.01848 96 147 143
-0.0174381 0.233029 3.89895 99 151 141
1.87559 0.245972 4.12583 74 135 121
0.134095 0.237074 3.91686 89 143 144
0.901289 0.244224 4.00496 111 168 159
0.903747 0.243911 4.00627 115 175 165
-1.52233 0.229666 3.74205 88 128 126
-0.986173 0.232381 3.78435 181 224 213
-0.87573 0.233616 3.80124 183 223 221
-0.348307 0.236997 3.86895 63 133 120
1.48524 0.249894 4.07059 112 169 160
1.69667 0.252013 4.10483 122 183 173
0.405275 0.243752 3.94165 99 153 160
-0.166916 0.241488 3.88439 62 124 112
1.37556 0.251596 4.05163 120 171 164
-0.259253 0.244841 3.87581 179 228 212
0.213024 0.247174 3.92693 133 182 184
-1.45644 0.240133 3.74585 170 225 206
-0.885454 0.242622 3.81003 105 155 145
-0.634899 0.248384 3.8332 170 213 202
1.86893 0.267453 4.13022 79 135 116
-0.720988 0.250682 3.82663 79 126 117
-0.636931 0.25457 3.8381 86 136 124
1.82319 0.272557 4.12654 70 127 102
-1.57623 0.248187 3.73785 85 137 137
0.113018 0.260424 3.92189 86 135 133
0.475574 0.261324 3.96186 163 221 226
1.49528 0.269444 4.07915 120 177 174
-1.9785 0.246837 3.69022 127 157 152
1.71035 0.275439 4.11265 104 154 142
2.45954 0.279573 4.1986 104 156 139
-1.88406 0.254113 3.70704 96 135 133
-0.962985 0.258974 3.79827 177 214 204
1.62406 0.281494 4.09691 93 160 145
1.78137 0.283296 4.12265 183 245 229
2.04961 0.285929 4.14718 121 174 160
-1.0522 0.262192 3.77372 173 224 204
-0.323968 0.268141 3.87198 83 145 133
0.588211 0.275218 3.97708 95 159 153
1.63538 0.283086 4.10147 125 173 167
2.05242 0.286641 4.15342 121 174 160
-1.85578 0.259897 3.7107 102 136 129
-1.73942 0.26039 3.72279 98 158 150
1.67672 0.287447 4.1088 159 231 208
-1.92959 0.26054 3.7035 188 235 219
-1.88417 0.260483 3.70786 191 228 220
-1.25167 0.265411 3.76813 177 213 207
-1.07594 0.265605 3.77234 178 212 211
-0.281566 0.272833 3.87913 188 245 230
0.503071 0.281136 3.96498 121 178 175
1.89696 0.293163 4.13672 119 171 153
-1.9382 0.264578 3.70049 96 141 132
-1.23964 0.269778 3.77426 87 115 115
1.60199 0.291822 4.09304 108 174 163
-1.32657 0.270777 3.76869 65 111 98
-0.386174 0.280618 3.87298 89 146 138
0.620941 0.287216 3.98464 110 157 155
-1.9358 0.270691 3.70234 178 224 212
-0.906829 0.276823 3.79477 55 79 69
2.52699 0.308342 4.21365 129 162 141
-1.23229 0.27914 3.77169 109 142 135
-0.678358 0.282439 3.83711 87 137 127
1.16882 0.297962 4.04019 86 160 148
-1.23715 0.28167 3.7792 80 113 106
0.376876 0.291905 3.94114 158 214 201
1.75488 0.306356 4.12546 89 152 136
-1.07304 0.281163 3.77886 185 227 220
1.64938 0.306775 4.10502 97 148 134
-1.54633 0.282077 3.75039 183 239 226
-0.817761 0.285934 3.81729 113 155 154
0.279857 0.298195 3.94477 182 232 232
1.88385 0.313128 4.14233 139 190 170
-1.78688 0.284397 3.72323 166 232 213
-1.20728 0.288915 3.77698 104 135 128
0.409822 0.301774 3.95742 103 161 166
-1.77806 0.288206 3.72437 80 133 124
0.229111 0.310279 3.94552 85 126 121
1.90352 0.324712 4.14658 75 130 111
-0.660719 0.305173 3.84949 182 231 215
-0.662751 0.304932 3.84147 180 223 210
0.25895 0.311542 3.9455 203 234 237
-1.08403 0.299775 3.77209 103 140 132
-0.709317 0.307577 3.84141 102 143 138
0.324577 0.313981 3.94131 110 164 165
-0.10075 0.313241 3.90619 174 240 221
-0.428882 0.311707 3.86509 182 233 226
1.87079 0.334525 4.13337 164 241 213
-1.07759 0.307698 3.78774 79 126 117
-1.62728 0.309222 3.74788 111 156 153
-1.28443 0.310346 3.76737 93 151 140
0.884287 0.333217 4.02858 101 147 148
-1.86309 0.3096 3.71454 151 197 184
0.978328 0.33703 4.03932 95 163 152
-1.75215 0.312974 3.72917 175 230 215
0.823275 0.337322 4.02018 216 252 246
1.89783 0.350874 4.14768 97 157 123
-0.847859 0.325268 3.82466 107 146 138
0.194674 0.333323 3.93137 118 144 144
-1.06347 0.32402 3.79984 118 175 166
-1.15264 0.325206 3.78585 60 80 81
-0.560208 0.333536 3.86926 96 147 139
1.65219 0.356559 4.12143 97 146 130
1.67865 0.357353 4.12638 87 141 118
-1.86643 0.324328 3.71803 180 243 204
-1.75803 0.326215 3.73236 182 218 202
-0.375502 0.339208 3.88762 80 143 134
0.766602 0.349687 4.00846 112 154 159
0.967239 0.352175 4.03928 82 129 120
0.993045 0.350963 4.03984 85 148 138
-0.383291 0.340899 3.88504 171 235 223
-0.250258 0.342371 3.90021 49 115 110
0.343901 0.348298 3.94262 131 182 175
-0.54267 0.34391 3.87455 195 238 229
-0.493703 0.343352 3.86934 85 142 133
0.336783 0.349201 3.93885 88 129 132
1.02873 0.358419 4.04249 156 222 210
1.94548 0.367035 4.15812 152 193 178
-2.05654 0.331621 3.69916 101 135 128
-0.535968 0.34623 3.86777 98 140 133
-0.105991 0.35349 3.92008 81 157 146
1.95093 0.37208 4.15902 107 138 129
1.8984 0.376407 4.1524 172 226 196
-0.87966 0.348061 3.82169 149 167 160
-0.81405 0.349308 3.83444 111 125 123
-0.44232 0.350107 3.85697 70 145 124
-0.996122 0.349149 3.80608 102 159 156
-0.824516 0.352056 3.8299 76 94 93
0.967212 0.368965 4.03616 89 144 129
-1.87917 0.341804 3.70826 112 154 143
0.477934 0.366511 3.98068 120 164 163
0.937226 0.370873 4.03637 199 244 235
-1.76575 0.348143 3.72439 75 130 113
0.411456 0.368813 3.97267 121 174 177
1.40385 0.379186 4.08514 81 163 151
1.64496 0.384812 4.11986 110 164 147
-1.76977 0.350968 3.73221 79 137 119
-1.48163 0.355271 3.76886 156 214 203
-0.972921 0.358207 3.81447 76 133 124
-0.393341 0.36781 3.89097 73 134 124
0.80869 0.381834 4.02984 131 162 161
0.0798618 0.376481 3.94011 68 127 119
1.54106 0.391991 4.11489 113 167 162
-0.691598 0.369083 3.85332 99 143 136
-0.803641 0.369064 3.82992 168 209 202
-0.71664 0.369603 3.84921 95 129 122
-0.547728 0.375742 3.87905 102 167 158
-1.84923 0.36046 3.71951 79 101 96
-0.828529 0.37181 3.82709 60 115 98
-0.567974 0.376226 3.87274 84 128 127
0.167327 0.381994 3.9492 176 223 220
-1.41412 0.369166 3.77813 109 152 149
-0.833688 0.374985 3.82364 192 236 229
-0.719653 0.376167 3.85016 189 240 233
-0.71863 0.375663 3.8487 191 236 227
1.33134 0.3963 4.07263 101 162 152
-0.708642 0.377557 3.85183 111 135 135
-1.36035 0.37243 3.78364 185 235 223
-0.682778 0.384307 3.85667 124 163 155
1.69294 0.411353 4.14138 115 167 144
-0.998541 0.382136 3.81803 80 142 126
-1.37962 0.382163 3.7884 84 140 135
-0.546609 0.391468 3.87752 181 235 230
-0.801506 0.392191 3.84447 79 121 114
-0.735758 0.394586 3.84841 95 136 128
-1.51794 0.387623 3.76454 88 121 114
0.322244 0.413194 3.96832 92 134 133
-0.858033 0.40312 3.839 186 226 221
-0.0833365 0.413117 3.9321 114 180 168
-0.542502 0.409488 3.88246 77 143 131
-1.6381 0.397207 3.7534 95 138 123
0.997428 0.428444 4.04853 94 120 107
-1.40279 0.403922 3.78142 189 233 226
-0.589077 0.414582 3.87755 102 158 159
-0.860075 0.416248 3.84157 180 230 218
0.95863 0.435237 4.02725 89 111 99
0.221224 0.430546 3.96472 114 164 160
0.111702 0.430046 3.95099 115 160 157
-1.3669 0.414447 3.78284 73 134 124
-0.87173 0.420543 3.83887 82 117 103
0.248425 0.436044 3.97429 119 168 166
-0.696109 0.426758 3.86272 161 232 212
-0.976203 0.427437 3.83297 91 131 119
0.0762404 0.441068 3.95481 83 144 134
0.549827 0.447484 4.01056 110 157 154
1.00565 0.452618 4.04186 87 123 117
-1.51808 0.423949 3.76821 170 210 199
1.20678 0.458971 4.07541 99 171 165
2.46317 0.481623 4.25605 126 178 160
-1.39661 0.430278 3.78325 85 125 120
0.744419 0.458368 4.03532 100 144 143
1.28796 0.463676 4.08466 101 169 162
-1.71864 0.43092 3.74812 179 228 214
1.25182 0.471284 4.08247 105 158 155
1.26619 0.472695 4.08525 93 162 152
-1.49739 0.438594 3.77485 129 171 164
2.33867 0.490957 4.23484 178 242 213
0.983906 0.470179 4.03876 190 239 223
-0.966707 0.448543 3.83466 177 215 203
-0.0789932 0.461711 3.94366 74 133 125
0.855637 0.472328 4.04328 108 139 142
-0.816934 0.452926 3.85869 78 136 131
-2.07278 0.439616 3.72428 179 219 208
-1.01072 0.452333 3.83415 188 222 216
0.287971 0.471874 3.9807 160 211 204
-2.02305 0.443128 3.72495 93 124 117
-1.02977 0.455378 3.82597 77 97 92
-2.07052 0.445424 3.72598 80 96 95
-1.22068 0.456354 3.80878 216 249 245
-0.0591504 0.470746 3.94489 63 130 123
0.224638 0.477384 3.97974 81 146 137
0.285549 0.478255 3.9825 105 156 149
0.598587 0.483188 4.02678 119 166 170
1.60389 0.498692 4.14712 129 188 174
-2.0668 0.448963 3.7281 145 173 173
0.326161 0.481323 3.98784 81 128 125
0.494389 0.483923 4.01641 103 160 157
0.361397 0.486077 3.99774 173 230 222
-0.438099 0.479126 3.91016 84 137 123
0.358614 0.491211 3.99814 78 125 129
2.06284 0.517008 4.20158 107 184 170
0.488671 0.496666 4.0171 119 167 173
-1.65838 0.466907 3.76603 90 118 112
-1.24329 0.473689 3.80622 62 135 119
0.281236 0.495879 3.98851 112 169 166
-1.09953 0.478199 3.82849 144 206 190
1.63781 0.518512 4.1498 118 179 169
-1.28391 0.482853 3.81064 175 225 225
-1.2104 0.486049 3.80923 163 229 217
-0.0637769 0.504635 3.95475 99 166 159
0.273393 0.508609 3.98764 119 180 176
0.288018 0.509305 3.98853 121 179 168
-0.831305 0.494628 3.86232 85 139 126
0.147274 0.509538 3.98174 169 221 214
0.544028 0.514831 4.03146 94 152 147
0.628556 0.517134 4.03559 113 176 167
-1.19547 0.491959 3.81803 38 74 60
0.150407 0.515332 3.98222 79 116 108
0.584686 0.523587 4.03229 113 167 160
1.67091 0.542683 4.1616 103 153 143
1.74903 0.546285 4.17314 117 182 167
-2.14845 0.490145 3.72638 98 135 131
-1.13892 0.501829 3.82592 65 120 105
-1.07621 0.503411 3.828 71 130 116
-0.872438 0.507564 3.85926 84 123 115
-0.884191 0.507261 3.8539 117 172 163
-1.43264 0.501334 3.79611 110 155 146
-1.35498 0.504556 3.80813 98 129 122
-1.17501 0.509606 3.82117 73 136 126
-0.377471 0.52461 3.92626 59 128 117
0.15682 0.529938 3.97717 92 139 130
0.343049 0.536331 4.00169 94 144 140
-1.27045 0.511755 3.8092 103 150 141
-0.414299 0.529087 3.91871 156 230 212
-1.07856 0.519513 3.83756 107 156 140
-0.680629 0.52648 3.88667 127 158 155
-0.608301 0.529775 3.90102 90 144 137
-1.13618 0.522971 3.83627 206 247 239
-0.825538 0.526246 3.87429 143 205 189
-0.645032 0.528826 3.89054 169 203 202
-0.659332 0.530097 3.88282 196 230 223
0.00929666 0.546401 3.97273 165 227 221
0.516727 0.553264 4.02834 201 244 241
0.456769 0.554811 4.02539 106 164 163
1.28926 0.56984 4.11045 111 164 155
0.163072 0.555414 3.9822 176 235 227
0.169765 0.556062 3.9827 93 147 147
1.04889 0.569527 4.09164 96 142 143
-0.0485393 0.554057 3.96516 186 237 230
0.465643 0.563805 4.02885 105 148 157
0.984644 0.570323 4.08555 125 175 175
-1.45602 0.533792 3.80228 87 139 129
0.144754 0.557723 3.97252 66 96 91
1.59962 0.58827 4.16676 104 161 146
-0.92512 0.545061 3.85611 103 147 140
-0.196894 0.560273 3.95311 93 142 140
-0.826254 0.55153 3.87331 161 212 198
1.59014 0.591719 4.16018 71 130 110
-0.00551739 0.570529 3.97435 93 144 140
-0.451383 0.563866 3.91538 118 158 156
0.173027 0.573278 3.98902 97 145 149
0.677435 0.584152 4.06036 69 118 120
0.628767 0.583584 4.04301 109 175 170
-1.91786 0.545388 3.76502 101 153 143
0.679787 0.586849 4.06513 74 117 120
-0.502804 0.569832 3.91615 204 235 232
-0.378195 0.571931 3.93999 49 111 105
-0.217156 0.576038 3.95412 91 157 146
-0.358141 0.572744 3.9358 43 105 99
-0.319476 0.577298 3.94792 83 146 137
-0.732731 0.566855 3.86325 199 229 216
-1.72483 0.55727 3.77177 90 127 123
-1.59664 0.559492 3.79103 85 125 120
-1.19841 0.565397 3.8329 77 134 133
-1.0272 0.568877 3.84955 162 217 208
0.343881 0.592991 4.00841 110 160 150
-0.0458996 0.588877 3.97129 100 154 147
-0.195788 0.588569 3.95898 86 127 119
-1.31841 0.571046 3.81746 180 223 214
-1.1553 0.573115 3.83624 97 155 144
0.765113 0.607979 4.06547 107 150 153
-1.2974 0.580406 3.8261 133 172 157
-0.599126 0.593216 3.90918 183 223 221
0.258223 0.60697 4.00478 177 214 204
-0.392565 0.599745 3.93541 114 165 157
0.178236 0.609584 3.9936 206 244 246
0.717898 0.620413 4.06645 95 148 139
-1.31437 0.585388 3.81003 177 233 214
1.90086 0.64761 4.21221 120 171 167
-1.23086 0.595817 3.83748 97 165 154
0.545175 0.629516 4.05153 99 156 155
1.88952 0.655193 4.2147 101 161 150
-0.478365 0.610172 3.92413 91 138 130
0.8064 0.636669 4.08327 91 135 152
1.29465 0.645123 4.13246 104 174 161
-0.167329 0.621452 3.96976 73 134 130
1.90749 0.660594 4.21678 139 199 189
-0.344681 0.619419 3.94188 69 120 113
0.539397 0.634504 4.04492 171 226 223
0.681769 0.639286 4.05955 91 123 118
1.30543 0.650551 4.13219 83 170 150
0.815262 0.647331 4.08136 93 148 157
0.442956 0.642598 4.03978 96 149 152
-1.01963 0.615946 3.85275 170 223 209
0.916191 0.653837 4.10175 108 176 165
1.07854 0.655483 4.11245 96 152 139
0.617299 0.649521 4.05876 178 228 224
0.651674 0.650417 4.06468 59 114 111
0.770637 0.653515 4.07977 187 230 227
-1.47814 0.612458 3.81082 69 120 106
0.427178 0.651228 4.03985 97 146 148
0.787003 0.657939 4.08488 181 229 230
1.90524 0.68154 4.21971 152 211 196
0.114505 0.649109 4.00242 98 158 158
0.398021 0.654201 4.0366 100 147 151
0.766913 0.664711 4.08014 177 226 218
-1.37024 0.625653 3.83452 65 108 97
-1.20696 0.629379 3.84542 69 134 118
-1.32293 0.630757 3.83992 103 146 137
-0.995198 0.633932 3.86259 90 133 124
-1.98497 0.620459 3.77561 108 149 144
0.767885 0.673327 4.0816 77 137 127
0.856108 0.679056 4.09908 99 148 146
-1.66672 0.630382 3.79097 93 138 129
-0.623079 0.650676 3.91273 92 126 120
-1.18424 0.642029 3.84794 103 153 143
0.75609 0.681859 4.08317 175 218 205
1.94705 0.705251 4.23204 130 192 180
-0.280473 0.661305 3.95915 68 128 122
-0.061887 0.667109 3.98755 117 162 165
-0.0237794 0.665343 3.98709 121 167 161
-1.20903 0.645299 3.84561 88 138 126
-1.00836 0.649074 3.86275 91 132 124
0.415317 0.677212 4.03728 90 146 147
-0.808092 0.654116 3.89684 92 120 120
-0.575311 0.660091 3.93352 109 158 150
-0.147764 0.673126 3.98038 169 220 213
1.41233 0.702942 4.15439 123 190 181
-0.944426 0.65807 3.87783 69 92 87
1.43388 0.705534 4.162 86 147 133
-0.972289 0.658683 3.87211 155 210 195
-0.155994 0.679193 3.98226 189 239 227
-0.00121703 0.682403 3.99456 175 222 214
-1.12522 0.660399 3.85186 75 112 104
1.73464 0.718182 4.20199 146 192 169
1.94105 0.724131 4.2348 109 178 165
1.8428 0.725289 4.223 52 122 105
-1.19666 0.662486 3.85295 150 213 197
-0.695861 0.67463 3.91404 92 151 143
-0.194542 0.684155 3.97559 85 118 114
-0.133949 0.684971 3.98274 187 224 222
0.136409 0.691155 4.01288 125 176 169
0.37964 0.69659 4.04124 95 138 135
-1.64372 0.656521 3.79638 182 197 199
-1.26899 0.664172 3.84048 104 126 121
-0.813525 0.674302 3.89673 176 229 220
-0.1937 0.689024 3.97068 184 220 214
1.84324 0.732286 4.22267 168 229 215
0.430714 0.706322 4.04584 105 153 154
1.41521 0.726411 4.16191 109 186 172
2.02812 0.741039 4.24601 92 161 151
-1.60898 0.668191 3.81677 70 88 87
-0.190081 0.69327 3.96833 80 116 110
0.277137 0.705618 4.02823 119 171 171
-0.0776012 0.704281 3.9917 84 126 125
0.202492 0.71089 4.02661 185 220 216
-1.61005 0.675256 3.81629 176 208 203
-0.443933 0.699067 3.95283 60 121 111
1.83798 0.750727 4.23033 53 131 120
2.01143 0.75244 4.24801 112 178 167
2.19067 0.757989 4.2795 115 177 161
-0.23494 0.708952 3.97061 127 171 170
1.9423 0.756918 4.23866 150 226 214
-0.522561 0.707955 3.93332 92 119 109
-0.791094 0.705959 3.90675 84 129 120
1.3329 0.749524 4.15615 90 167 153
1.86052 0.764977 4.23267 83 152 141
-1.67275 0.688306 3.79327 143 204 178
-0.975739 0.700858 3.87441 176 228 221
-0.116501 0.722763 3.99383 83 146 137
2.25902 0.776939 4.28368 177 239 209
-0.145166 0.725676 3.98678 85 135 131
-1.32271 0.7024 3.84688 189 217 211
-0.296818 0.725608 3.97333 56 116 115
1.98589 0.774231 4.24784 100 154 147
-1.07714 0.710464 3.87313 112 154 147
0.980297 0.75589 4.13128 111 172 162
-0.454096 0.724582 3.95384 178 234 229
-0.149251 0.730206 3.9878 138 191 181
-0.279618 0.733807 3.97438 76 132 127
0.798624 0.759023 4.10939 108 148 146
-1.63982 0.708606 3.81569 83 123 112
-1.07821 0.719158 3.87686 107 174 165
-0.256604 0.738818 3.98201 108 162 163
0.324568 0.749483 4.03989 190 228 228
-1.28545 0.720832 3.85798 170 212 205
-1.18411 0.719961 3.86413 172 221 213
0.784438 0.768995 4.11041 72 123 115
0.866273 0.769333 4.11862 186 240 235
0.531959 0.764105 4.07779 115 161 168
2.03513 0.795243 4.23853 85 116 113
-0.305535 0.748327 3.97559 190 234 233
-0.132607 0.752534 3.99808 76 146 139
2.0657 0.800236 4.25704 149 208 180
-0.970994 0.730881 3.88077 76 127 119
-0.447407 0.744947 3.95399 94 148 141
0.338626 0.760603 4.04087 91 129 133
0.560604 0.768382 4.07866 131 173 180
-1.01803 0.731428 3.87014 177 217 215
-0.07438 0.757152 4.00589 105 155 161
0.864679 0.779568 4.12283 78 135 134
1.98462 0.800485 4.24306 102 160 149
-0.0364946 0.761925 4.00379 89 125 131
0.0840721 0.765237 4.0147 187 234 231
0.911286 0.786686 4.13159 101 175 163
-0.17676 0.763138 3.99425 108 149 151
0.790196 0.785121 4.10992 174 218 211
-1.10946 0.742064 3.87504 98 167 152
-0.914467 0.746952 3.89322 98 130 129
0.494136 0.782035 4.07478 98 155 154
0.714413 0.788464 4.10368 220 241 249
-1.59592 0.736103 3.82864 154 192 180
0.250113 0.775409 4.03815 133 168 172
0.623145 0.787527 4.09325 88 108 125
2.12768 0.824364 4.27729 155 200 183
-1.59135 0.740542 3.83326 71 105 98
0.0323371 0.773599 4.00679 195 232 228
0.604332 0.791086 4.091 109 152 155
1.65197 0.814806 4.20558 151 207 186
0.556504 0.793953 4.08412 109 158 160
1.9895 0.825275 4.24796 98 158 157
0.46635 0.793915 4.0732 91 131 129
0.803782 0.805718 4.12482 82 131 129
-0.840731 0.767422 3.92437 93 135 128
0.322902 0.791177 4.04698 95 139 138
0.863909 0.806889 4.12593 70 127 129
1.03509 0.80779 4.13471 98 139 131
-0.505809 0.778682 3.9658 89 132 129
0.0222643 0.788521 4.01213 108 169 165
0.599999 0.803313 4.09125 124 152 163
1.57384 0.823452 4.18793 148 222 188
-1.24824 0.762688 3.873 177 229 222
0.615506 0.80653 4.08859 167 211 212
-0.506045 0.785707 3.9569 85 145 134
0.00674468 0.795839 4.00847 118 169 162
2.12853 0.849891 4.28716 160 215 182
-0.776265 0.782352 3.93423 123 174 166
0.116728 0.800674 4.02682 178 216 220
0.320162 0.805366 4.04753 79 114 117
2.0971 0.849153 4.26669 174 225 197
-0.265973 0.794287 3.98776 64 114 102
-0.217529 0.795572 3.99034 107 132 136
-0.0386613 0.800196 4.00973 185 239 234
-0.641071 0.790226 3.94812 90 148 147
0.0746148 0.808085 4.01883 71 112 107
0.0829471 0.810076 4.02635 66 102 96
0.412117 0.818062 4.07054 105 151 152
0.443447 0.821398 4.0791 95 143 145
0.680437 0.828377 4.11344 206 243 241
-0.447464 0.801419 3.96861 97 146 138
0.66705 0.830748 4.10648 96 131 135
0.585312 0.825054 4.06426 84 140 135
0.781839 0.836266 4.12048 106 137 140
0.838619 0.841114 4.13631 77 108 105
-0.0724782 0.817053 4.0064 174 226 216
0.664095 0.839704 4.10784 173 219 226
-1.61252 0.786417 3.83127 67 89 84
0.448377 0.8358 4.07728 118 158 153
