ply
format ascii 1.0
element vertex 784
property float x
property float y
property float z
property uchar blue
property uchar green
property uchar red
end_header
0.33671 -1.65144 2.55356 104 118 114
-0.0210245 -0.72727 1.08637 124 138 156
-4.14898 4.00618 -12.2318 140 156 168
0.10831 -1.00532 1.66299 133 179 173
0.150944 -0.930706 1.6869 146 175 202
-11.4668 15.8936 -37.074 151 191 180
1.55227 -2.4712 6.26753 69 114 95
3.54198 -4.85427 12.7817 138 183 167
4.09838 -5.40297 14.5004 123 200 162
1.26774 -1.97396 5.17522 150 181 180
11.3821 -13.5877 38.1268 117 158 143
0 0 0 176 220 207
-4.14448 4.00003 -12.2168 133 145 157
0.267044 -0.687351 1.29463 117 160 123
0 0 0 91 124 117
-2.72433 1.04072 -6.87182 106 147 132
0.208647 -1.44506 2.10597 87 153 118
0.245527 -1.50473 2.23291 97 147 123
0.0477625 -1.01146 1.50591 140 219 178
0.0193982 -0.939762 1.39562 170 232 208
0.0818901 -1.08441 1.65454 117 164 131
0.0896474 -1.0973 1.67867 139 201 161
-0.0156269 -0.848361 1.23998 81 149 126
0.420055 -1.76899 2.83376 87 133 114
0.0398046 -0.94338 1.44575 141 226 198
0.225957 -1.3386 2.15165 100 164 129
0.0347046 -0.925794 1.41722 134 209 188
0.389027 -1.68919 2.73824 94 138 115
0.0419896 -0.918671 1.42772 143 226 194
0.26077 -1.34607 2.25142 84 171 143
0.469052 -1.78334 3.00736 112 182 152
0.153348 -1.0973 1.83033 143 221 198
0.282649 -1.35194 2.31545 143 202 174
0.108367 -1.00532 1.66386 126 164 164
0.448473 -1.66548 2.92735 223 249 243
0.164174 -1.08991 1.85495 91 149 131
0.158516 -1.07949 1.83486 44 78 48
-0.0212354 -0.727169 1.08587 111 129 152
0.028921 -0.812538 1.29735 127 189 175
0.477337 -1.63407 3.00416 157 192 178
0.00113835 -0.754987 1.1675 87 125 155
0.251269 -1.15785 2.11762 123 185 173
0.441963 -1.40736 2.78786 133 154 152
0.437369 -1.39199 2.7645 131 145 143
0.178744 -0.955154 1.77074 115 146 137
0 0 0 154 196 185
-8.47837 12.6158 -27.129 176 209 205
0.354625 -1.14523 2.3465 114 162 156
0.0751702 -0.732742 1.23066 68 110 93
0.394508 -1.18709 2.47543 111 155 154
0.291813 -1.03263 2.08287 116 170 153
-11.384 15.881 -36.8706 104 135 128
0.0683855 -0.70659 1.16713 124 163 141
0.0506988 -0.666122 1.04927 94 164 128
0.481052 -1.22388 2.69199 125 168 147
0.9036 -1.75918 4.1602 112 169 166
1.07062 -1.96471 4.71662 101 150 134
0.585493 -1.31178 3.01287 118 144 144
0.345312 -1.00246 2.13703 101 133 109
0.709572 -1.46501 3.44315 111 153 146
2.50295 -3.717 9.46647 98 141 132
2.79356 -4.05437 10.428 180 214 204
0.316163 -0.934718 1.97456 151 205 182
3.62862 -4.96592 13.0807 143 193 175
1.05086 -1.79932 4.52616 131 162 163
4.91693 -6.32724 17.1639 69 117 89
0.913478 -1.58393 4.00193 143 186 165
5.71504 -7.16294 19.69 82 160 123
0 0 0 103 126 118
9.89519 -11.9564 33.3638 55 81 68
6.61941 -8.08581 22.5308 85 178 133
1.29569 -1.98307 5.2452 149 189 184
1.626 -2.35497 6.33477 111 154 145
0.328402 -0.859924 1.84302 84 109 95
0.163155 -0.668241 1.11454 162 234 204
5.33673 -5.82067 17.8816 150 211 185
1.02544 -1.46488 4.08214 126 163 161
3.11323 -3.4231 10.6721 89 110 108
3.24269 -3.48883 11.0458 127 156 160
0.277877 -0.740611 1.47745 81 139 114
-4.57597 3.64173 -13.1695 160 190 185
-5.58706 4.12897 -16.0185 84 111 102
0 0 0 91 121 116
-4.41922 3.07852 -12.4234 158 209 189
3.70779 -3.2493 11.8182 155 187 176
0 0 0 101 147 124
-4.34368 2.81654 -12.0591 85 126 118
-3.17551 1.94363 -8.55078 81 140 112
0.276199 -0.669794 1.21528 100 182 139
0.389962 -0.737638 1.58159 67 115 87
-4.42242 2.71305 -12.1884 139 170 179
-3.37842 1.87335 -9.02277 195 232 230
-3.91462 1.92047 -10.3597 76 125 105
-2.33945 0.90603 -5.81661 185 215 220
0.496293 -0.708441 1.59746 132 179 146
-1.88911 0.584676 -4.5026 93 144 136
-1.57883 0.459702 -3.61198 109 152 155
0.304473 -0.638162 1.0453 121 161 136
-3.64737 1.25369 -9.27437 106 138 143
-2.49572 0.754738 -6.14736 105 165 154
0 0 0 156 216 182
4.2407 -2.08675 11.4317 116 155 134
-2.77242 0.719691 -6.82142 182 203 211
-1.63419 0.27644 -3.71266 140 192 182
-1.96948 0.239762 -4.59036 103 134 131
0.242218 -0.617574 0.71489 36 61 35
-1.7028 0.132458 -3.8627 101 142 137
-0.0117548 -0.904339 1.29768 81 129 111
0.307681 -1.63505 2.43924 114 169 142
-0.0911256 -0.716404 0.942186 111 159 141
0.022118 -0.980095 1.44042 35 48 32
0.00354793 -0.917661 1.34575 87 138 124
0.22165 -1.35481 2.14189 94 156 126
0.0345929 -0.94 1.42814 95 144 122
0.343552 -1.60671 2.57963 137 200 174
0.154128 -1.18462 1.89752 75 137 113
0.14824 -1.16011 1.87821 155 214 193
0.207127 -1.261 2.07291 133 229 205
0.144978 -1.10507 1.81688 170 231 221
0.144632 -1.10093 1.81419 82 127 110
0.416183 -1.66382 2.82374 86 124 112
0.305413 -1.42112 2.40743 121 202 169
0.155989 -1.10563 1.84441 102 170 159
0.317097 -1.42912 2.44475 89 157 132
0.0738207 -0.939965 1.51983 106 176 153
0.263831 -1.29084 2.21636 108 157 135
0.108876 -1.00541 1.66605 113 148 151
0.164268 -1.08995 1.85563 91 149 131
0.0944475 -0.944934 1.5751 131 173 178
0.236287 -1.21337 2.13198 133 213 176
0.0229716 -0.810026 1.28092 122 175 165
0.160027 -1.05082 1.81491 105 176 150
0.12417 -0.977792 1.67121 112 183 167
0.134886 -0.979449 1.69864 92 161 140
0.458026 -1.56906 2.92173 105 155 143
0.524721 -1.67002 3.14895 130 178 172
0.115789 -0.913938 1.58972 133 180 178
0.521529 -1.59357 3.1031 118 170 163
0.0629108 -0.803216 1.34236 90 161 134
-0.0242882 -0.64982 0.928733 105 175 145
2.7532 -5.25804 10.6993 232 249 252
0.446615 -1.41965 2.80649 160 197 193
0 0 0 170 214 227
0.375946 -1.2844 2.53101 110 154 147
0.0503655 -0.746515 1.22366 151 244 193
0 0 0 165 216 209
0 0 0 180 214 220
-10.5529 15.9954 -34.2451 85 122 120
0.0740854 -0.737264 1.23939 97 158 132
-4.9547 6.81548 -15.2979 153 204 197
0.00484385 -0.633715 0.921682 88 135 119
-5.4138 7.46799 -16.8385 173 205 210
0.358432 -1.13671 2.34448 255 255 254
0.294421 -1.03331 2.08928 95 143 125
0.523944 -1.35721 2.92678 77 113 107
0.0599977 -0.697873 1.13828 53 77 53
0.295566 -1.03086 2.08992 135 188 168
0 0 0 129 164 160
0.0637679 -0.697204 1.13959 95 133 111
0.281321 -0.990729 2.00346 87 111 103
0.0603403 -0.68806 1.11402 62 86 62
0.251879 -0.942212 1.87647 88 157 130
0 0 0 185 217 223
0.371181 -1.07823 2.28368 171 225 218
-6.27737 7.92547 -19.6407 122 170 158
0.903084 -1.75864 4.15722 122 177 174
0.323852 -0.990928 2.08153 135 194 163
0.862826 -1.70204 4.01896 120 158 152
-8.45302 10.6972 -26.876 114 152 140
1.04122 -1.91595 4.61161 113 147 136
0.677643 -1.42816 3.33378 112 148 142
2.82337 -4.13038 10.543 103 120 107
1.17693 -2.00321 5.00147 173 235 219
1.46469 -2.33458 5.9464 104 139 129
5.94423 -7.87395 20.8069 136 184 172
0.591185 -1.24247 2.9361 77 163 121
0.0871127 -0.654166 1.04809 78 78 64
0.680913 -1.33849 3.23397 98 191 160
3.7734 -5.03703 13.4807 61 84 70
3.86892 -5.10398 13.7476 136 202 167
1.82181 -2.66653 7.04337 85 131 109
1.57094 -2.35476 6.19533 132 173 168
1.01383 -1.69343 4.33721 123 146 142
0.887465 -1.54465 3.90567 110 146 130
1.02996 -1.70058 4.37811 178 199 200
1.84892 -2.65451 7.10662 194 233 225
0 0 0 113 165 147
0.927844 -1.5747 4.01601 74 110 98
3.24164 -4.23366 11.6076 171 222 194
0 0 0 164 223 202
0.997333 -1.63606 4.2251 155 213 185
0.383823 -0.925129 2.04607 120 179 151
-11.8421 12.8685 -37.3801 98 121 117
1.22704 -1.84571 4.93385 147 208 188
-8.49084 9.00517 -26.4061 104 133 130
0 0 0 184 234 222
1.54162 -2.16139 5.95871 86 107 104
7.46381 -8.4487 24.9459 251 255 251
1.39253 -1.94282 5.37618 180 228 204
-4.06874 3.90471 -11.9548 126 135 144
0.141534 -0.656536 1.06148 149 218 175
0.371331 -0.878513 1.92746 54 105 78
2.37697 -2.96341 8.5969 165 209 210
-8.87041 8.96668 -27.3352 101 148 139
0.391277 -0.892994 1.98322 86 135 113
0.164181 -0.671856 1.12837 84 133 95
1.23567 -1.7566 4.8666 135 177 166
4.1264 -4.7421 14.1759 111 145 134
3.14904 -3.68963 10.9877 69 112 103
0.42077 -0.899132 2.04012 87 157 127
10.3801 -10.9343 33.8322 96 150 121
3.18999 -3.64015 11.0196 64 99 79
0.416116 -0.886923 2.01176 79 138 107
-4.58171 4.12749 -13.4616 128 162 161
0 0 0 89 139 121
3.30995 -3.52288 11.233 176 221 212
6.89819 -6.8559 22.4667 104 132 126
7.29125 -7.09996 23.5954 95 138 127
0 0 0 90 101 98
1.24615 -1.55393 4.63882 103 147 134
5.05602 -4.8635 16.4401 102 144 137
-3.05806 2.31804 -8.46576 135 172 170
0.341486 -0.76337 1.62927 63 94 73
-3.24364 2.40753 -8.98823 110 136 136
-12.1922 9.75366 -36.2225 163 200 192
-3.51058 2.5419 -9.76192 80 87 90
0 0 0 96 113 109
4.29603 -3.88653 13.8005 70 111 103
3.00755 -2.82478 9.83042 67 117 99
1.38926 -1.52298 4.874 117 170 157
-7.28702 5.2296 -20.9243 172 232 208
0 0 0 46 87 66
0 0 0 150 200 188
-3.66147 2.37289 -10.0343 99 124 110
-3.39527 2.16853 -9.24487 95 128 114
-3.23623 2.04221 -8.75582 69 111 100
0.123013 -0.585613 0.759387 110 179 152
0 0 0 169 231 215
0 0 0 192 229 227
0.139893 -0.593986 0.809844 129 217 164
8.77407 -6.70789 26.6054 90 114 114
-3.16988 1.93874 -8.53627 80 135 108
0.276199 -0.669794 1.21528 100 182 139
-6.103 3.98997 -17.1644 107 129 124
0.136416 -0.590908 0.784995 169 244 200
0.381532 -0.730628 1.54343 118 152 121
10.0177 -7.4587 30.074 106 152 146
-4.37825 2.67415 -12.0408 130 166 172
0 0 0 171 225 218
-7.46394 4.53898 -20.877 195 236 229
-3.0082 1.56827 -7.89117 119 158 150
0 0 0 118 172 155
0.239607 -0.629273 0.987485 138 200 178
-11.9189 6.67192 -33.128 129 156 160
-7.51779 3.98203 -20.5576 121 149 156
-5.13548 2.64308 -13.868 92 112 113
0.210844 -0.613953 0.891741 65 102 76
-3.74744 1.73089 -9.85134 129 164 160
-2.31384 0.914958 -5.75711 172 210 210
0.846778 -0.880468 2.66884 147 214 193
2.3915 -1.62652 7.00161 144 177 162
-3.68542 1.56007 -9.56754 93 131 113
1.58367 -1.2257 4.72568 114 159 142
-2.9783 1.18614 -7.58135 139 176 174
-1.89971 0.653537 -4.54473 118 132 131
-2.96259 1.09198 -7.49462 182 224 217
-2.10733 0.69608 -5.11988 122 147 151
4.33764 -2.41392 12.105 127 183 160
4.98235 -2.63326 13.7079 164 219 192
-1.9286 0.58312 -4.59385 89 118 109
-1.82408 0.536342 -4.30562 93 103 103
-2.46038 0.759847 -6.0624 90 142 124
2.2504 -1.39034 6.31484 152 218 183
7.73464 -3.67252 20.8409 148 203 188
-5.19402 1.87798 -13.4424 156 177 179
-2.49572 0.754738 -6.14736 105 165 154
-1.73723 0.429871 -4.03199 104 150 137
-2.28239 0.614631 -5.53716 115 169 164
-2.50514 0.685868 -6.13124 105 133 133
1.80344 -1.15173 5.01414 106 154 136
4.07985 -2.02879 11.0382 140 186 167
0.334847 -0.644018 1.06868 151 214 194
0.580381 -0.708722 1.65493 163 209 187
0.130931 -0.580633 0.488204 25 33 23
-1.57354 0.271988 -3.54489 154 185 186
-2.62312 0.554247 -6.37451 125 160 163
-2.25657 0.408172 -5.38268 103 169 158
0.293331 -0.629033 0.886583 82 135 108
-3.44153 0.702701 -8.40042 156 202 179
0.182788 -0.599691 0.59978 147 209 187
-1.36486 0.181683 -2.93564 118 144 138
-1.62024 0.215564 -3.66981 108 141 137
-1.88186 0.224143 -4.36679 69 103 86
-1.89615 0.23005 -4.39445 63 102 87
-1.36411 0.135902 -2.93895 137 177 166
-1.71964 0.160886 -3.90714 172 219 217
-1.30865 0.102196 -2.77007 106 138 137
8.30299 -2.49582 20.7963 105 128 130
-0.970386 0.0821976 -1.7738 111 166 157
-1.99072 -0.000733546 -4.60991 116 155 147
-1.51252 -0.0587035 -3.36017 120 164 163
-1.24527 -0.0148347 -2.60799 103 136 139
-1.35487 -0.11553 -2.94052 178 219 214
-1.31359 -0.124063 -2.8268 159 217 212
0.111607 -1.18634 1.77089 90 154 125
0.354702 -1.7327 2.59278 111 162 135
-0.0225459 -0.872736 1.2528 121 155 144
0.364877 -1.73985 2.63381 102 138 124
-0.0479753 -0.798354 1.11564 98 133 123
0.263923 -1.50717 2.3097 99 148 128
0.0036425 -0.917662 1.34607 87 138 124
-0.00279044 -0.89666 1.3096 132 231 199
0.00033555 -0.906438 1.3282 74 115 107
-0.00355194 -0.896275 1.3121 131 234 203
0.0131272 -0.925731 1.37415 60 105 96
0.0125007 -0.910854 1.35694 99 160 146
0.0346256 -0.939941 1.42953 97 151 128
0.0308404 -0.919636 1.40361 60 96 84
0.148789 -1.16906 1.87982 95 140 113
0.0528943 -0.951035 1.47863 91 144 124
0.392982 -1.67085 2.76315 106 156 146
0.111874 -1.04012 1.69498 80 163 125
0.539938 -1.91358 3.24615 127 184 175
0.428349 -1.67554 2.8681 123 165 147
0.539431 -1.89671 3.24313 127 165 165
0.431455 -1.67647 2.87198 109 146 130
0.15425 -1.10385 1.83849 94 143 135
0.141025 -1.07692 1.78895 74 122 94
0.0730863 -0.939869 1.51789 121 188 159
0.153278 -1.09132 1.83102 72 162 127
0.128935 -1.04761 1.7467 50 72 47
0.44741 -1.68271 2.93022 137 174 170
0.50281 -1.78817 3.11504 90 124 113
0.151914 -1.07842 1.81494 102 177 133
0.534484 -1.84299 3.22337 129 169 164
0.13824 -1.05584 1.76899 59 87 64
0.488229 -1.74362 3.06316 88 146 122
0.170239 -1.10568 1.87981 111 190 169
0.276271 -1.29613 2.25983 98 145 113
-0.00293516 -0.777941 1.19172 101 160 146
0.15995 -1.07914 1.83565 54 84 65
0.0355471 -0.850802 1.3584 112 151 135
0.145445 -1.04623 1.77588 84 139 130
0.169918 -1.08991 1.86795 178 230 220
0.174985 -1.08923 1.87942 113 189 158
0.1128 -0.976686 1.65066 66 106 101
0.178001 -1.08484 1.88419 117 177 153
0.163082 -1.04956 1.824 97 159 135
-0.0309377 -0.696183 1.01332 110 160 142
0.584497 -1.83153 3.37523 136 173 165
0.210142 -1.11869 1.98918 86 135 119
0.140082 -0.983694 1.7087 83 143 109
0.151365 -1.00139 1.75061 71 115 92
0.265525 -1.20265 2.19736 91 153 139
0.0219295 -0.766093 1.21451 91 144 117
7.39755 -13.9293 26.0833 105 129 129
-0.0195149 -0.670026 0.977806 79 139 115
-9.08696 14.9545 -28.8931 112 158 146
-8.13753 13.1577 -25.7553 83 126 111
0.0591153 -0.783552 1.30432 81 148 109
0.198973 -1.01744 1.87893 91 151 127
0.0455503 -0.758412 1.24073 90 156 121
0.0581499 -0.778995 1.29245 95 180 130
0.417761 -1.3564 2.68943 134 187 177
0.375223 -1.28331 2.52654 98 131 127
0.180063 -0.962456 1.78416 71 98 102
-6.49774 9.91428 -20.3717 174 208 208
-0.00224463 -0.659023 0.973211 143 227 193
0.0554155 -0.746644 1.22825 117 201 166
0.213827 -0.983026 1.86859 105 154 134
-10.4806 15.8478 -33.9473 95 121 121
0.251587 -1.03459 2.01005 101 150 136
-8.02129 11.9629 -25.6473 152 181 185
0.369145 -1.18865 2.43276 115 169 156
0.0958839 -0.768296 1.32217 145 228 189
0.00462227 -0.63379 0.92121 96 137 122
0.387082 -1.18613 2.46287 108 167 153
0.0750063 -0.727892 1.21982 153 221 180
0.0321236 -0.664862 1.02619 134 212 171
0 0 0 127 161 154
0.253988 -0.972674 1.924 90 164 128
0.271898 -0.997709 1.9943 199 233 222
0.0854449 -0.733764 1.24482 144 202 177
0.0720965 -0.715158 1.18827 111 160 138
0.0638961 -0.697158 1.14004 95 133 111
0.297981 -1.02003 2.07765 144 231 198
0.0605681 -0.68783 1.1152 64 87 65
0.489916 -1.27123 2.76845 105 141 129
0.304988 -1.0079 2.06989 159 228 195
0 0 0 185 217 223
0.476519 -1.24687 2.71594 214 236 241
0.0426256 -0.652009 1.00485 51 67 49
0 0 0 90 104 102
0.0648565 -0.675988 1.08533 102 157 118
0.321523 -1.02155 2.12307 90 124 94
0.371939 -1.07965 2.29053 161 214 205
-8.38791 10.9316 -26.6756 108 135 125
0.309384 -0.991731 2.05576 97 137 112
0.0282468 -0.626073 0.919185 129 189 155
0.10346 -0.707458 1.19846 150 207 186
-6.49126 8.15645 -20.3551 111 142 133
-8.42241 10.6593 -26.7889 108 146 134
1.06161 -1.94294 4.67807 152 207 192
-5.52285 6.81136 -17.1423 110 144 134
0.449686 -1.1444 2.53169 84 119 105
-7.91844 9.88506 -25.0599 168 236 205
1.12297 -2.013 4.87818 89 94 85
1.71968 -2.77386 6.88072 97 137 125
1.95385 -3.07136 7.67742 112 148 134
-8.02512 9.97082 -25.4749 138 180 173
0.55322 -1.25123 2.87109 92 146 123
1.01769 -1.85309 4.50368 117 164 162
2.95253 -4.35285 11.0186 212 240 240
0.627573 -1.34212 3.13057 146 192 186
1.06716 -1.88192 4.6421 121 173 166
1.58369 -2.53488 6.39749 104 146 129
0.059064 -0.633082 0.956089 121 195 165
2.22209 -3.33778 8.53079 165 209 203
0.140345 -0.726874 1.29222 151 218 186
1.58365 -2.50153 6.36332 63 87 69
1.46691 -2.33677 5.95603 109 145 133
2.98416 -4.23829 11.0371 195 223 223
3.86924 -5.31638 13.9009 90 132 121
2.76648 -3.94383 10.2701 179 211 210
3.89599 -5.29043 13.9803 131 202 175
1.63825 -2.49639 6.47269 95 127 110
0.729907 -1.39884 3.41536 110 190 167
0 0 0 148 192 179
0.9312 -1.61153 4.06863 107 121 119
0.971384 -1.666 4.22484 192 223 224
1.0636 -1.76101 4.51445 139 185 179
4.60745 -5.90125 16.106 61 102 74
5.17671 -6.60416 17.9909 74 128 98
0.0726874 -0.627111 0.954906 84 124 89
9.59188 -11.7062 32.4583 104 148 131
1.85521 -2.64271 7.10397 103 158 143
9.3665 -11.3591 31.6868 80 103 95
1.85501 -2.62295 7.0833 152 214 184
1.13136 -1.79111 4.67698 152 213 187
1.4568 -2.16854 5.79233 107 152 136
0.0635748 -0.614805 0.910695 92 126 120
0.459996 -1.02147 2.34087 168 229 219
1.55615 -2.26039 6.09619 97 134 118
1.88511 -2.63066 7.16964 95 138 123
0 0 0 168 215 206
0.076805 -0.622145 0.940021 122 202 165
1.02451 -1.63443 4.27487 162 223 197
4.4033 -5.40456 15.2672 96 156 125
0 0 0 119 175 164
0.383291 -0.925127 2.04356 106 173 146
0.161922 -0.689307 1.18388 62 85 63
6.25888 -7.35311 21.2251 82 131 117
0.166148 -0.685896 1.17768 159 233 207
1.48987 -2.07821 5.75166 75 94 91
0.43293 -0.94669 2.14794 125 174 160
0.465778 -0.980244 2.26833 142 184 173
2.52016 -3.12535 9.06205 89 131 120
-8.82288 8.91118 -27.1828 106 153 144
-7.39739 7.37729 -22.6277 123 173 163
2.62205 -3.17336 9.33082 143 169 169
-3.10026 2.83229 -8.84321 161 191 192
2.19692 -2.72184 7.9602 89 139 121
0 0 0 124 176 158
4.26806 -4.83213 14.5655 160 218 207
0.421373 -0.899163 2.04244 73 143 113
3.20632 -3.65494 11.0806 68 99 84
1.11483 -1.57111 4.40049 105 140 136
0.178833 -0.668284 1.1296 67 115 86
1.08898 -1.52119 4.28518 95 127 116
1.1367 -1.57317 4.44438 105 133 127
1.19918 -1.59443 4.60074 94 138 131
0.156891 -0.6432 1.02346 63 98 72
2.7537 -3.0374 9.52864 79 106 96
-3.14552 2.47427 -8.79822 110 153 150
0.34399 -0.77777 1.67282 110 181 148
2.87762 -2.94645 9.68464 148 224 192
8.53276 -7.97535 27.2613 110 135 125
0.340745 -0.770149 1.64591 110 152 134
4.8418 -4.68464 15.8092 111 149 143
-12.6566 10.7477 -38.0922 175 218 207
-3.06018 2.31844 -8.467 139 173 172
-8.13726 6.57178 -24.0343 100 120 125
10.5537 -9.34588 33.1027 111 139 133
-2.6057 1.79242 -6.9944 139 186 178
0.440232 -0.812719 1.87659 79 125 113
0 0 0 112 133 134
-3.91135 2.79702 -10.9138 168 227 199
-5.30658 3.92022 -15.2276 95 124 115
-4.14689 2.9318 -11.6517 84 107 103
-3.09728 2.09987 -8.4328 65 87 75
2.83736 -2.59313 9.19515 66 91 81
-4.9138 3.44693 -13.8668 77 88 78
0.122019 -0.588317 0.776321 62 104 81
-4.2024 2.86053 -11.7178 68 81 79
0.278497 -0.680576 1.26747 70 111 84
-3.66544 2.40397 -10.0694 146 210 188
-3.99768 2.63897 -11.062 168 212 189
0.351304 -0.720954 1.48302 150 221 188
-3.66724 2.36075 -10.071 102 137 123
3.07429 -2.63639 9.73867 162 208 216
-5.8552 3.95251 -16.5749 86 130 124
-3.3572 2.10173 -9.0895 204 250 221
0.140033 -0.593918 0.810205 132 211 160
0 0 0 149 202 199
-3.31036 1.95918 -8.88874 96 132 120
0.77495 -0.960892 2.74385 39 74 54
10.7441 -7.76525 32.1004 82 124 117
-4.36789 2.66483 -12.0099 130 166 172
0.77587 -0.953169 2.73947 54 95 74
-7.15408 4.37895 -20.0018 90 121 114
-7.42839 4.51186 -20.7732 194 235 228
-6.16861 3.67347 -17.0625 92 123 116
0.754997 -0.927564 2.6508 63 108 91
0.318778 -0.678268 1.28521 73 116 103
-2.99394 1.55571 -7.8517 120 156 150
0.140378 -0.584296 0.707579 80 136 107
-2.86513 1.43144 -7.45191 186 221 211
1.81612 -1.49093 5.65399 157 198 190
-10.2281 5.79016 -28.4394 219 241 239
0.999219 -1.01525 3.25514 140 208 173
0.831586 -0.920765 2.75341 131 202 169
-3.81105 1.85552 -10.0681 60 104 81
-2.602 1.15929 -6.60572 97 136 121
-2.24832 0.951659 -5.61891 115 146 137
-6.57353 3.27921 -17.7565 113 143 148
-2.49098 1.06653 -6.31157 180 216 216
0.620376 -0.787625 2.06617 58 107 91
0.893145 -0.916855 2.83379 166 193 184
-2.24409 0.885612 -5.54769 77 92 88
-2.52523 1.01727 -6.35972 219 244 246
0.559789 -0.755346 1.87261 84 135 115
1.0457 -0.970483 3.21362 151 227 186
-4.39021 1.90441 -11.4949 102 122 123
3.01695 -1.92917 8.71492 130 175 159
2.34298 -1.5753 6.8095 140 204 182
-1.84125 0.619994 -4.38724 72 89 85
5.68911 -3.08274 15.8151 144 212 181
-2.32477 0.794538 -5.72766 188 222 221
-1.57393 0.457834 -3.60662 145 186 189
-1.63906 0.464742 -3.7659 93 120 117
-2.45641 0.763196 -6.06058 88 133 116
-4.03485 1.40396 -10.3168 133 156 164
4.35875 -2.2608 11.9312 150 213 193
-5.13308 1.84301 -13.2714 162 183 185
2.71343 -1.56494 7.53472 84 114 103
0 0 0 72 109 93
-1.95741 0.518509 -4.64926 116 148 143
1.80172 -1.15141 5.0083 110 153 138
-1.6327 0.373335 -3.73398 115 157 150
-1.5261 0.345071 -3.42215 124 171 149
-2.01849 0.492482 -4.79614 85 112 108
-1.45797 0.314327 -3.23574 102 155 135
-3.44024 0.972338 -8.62217 120 149 140
0.532327 -0.70157 1.57385 109 161 144
-1.65654 0.339239 -3.79474 123 164 159
0.133134 -0.580164 0.505331 152 202 192
0.64275 -0.728435 1.84522 138 177 155
-1.56092 0.284684 -3.50434 201 228 232
-4.64007 1.20536 -11.5912 163 206 193
-1.57191 0.270572 -3.54077 144 175 176
-1.39679 0.230304 -3.04839 72 101 92
0.233562 -0.613039 0.748831 65 103 81
-1.59212 0.256473 -3.58703 57 74 60
-2.2494 0.408859 -5.37623 101 165 153
-1.63185 0.256235 -3.69811 93 113 108
-2.00989 0.323031 -4.71394 102 132 127
0.217715 -0.609284 0.689526 80 98 85
-4.53058 1.03083 -11.2014 75 115 103
0.157659 -0.592892 0.530188 152 194 176
0.271949 -0.624359 0.816506 77 135 107
-1.88892 0.227502 -4.3816 63 99 82
-1.47283 0.149389 -3.259 102 130 124
0.240109 -0.617571 0.707205 47 74 48
0.249255 -0.619852 0.723651 109 172 132
-1.48457 0.122911 -3.27893 87 113 113
-1.79005 0.154224 -4.10676 84 112 106
-1.57282 0.120002 -3.52126 87 114 110
-1.31766 0.111173 -2.80796 86 122 116
0.18345 -0.603661 0.561756 144 165 157
-1.59401 0.101845 -3.56222 69 114 105
-1.9108 0.114658 -4.4156 166 217 209
-1.58656 0.0735843 -3.55213 78 92 88
-1.58352 0.0705269 -3.54238 94 107 99
-1.35878 0.0708235 -2.92619 194 221 225
-1.31615 0.0654077 -2.79981 124 149 151
-1.27226 0.0581304 -2.67918 87 113 107
-0.970278 0.0819025 -1.77337 115 170 161
-1.45531 -0.00500792 -3.20432 118 149 152
-1.2504 -0.0124019 -2.617 151 186 190
-1.34162 -0.116301 -2.90134 102 148 142
0.00487582 -0.93819 1.3616 153 225 202
-0.0219849 -0.878286 1.26192 212 230 229
-0.0489139 -0.803473 1.11966 150 233 194
0.0165778 -0.957175 1.40639 157 240 215
0.333478 -1.67481 2.54367 127 174 152
-0.0493525 -0.796848 1.11032 99 131 120
0.0472045 -1.01305 1.50964 138 226 186
-0.0348653 -0.826212 1.1737 72 136 106
-0.00439849 -0.897499 1.31269 115 219 186
0.0242656 -0.958266 1.42559 134 214 177
0.0891178 -1.1101 1.69071 65 107 84
0.37322 -1.73037 2.66354 77 99 74
-0.0138929 -0.875796 1.27803 69 104 84
-0.0443187 -0.787633 1.10802 110 159 137
0.344481 -1.66569 2.58323 78 91 77
0.346484 -1.65525 2.58847 65 72 69
0.402707 -1.7732 2.77149 109 171 135
0.134117 -1.18215 1.84485 92 160 137
0.134483 -1.18265 1.84987 142 216 182
0.167109 -1.23904 1.95419 81 147 118
0.317452 -1.56004 2.49046 84 128 105
0.122401 -1.13403 1.78632 154 202 173
0.0365678 -0.92885 1.42508 132 217 185
0.057679 -0.974354 1.511 102 178 137
0.0674198 -0.983793 1.54017 93 170 119
0.310757 -1.47219 2.43788 115 164 142
0.425136 -1.73214 2.87815 133 166 152
0.0798448 -0.968948 1.55926 85 145 111
0.297756 -1.39444 2.38042 169 246 218
0.151229 -1.09087 1.82293 138 205 176
0.290119 -1.3455 2.32974 142 228 186
0.533786 -1.84291 3.22304 121 163 156
0.0336765 -0.855862 1.36278 80 107 98
0.0118943 -0.80407 1.24932 87 117 106
0.276184 -1.29603 2.25911 98 145 113
0.0438054 -0.861236 1.38954 76 111 85
-0.0363873 -0.709802 1.0351 80 102 113
0.070312 -0.898747 1.47199 94 138 121
0.0546812 -0.873844 1.4248 159 221 199
0.0320535 -0.828368 1.32377 96 131 117
0.130901 -1.00018 1.70992 92 156 127
-0.0268644 -0.707186 1.03923 72 85 71
0.162457 -1.04939 1.82158 96 154 130
0.0505106 -0.827054 1.35693 98 115 111
0.0403252 -0.796075 1.29231 109 145 133
5.66159 -10.8196 20.4028 130 171 164
7.90545 -14.8034 27.8447 128 167 165
0.255181 -1.16849 2.14442 114 179 164
0.0521584 -0.80806 1.33207 94 132 120
0.0339348 -0.761123 1.22721 98 180 145
-7.62333 12.2659 -24.1745 119 165 159
0.0574252 -0.781546 1.29845 72 137 105
0.450431 -1.43365 2.82776 95 119 111
0.484537 -1.47776 2.93865 88 107 104
0 0 0 118 146 140
0.790968 -1.88086 3.9723 116 169 160
0.366753 -1.18775 2.42545 109 156 148
0.096593 -0.770524 1.3283 154 236 201
0.15461 -0.831286 1.49604 171 240 207
0.313789 -1.08974 2.20001 120 166 153
0.212894 -0.933335 1.79325 85 132 110
0.292315 -1.04995 2.11079 103 149 137
-6.27638 8.83608 -19.8468 123 166 163
0.387082 -1.18613 2.46287 108 167 153
0.486166 -1.31928 2.81832 129 170 165
0.123555 -0.777875 1.37217 148 174 161
0.268982 -0.989426 1.97438 153 212 191
0.0287983 -0.65579 1.00125 151 245 204
0.0331651 -0.661662 1.02206 72 127 102
0.0490132 -0.681564 1.08886 153 215 191
0.316651 -1.052 2.15316 167 225 207
0.283144 -0.991753 2.00787 84 110 97
0.0477262 -0.666259 1.0467 179 233 210
0.101765 -0.732526 1.26284 67 116 96
0.129242 -0.767299 1.36717 139 215 173
0.321535 -1.03193 2.13602 164 231 210
-5.86394 7.41028 -18.2848 99 148 132
0.54982 -1.29441 2.92481 227 250 252
0 0 0 123 165 158
0.103142 -0.707282 1.19814 156 213 192
0.0892328 -0.686675 1.13148 134 169 149
0.330677 -0.988947 2.09333 82 112 93
1.05316 -1.91954 4.64257 121 157 151
1.14378 -2.03173 4.94384 77 94 81
1.94612 -3.06576 7.65729 108 146 128
-7.95777 9.85996 -25.2175 97 141 134
0.102979 -0.696814 1.17271 121 166 147
1.22523 -2.11225 5.20414 74 99 79
2.8535 -4.16821 10.6618 88 102 84
0.0792494 -0.655149 1.0372 69 85 68
1.60056 -2.52623 6.42659 73 96 82
2.04962 -3.09098 7.93388 187 225 225
2.20194 -3.22977 8.4088 64 84 79
5.39496 -7.16383 19.0317 94 131 111
0.778321 -1.47463 3.60892 66 128 98
0.730301 -1.39894 3.41551 84 166 143
0 0 0 134 174 163
0.97609 -1.66898 4.24193 176 213 211
0.67862 -1.29402 3.17473 198 226 220
0.071674 -0.618616 0.926926 91 145 122
0.391555 -0.939184 2.0786 71 103 92
1.41668 -2.10707 5.64848 205 233 233
1.01887 -1.62656 4.25886 167 224 203
1.39732 -2.05415 5.55517 157 193 193
0.403755 -0.929696 2.08308 74 86 80
0.555027 -1.08376 2.62162 78 109 106
0.660674 -1.17954 2.96139 165 230 208
2.55819 -3.15911 9.20348 95 134 126
0.42473 -0.922906 2.0933 76 119 98
4.7114 -5.37935 16.0635 100 137 121
2.70506 -3.11608 9.515 108 148 137
3.98139 -4.13632 13.3529 192 226 226
-6.61733 5.81203 -19.7437 114 152 140
1.5774 -1.89052 5.73431 71 99 79
-13.4463 11.8315 -40.9438 67 86 69
2.63888 -2.78587 8.99509 78 123 106
-5.48495 4.58789 -16.1123 177 225 219
0.335864 -0.768953 1.63469 86 143 122
0.111309 -0.599608 0.851711 142 227 189
3.65189 -3.65498 12.1425 94 121 112
4.35744 -4.21495 14.2578 118 153 149
-3.72424 2.91308 -10.5586 74 91 82
-3.05607 2.32262 -8.48462 138 175 173
-3.12153 2.33544 -8.63714 97 128 121
0.115205 -0.599025 0.850301 49 65 48
1.42183 -1.64547 5.11307 79 113 102
1.84285 -1.95793 6.37475 145 203 192
1.57265 -1.72924 5.52757 150 217 188
1.62817 -1.74381 5.63815 133 186 166
1.50708 -1.61474 5.26284 55 69 51
2.8497 -2.59443 9.24291 81 104 96
1.46561 -1.50585 4.98981 175 199 189
0.514216 -0.829005 2.0315 132 196 161
1.51516 -1.5082 5.08098 71 80 70
0 0 0 107 166 146
0.374943 -0.730421 1.54284 58 86 56
0.136225 -0.5913 0.786099 80 145 106
-2.29766 1.29983 -5.9197 105 136 129
0.573065 -0.843211 2.14468 147 205 180
0.522962 -0.809828 1.98702 168 220 210
-2.36177 1.30862 -6.09878 129 144 146
-8.7145 5.50619 -24.6393 87 92 93
0.124544 -0.579421 0.699215 141 199 175
1.08701 -1.10951 3.60788 89 129 118
1.13045 -1.13333 3.72159 92 137 128
-4.09476 2.22169 -11.0624 114 171 140
0.961969 -1.02515 3.22603 141 206 181
0 0 0 117 164 156
0.830043 -0.920618 2.74819 137 209 173
-11.5952 6.15775 -31.8312 73 104 83
0.806708 -0.88498 2.61488 169 191 197
-1.78515 0.696186 -4.27106 125 170 167
0.619119 -0.786976 2.06417 90 140 122
-1.2244 0.401177 -2.60097 117 167 165
0.620814 -0.778068 2.04096 147 218 185
0.797912 -0.848659 2.51396 139 203 184
-2.61908 0.96664 -6.59368 100 131 116
-1.93451 0.656859 -4.65525 182 218 224
2.30349 -1.48692 6.59856 74 104 93
2.81066 -1.71211 7.94403 146 203 188
0.482694 -0.700816 1.54576 107 146 120
-1.81041 0.515039 -4.27557 173 211 205
0.359618 -0.65636 1.18746 85 124 103
0.200741 -0.602187 0.73127 89 130 115
3.6196 -1.86568 9.85379 157 215 197
-2.52208 0.694864 -6.18539 108 134 134
-1.55898 0.368099 -3.52818 75 92 83
2.5122 -1.41119 6.8946 160 229 192
-1.61501 0.360439 -3.68361 101 146 137
-1.45839 0.315152 -3.23759 100 149 129
5.20535 -2.33562 13.8084 56 85 70
-1.47698 0.301555 -3.28548 57 80 66
-2.13399 0.474305 -5.10211 78 100 88
0.131989 -0.580171 0.502107 138 166 167
0 0 0 84 122 104
-1.52401 0.250778 -3.41309 56 94 82
-2.25674 0.413511 -5.39555 79 150 134
-1.55545 0.248928 -3.49774 64 81 68
-1.33219 0.207426 -2.86322 109 154 145
-2.69925 0.497124 -6.53866 196 240 234
-3.17388 0.626403 -7.76701 159 202 187
-1.37048 0.166765 -2.96972 161 193 192
0.265334 -0.623098 0.786884 61 103 78
-1.30952 0.153629 -2.7951 203 227 225
0.232069 -0.615323 0.698028 90 133 106
0.28589 -0.627552 0.829267 49 94 78
-2.57637 0.310186 -6.13445 136 195 180
-2.8689 0.275764 -6.87469 191 231 229
-1.41633 0.0472163 -3.09204 188 232 226
-1.27156 0.0579386 -2.6783 87 113 107
-1.23975 0.0566845 -2.58405 83 127 121
-1.12567 0.0359831 -2.24517 213 235 241
-1.24377 -0.0146937 -2.60722 111 149 149
-0.867047 -0.0220235 -1.44495 129 186 177
