ply
format ascii 1.0
element vertex 1272
property float x
property float y
property float z
property uchar blue
property uchar green
property uchar red
end_header
1.52194 0.174159 4.44368 100 121 112
-2.00504 0.157441 3.92042 122 157 143
-0.414554 0.165929 4.14824 106 160 147
1.46715 0.178013 4.40041 158 229 212
-0.697443 0.169755 4.10126 89 155 130
-2.19184 0.162609 3.90596 133 200 171
-0.590239 0.17414 4.1171 123 185 167
-1.01278 0.175092 4.05224 140 219 186
-0.458214 0.179453 4.15022 107 166 151
0.508074 0.184317 4.25635 152 211 196
0.503024 0.188415 4.27293 80 134 117
1.52748 0.198934 4.43887 121 141 129
1.54294 0.206275 4.44468 180 218 220
0.964778 0.200358 4.31081 123 156 142
-0.657915 0.192444 4.10986 101 176 162
0.960854 0.204276 4.29363 62 108 95
1.14567 0.206653 4.28896 134 189 172
0.060127 0.218207 4.21766 113 186 170
0.297508 0.222587 4.25453 79 151 131
0.151407 0.222543 4.2343 80 162 143
-1.27632 0.213518 4.03151 98 172 148
-1.00491 0.216328 4.06271 73 153 118
-0.389537 0.224565 4.15642 98 156 138
1.33405 0.237851 4.38385 103 153 141
1.03323 0.236987 4.29714 150 175 165
-1.93995 0.217894 3.93543 150 208 184
-0.522929 0.230099 4.13707 160 231 215
0.949743 0.239981 4.30809 88 107 92
1.30839 0.248174 4.39914 96 149 140
-0.728039 0.236959 4.10887 127 189 171
0.308477 0.249193 4.25998 103 176 160
-0.302476 0.247086 4.1717 92 166 140
1.52922 0.279381 4.46603 145 174 179
-1.26493 0.253957 4.03555 87 165 141
-0.836493 0.257045 4.09131 103 162 142
-0.700749 0.268846 4.11961 163 225 211
-0.328541 0.286645 4.17557 97 158 138
1.31554 0.30024 4.38083 70 107 99
0.906643 0.296977 4.21539 127 145 132
-0.543522 0.295014 4.14465 165 232 217
-0.529806 0.296543 4.14413 157 223 212
-0.428635 0.29876 4.16149 101 164 148
0.917835 0.302768 4.20796 150 175 149
-0.521498 0.299857 4.15104 84 136 126
2.33199 0.337277 4.55953 104 148 141
-0.523516 0.308368 4.14262 112 178 166
0.499385 0.319159 4.29052 108 126 125
-1.85764 0.296721 3.96559 85 152 131
0.907949 0.313569 4.21699 151 168 147
-1.87721 0.30137 3.96816 90 148 123
-0.995504 0.313965 4.08474 162 239 211
0.189822 0.327513 4.26204 96 165 152
-0.499039 0.320683 4.15285 92 167 153
-0.66583 0.32612 4.13463 164 234 217
-1.25577 0.321636 4.05421 71 128 107
-1.71168 0.325203 3.99182 85 159 131
-1.21373 0.331542 4.06868 102 172 159
-0.56933 0.337937 4.14149 62 136 106
0.791455 0.347761 4.23004 149 214 182
-0.87243 0.342991 4.10762 111 170 150
-0.777809 0.344444 4.11873 93 163 146
-0.561848 0.34779 4.15635 94 179 151
-0.164903 0.352857 4.21504 152 217 201
0.882069 0.352512 4.2049 61 110 88
-1.23646 0.341864 4.0641 137 212 191
-0.73079 0.346526 4.12655 89 170 151
-0.54356 0.351358 4.15751 92 143 123
-0.191101 0.354923 4.21068 94 166 146
1.65242 0.383327 4.51728 125 166 159
-1.23571 0.349693 4.06622 83 146 126
-0.874576 0.357042 4.10926 87 156 136
-0.862876 0.356188 4.11415 86 154 143
-0.0324376 0.368518 4.24118 81 150 130
-0.698366 0.363622 4.12956 164 244 209
-0.571947 0.364222 4.14932 76 156 121
0.327301 0.376079 4.28393 164 235 208
-2.12873 0.348747 3.93691 108 125 128
-0.351787 0.371286 4.18471 171 230 209
0.355767 0.378174 4.27412 183 233 215
1.04338 0.3861 4.32171 149 225 183
-0.156608 0.379936 4.21574 154 230 199
-0.103457 0.382866 4.23543 86 155 140
2.20889 0.415686 4.58039 116 163 154
1.46394 0.405594 4.41928 54 88 71
-0.46269 0.384147 4.17772 173 227 214
-0.64904 0.383266 4.13883 85 151 122
-0.363233 0.389042 4.17563 84 124 112
-0.841521 0.385824 4.11811 97 150 140
-1.28756 0.384283 4.06675 82 152 135
-0.559038 0.391427 4.15872 161 228 201
-0.48176 0.394212 4.17509 96 148 138
0.0444119 0.401023 4.25709 62 151 125
-0.40116 0.396979 4.18534 112 174 160
-0.840765 0.392531 4.12276 167 228 214
-0.376399 0.397228 4.17832 96 155 134
0.0380831 0.406785 4.25615 178 242 213
0.551522 0.412161 4.25188 63 107 90
1.38211 0.436749 4.43542 144 217 179
-0.725998 0.408875 4.13444 92 149 140
-0.149732 0.425073 4.2325 96 163 136
1.16888 0.447177 4.37364 75 129 112
-0.871977 0.426139 4.12701 181 234 220
-0.462894 0.431905 4.18209 153 215 203
-0.839907 0.429851 4.13258 85 144 124
-0.680011 0.431987 4.15476 104 169 154
-1.60127 0.421179 4.01813 102 155 135
2.18042 0.482602 4.5996 159 211 194
-2.15991 0.414694 3.94369 97 158 132
0.740058 0.45173 4.24892 98 127 101
-0.483406 0.445491 4.17543 62 129 114
-0.374799 0.446728 4.18793 100 156 133
0.292578 0.460285 4.28305 107 154 146
-0.0288039 0.459141 4.26276 163 220 205
-0.411756 0.454745 4.18862 166 228 210
0.999508 0.474719 4.36538 119 158 126
-0.372035 0.460385 4.19895 93 142 134
-2.13572 0.43437 3.94783 85 153 130
-2.04755 0.436086 3.96383 89 143 126
0.0628315 0.471017 4.27056 94 177 152
0.24387 0.476621 4.29462 122 165 156
1.11767 0.485194 4.36545 69 133 104
-2.18319 0.439891 3.94805 144 202 174
-0.433814 0.468405 4.18673 102 162 144
1.29939 0.495641 4.43366 120 193 153
-0.15986 0.477759 4.2477 104 184 155
0.899306 0.485698 4.31518 89 145 110
1.36013 0.502436 4.44668 70 142 100
-0.0927845 0.481809 4.25017 117 175 164
0.0639478 0.488468 4.2739 176 238 220
0.258627 0.488514 4.29188 76 119 106
1.12341 0.498548 4.3659 54 106 89
1.35771 0.508026 4.43913 146 216 179
0.910809 0.49894 4.31852 150 217 172
0.133444 0.504748 4.30035 94 167 151
-0.0157917 0.502573 4.27384 160 218 193
0.834345 0.507231 4.30948 108 140 121
0.377059 0.51624 4.32423 87 120 113
1.51566 0.535016 4.48724 82 137 118
1.57727 0.537023 4.48816 150 215 199
-0.566083 0.502439 4.18366 138 183 174
0.0831756 0.515297 4.28394 83 167 125
1.39352 0.531873 4.42903 164 214 182
0.718131 0.51049 4.24551 111 152 131
-0.46255 0.507505 4.19878 110 169 161
0.842258 0.522468 4.30757 155 210 177
1.26865 0.541675 4.43421 146 197 169
-0.651227 0.514512 4.17268 172 222 212
0.160981 0.53104 4.30081 168 232 220
-0.892527 0.511196 4.13975 89 150 140
-0.204904 0.526803 4.2416 108 170 158
0.953155 0.535914 4.32333 124 162 120
-0.163374 0.529045 4.25224 147 214 199
0.826337 0.538705 4.31175 65 107 82
-0.652341 0.523245 4.17386 173 234 224
0.152165 0.541198 4.29944 113 169 156
0.828038 0.545508 4.30623 161 237 195
0.838024 0.546513 4.3119 77 141 105
0.890335 0.548498 4.31531 166 241 195
1.28531 0.561082 4.4231 174 231 198
-0.836229 0.528486 4.14289 179 236 211
-1.78153 0.516074 4.01611 100 151 137
0.860226 0.557147 4.31555 64 122 87
-0.421468 0.545906 4.21305 88 142 129
-1.24553 0.532245 4.08557 162 232 209
0.142842 0.565539 4.30037 98 164 145
-0.53875 0.552393 4.19409 164 227 217
1.1969 0.580195 4.40923 159 246 190
0.153453 0.568709 4.31181 119 175 156
0.871939 0.571275 4.32644 147 208 164
1.52114 0.602931 4.50424 95 160 138
-0.628163 0.562132 4.18265 163 232 212
-2.17198 0.53399 3.96862 166 217 209
-1.24629 0.557699 4.09318 79 142 122
0.880642 0.59038 4.32756 48 78 43
-1.25678 0.560002 4.09186 88 155 134
-0.0671482 0.582785 4.27495 83 139 120
0.134634 0.591385 4.31108 102 161 147
1.12243 0.606639 4.41679 42 83 56
1.69448 0.628844 4.56383 133 168 164
-1.8599 0.564408 4.01906 104 176 154
-0.607829 0.590388 4.17909 85 144 129
-0.138528 0.603515 4.27754 109 180 164
-0.674006 0.592826 4.17901 181 231 221
-0.643335 0.593765 4.18925 87 149 127
0.0973456 0.611969 4.31075 79 148 135
0.835651 0.611789 4.30518 166 217 179
-0.181161 0.608493 4.27072 77 161 143
-0.634817 0.603798 4.19148 103 172 152
-0.750141 0.601483 4.17176 159 229 193
-0.651284 0.607538 4.18892 83 157 133
-0.69362 0.608618 4.18713 106 159 139
-0.0683675 0.624065 4.29365 152 228 210
-1.89679 0.584046 4.0131 159 226 194
-0.57892 0.612043 4.2011 161 228 213
1.52381 0.661183 4.52152 104 165 151
-1.08008 0.607908 4.13691 162 237 216
1.49637 0.665703 4.52655 68 128 104
-0.719148 0.614967 4.1756 91 161 138
-0.961589 0.614998 4.14819 102 160 136
0.761485 0.641361 4.31106 82 137 110
-0.137195 0.636585 4.27528 92 177 157
1.69447 0.682907 4.57942 98 134 134
0.951758 0.659978 4.39758 117 172 133
1.19392 0.665365 4.4252 156 216 175
-1.20604 0.625223 4.11086 86 151 136
0.0590481 0.656695 4.31304 86 160 142
0.964049 0.668915 4.39558 152 247 197
1.15397 0.675467 4.40971 132 213 166
1.15897 0.677531 4.4005 50 118 83
-0.93011 0.644471 4.15684 104 148 135
0.0869608 0.671888 4.31545 112 174 162
0.732881 0.676679 4.33201 137 212 184
1.30404 0.693183 4.42977 162 241 192
-1.05162 0.649613 4.14118 105 163 145
1.56479 0.714887 4.56396 73 151 110
-0.467018 0.668244 4.22646 149 213 191
-0.305161 0.674725 4.26538 101 173 160
0.957148 0.696883 4.40444 117 180 140
0.983705 0.696559 4.40737 147 227 180
0.778742 0.685079 4.31263 83 141 113
-0.724965 0.667629 4.19128 155 227 207
0.962532 0.700185 4.39758 141 212 169
-0.934015 0.664965 4.16073 169 234 218
-1.17746 0.661448 4.12704 99 148 132
0.186896 0.699143 4.34314 92 164 144
-0.484101 0.682467 4.22519 153 227 201
0.0739032 0.701159 4.32584 166 226 215
0.0313172 0.70285 4.32532 106 157 143
-0.585256 0.687115 4.21748 179 238 223
-0.162362 0.703165 4.29821 87 156 136
-1.21313 0.678647 4.12053 82 149 122
-0.462885 0.699987 4.23396 78 147 132
-0.258621 0.708716 4.27986 70 125 108
-0.150954 0.712827 4.3046 83 172 153
-0.666257 0.699496 4.21276 167 233 221
-0.53587 0.702108 4.22653 102 152 142
-0.260489 0.710579 4.27498 98 157 137
1.0249 0.738195 4.43615 142 212 175
1.27184 0.735082 4.4102 90 145 120
-1.21637 0.692568 4.13215 100 179 160
-0.577129 0.708701 4.22223 169 225 214
0.799233 0.724443 4.31682 153 215 185
-1.08362 0.696206 4.14228 161 222 202
0.73763 0.727521 4.33097 129 181 157
1.04819 0.751839 4.44111 75 164 120
1.79961 0.784153 4.62158 142 179 175
1.05209 0.763007 4.45624 71 138 107
1.08326 0.765874 4.46877 107 186 147
1.04354 0.778679 4.47212 36 93 54
-0.0573768 0.760356 4.3289 119 176 161
0.750643 0.766128 4.35173 159 216 191
-0.0651437 0.760931 4.31386 116 175 160
0.759733 0.767848 4.35512 155 225 194
-2.22637 0.707629 3.99995 88 147 126
-0.58026 0.754797 4.22857 115 170 155
1.48229 0.814739 4.54413 126 180 151
-0.58699 0.758566 4.23219 175 237 219
-0.612227 0.760436 4.22145 185 240 225
-0.605647 0.762088 4.23188 162 219 204
1.04031 0.800686 4.45254 138 211 171
1.02479 0.806783 4.44986 113 177 141
-0.531358 0.772385 4.24689 104 162 151
-0.714584 0.767448 4.20956 81 131 113
-0.132573 0.787715 4.32247 134 203 182
1.04487 0.811073 4.4439 136 227 188
1.28576 0.815331 4.46518 81 134 101
-2.18388 0.732492 4.00331 96 170 142
1.27994 0.819607 4.46893 114 164 134
-0.682941 0.777731 4.22431 170 227 219
-0.645328 0.77787 4.22719 168 227 213
1.03744 0.821703 4.46265 142 218 176
-0.74138 0.777616 4.20824 100 159 144
1.45532 0.835716 4.52134 43 93 81
0.129581 0.808625 4.36873 116 187 167
-1.85103 0.752478 4.06305 86 146 135
-0.605728 0.786056 4.23568 163 210 202
-0.231899 0.804232 4.30265 140 183 170
1.24597 0.833037 4.45735 80 150 113
1.28081 0.833084 4.45957 48 71 49
-0.655269 0.792123 4.22384 117 164 156
-0.655581 0.792907 4.22569 117 164 156
-0.201524 0.809661 4.31834 119 146 130
0.936779 0.823676 4.38809 53 98 71
1.46519 0.849779 4.52817 144 203 188
-1.94146 0.761908 4.05212 96 152 139
-0.0275068 0.816687 4.3445 118 180 168
0.929493 0.824833 4.38396 139 193 156
-0.566696 0.799314 4.23934 165 221 202
-0.553647 0.804056 4.25402 83 140 125
1.28181 0.841935 4.45795 45 91 69
-2.3995 0.752943 3.97949 103 163 152
-1.09509 0.788347 4.16291 92 152 128
-0.603453 0.80044 4.23186 81 134 120
0.953923 0.828879 4.3819 138 200 152
-1.04088 0.790683 4.17114 75 148 126
-0.669958 0.803627 4.2219 89 146 131
-0.560379 0.808597 4.25131 131 183 166
-0.280594 0.818883 4.30162 140 195 176
0.129735 0.832859 4.36442 73 146 120
1.02331 0.849775 4.45667 43 105 69
-0.740061 0.802885 4.21015 93 159 140
-0.692125 0.804711 4.21883 163 227 208
0.216774 0.836029 4.38171 120 181 171
-0.923553 0.801594 4.18715 168 232 210
-0.455307 0.818154 4.26652 171 233 203
0.165613 0.836661 4.37089 113 168 153
0.92638 0.840916 4.38665 162 238 196
1.0346 0.85632 4.46022 75 164 125
1.18707 0.86634 4.49309 148 233 183
-1.13853 0.803409 4.15854 166 230 211
-0.693907 0.815997 4.22688 158 224 205
-0.282442 0.829081 4.28742 57 85 62
0.232611 0.848396 4.38083 88 123 113
-0.805056 0.817048 4.21426 97 175 134
0.950162 0.850844 4.38535 155 224 181
-0.836986 0.818209 4.20727 85 135 123
-0.791212 0.819322 4.21329 96 166 135
-0.579783 0.83225 4.25072 106 165 151
0.94085 0.862873 4.3978 153 206 163
1.14687 0.887324 4.51 53 112 74
1.15787 0.888555 4.50413 72 151 100
0.252355 0.866998 4.39131 64 102 102
0.928367 0.866562 4.38625 154 209 164
-0.782993 0.833895 4.2135 161 225 195
-0.487274 0.843384 4.26551 154 225 205
0.959852 0.872328 4.40207 165 209 170
-0.461835 0.849991 4.27855 145 212 185
-0.659902 0.843153 4.2348 170 232 220
-0.620235 0.84463 4.24759 113 169 158
1.35824 0.89391 4.4962 108 152 121
-0.808754 0.840326 4.21191 168 238 202
-0.717599 0.843541 4.22974 164 240 209
-0.406221 0.857471 4.27948 67 113 94
1.1618 0.896666 4.48657 105 164 133
-1.82929 0.81805 4.07638 113 174 164
-2.15247 0.811195 4.02307 77 146 113
0.25822 0.885675 4.38116 140 195 168
-0.413706 0.864626 4.2695 93 171 147
-0.76338 0.856042 4.22142 146 203 182
0.920259 0.89096 4.38345 173 249 208
0.260458 0.893137 4.37486 63 117 100
-0.45148 0.873832 4.28085 102 155 145
-0.833688 0.861784 4.21554 59 124 99
-0.720903 0.863739 4.22667 195 237 230
-1.991 0.830817 4.05744 100 153 139
0.247261 0.897544 4.37533 69 112 103
1.03098 0.923724 4.49898 71 156 112
1.05456 0.923792 4.50384 145 232 188
0.844207 0.90921 4.42013 173 248 204
1.35398 0.927317 4.48115 146 187 156
-0.707825 0.885509 4.23765 82 134 116
0.790096 0.927982 4.43583 114 175 137
-1.25013 0.872983 4.16227 76 142 130
-0.795872 0.886791 4.21712 157 222 207
-0.788599 0.890817 4.21839 153 216 200
0.312109 0.940605 4.42706 167 205 199
0.895758 0.940864 4.41658 152 227 183
-1.34153 0.886878 4.15646 87 163 152
-0.92239 0.897932 4.20613 81 144 124
1.00721 0.961259 4.50206 149 219 189
-0.565726 0.915208 4.27645 175 226 219
-0.520328 0.916023 4.2798 83 156 140
1.00839 0.96453 4.49871 144 210 175
0.262714 0.944425 4.39944 92 169 148
1.02512 0.962984 4.48396 77 143 102
0.898629 0.949583 4.41005 172 228 185
-0.719946 0.91575 4.2398 85 144 130
0.460938 0.949146 4.38816 111 173 151
-2.11572 0.87886 4.04605 85 150 128
1.00972 0.97545 4.49428 66 127 93
1.24756 0.969565 4.46165 83 143 109
-1.92962 0.88592 4.07304 156 215 200
-0.763403 0.922298 4.23017 153 206 197
-1.93271 0.888678 4.07901 153 215 199
-0.935979 0.922871 4.21328 104 168 146
-0.726426 0.931171 4.24409 88 124 124
-0.882425 0.928158 4.21992 98 162 140
1.02161 0.986657 4.48502 154 226 180
-2.11455 0.896913 4.04537 166 226 202
-0.768347 0.939328 4.23541 114 163 147
-0.0366438 0.973296 4.37883 165 228 202
-0.920909 0.938269 4.21523 100 168 143
-0.769081 0.946746 4.24185 159 204 195
-1.08363 0.938533 4.20015 103 162 148
1.10342 1.0011 4.48323 143 215 172
1.35569 0.999103 4.46975 54 95 64
-1.52387 0.92577 4.13567 147 213 201
-0.67754 0.954344 4.25546 76 157 142
1.41368 0.992459 4.41945 45 114 77
0.595971 1.00019 4.4434 37 64 44
-0.770321 0.957477 4.24466 111 158 150
-1.9276 0.922267 4.08441 86 140 123
0.515555 0.994469 4.40159 57 99 88
1.3923 1.00611 4.44949 133 190 159
-1.11649 0.949664 4.19022 99 155 142
1.43246 1.00071 4.4122 72 133 99
-0.690189 0.968212 4.26181 80 142 130
-1.10586 0.953741 4.19509 80 139 124
1.0716 1.01863 4.47666 155 239 184
-1.99732 0.931161 4.07758 107 147 142
-0.820258 0.967295 4.23227 115 179 157
-0.742949 0.973894 4.24767 92 152 134
1.43775 1.01115 4.4131 164 227 188
-1.78228 0.942266 4.10605 97 163 152
-1.26694 0.958805 4.1765 98 161 145
0.52851 1.01277 4.40535 48 64 46
0.0741834 1.013 4.40493 147 210 194
-0.880353 0.974751 4.23087 57 117 106
1.42922 1.01732 4.41635 176 228 198
1.41165 1.02115 4.42902 162 231 186
-1.35181 0.965203 4.16736 98 157 142
0.548451 1.02211 4.40334 110 148 126
1.32741 1.02775 4.43156 142 226 184
0.590229 1.02577 4.41381 87 107 94
0.175315 1.0286 4.42263 83 141 130
1.095 1.04463 4.47427 146 215 165
1.40679 1.03389 4.42479 192 241 213
1.09447 1.04956 4.47504 61 124 84
0.100844 1.03681 4.41621 105 182 161
0.494819 1.03375 4.39472 65 113 85
0.909942 1.05301 4.47579 145 230 186
0.997734 1.05313 4.46531 170 229 198
-2.08909 0.961182 4.06494 83 123 122
-0.671053 1.00861 4.26377 90 145 136
-0.580223 1.01565 4.28779 91 151 143
-1.60304 0.980921 4.13183 92 145 135
0.910759 1.06417 4.47675 155 234 190
-0.426873 1.02997 4.32109 87 142 123
-0.691619 1.01828 4.26668 176 233 225
0.578359 1.05447 4.41808 107 143 119
-1.89744 0.980122 4.10142 94 156 142
0.678966 1.06901 4.47698 156 241 189
0.856393 1.0664 4.46263 94 172 131
0.093018 1.06588 4.41917 131 199 164
-1.1268 1.01753 4.21237 89 155 143
1.30756 1.06967 4.42751 135 178 151
0.765295 1.08828 4.50058 34 71 45
-2.04297 0.989339 4.07749 77 135 111
0.495775 1.06254 4.38169 150 200 168
0.75499 1.09547 4.50233 92 135 102
-0.954903 1.03236 4.23597 103 159 136
0.503924 1.06893 4.37747 145 198 165
-1.99095 1.00382 4.0928 77 132 115
0.099367 1.08572 4.41642 157 236 193
0.505497 1.07671 4.37945 41 95 60
-2.04997 1.00595 4.0847 85 143 125
0.512651 1.07745 4.37946 165 227 187
0.86141 1.10322 4.47866 82 162 115
-0.409091 1.0706 4.3361 80 138 114
0.144993 1.09362 4.42926 171 245 217
-2.26979 0.998983 4.04244 159 217 193
-0.616922 1.06726 4.29418 176 232 221
-0.985217 1.05653 4.23659 102 174 154
1.38009 1.10684 4.43082 139 222 183
-2.139 1.02183 4.06929 109 162 149
0.861424 1.13258 4.49156 25 80 55
-0.380677 1.10143 4.34873 91 153 137
-1.33142 1.06263 4.19443 99 187 163
-0.984522 1.075 4.24239 79 159 130
-1.15356 1.07095 4.22265 86 160 142
0.217718 1.13123 4.45019 162 223 197
-0.941345 1.07982 4.2473 88 142 125
-0.378192 1.10559 4.34584 155 213 195
-0.0670547 1.13198 4.40699 97 160 151
-0.0281502 1.13512 4.42394 101 164 154
-0.820931 1.10932 4.27852 70 123 103
-0.822563 1.11485 4.27088 153 220 188
0.273312 1.1635 4.45518 160 200 188
-1.96385 1.07437 4.11037 91 140 132
0.272547 1.16714 4.46273 147 182 172
1.13171 1.20162 4.54536 150 204 161
-0.411533 1.1498 4.34758 132 188 169
0.599335 1.18797 4.49052 76 154 117
-0.763036 1.13638 4.28266 77 126 94
-0.0730788 1.17422 4.41885 159 228 217
1.15239 1.20893 4.54885 80 134 105
0.595577 1.2019 4.49355 59 97 75
0.120093 1.19572 4.45724 103 168 153
-0.769639 1.14651 4.27734 176 249 203
-0.846637 1.1523 4.26957 86 141 114
-0.0898403 1.19204 4.41759 89 163 151
1.12894 1.23416 4.55742 134 166 135
0.143489 1.21626 4.4789 81 141 140
0.877859 1.22682 4.51552 42 97 72
-0.395753 1.18651 4.365 98 150 140
0.14295 1.21521 4.46486 96 156 155
-0.897695 1.16533 4.2754 162 219 204
-0.0120703 1.21237 4.43535 106 183 162
1.14696 1.25211 4.56996 154 211 178
-0.736445 1.18634 4.30366 129 204 166
-0.626986 1.19426 4.3165 125 222 188
-0.0764065 1.22724 4.43221 98 150 140
-0.72791 1.19949 4.30526 144 197 183
-0.592097 1.21149 4.33269 183 227 221
-0.755598 1.20651 4.3054 68 136 111
0.92379 1.25856 4.47582 131 188 149
0.00259475 1.2511 4.44442 160 234 210
-0.836659 1.21248 4.29668 66 123 102
-0.591237 1.22709 4.34116 118 159 151
-0.642632 1.22466 4.32269 116 175 161
0.00845759 1.25974 4.44536 148 210 192
-0.609223 1.2289 4.33016 85 135 123
-0.536755 1.23215 4.34245 160 226 201
-1.01171 1.21698 4.27448 90 150 140
-0.309144 1.25503 4.39786 102 162 151
0.287966 1.28552 4.50944 153 185 180
-0.577828 1.2439 4.34335 104 159 142
1.34479 1.32665 4.63159 77 124 91
-1.77576 1.19386 4.1573 93 153 135
1.38026 1.33298 4.63902 153 201 165
0.857236 1.28718 4.45909 159 223 193
-0.942964 1.23967 4.28068 107 170 150
-0.790268 1.24907 4.31164 101 152 125
-0.581521 1.25876 4.34719 125 171 159
0.849894 1.29388 4.47353 172 228 199
-0.839383 1.24519 4.29903 152 216 180
-0.437555 1.26656 4.37021 131 184 170
-0.864845 1.24504 4.29287 88 144 121
-0.421716 1.27109 4.37924 162 220 195
-0.818125 1.24944 4.29569 88 156 121
-0.663688 1.26003 4.32952 92 153 139
-0.751044 1.26296 4.31725 81 121 103
-0.394009 1.28348 4.38325 168 227 206
-0.80217 1.26295 4.31445 162 212 188
-0.941532 1.25969 4.28921 148 217 196
-0.644263 1.27629 4.33991 95 160 144
-0.435139 1.28732 4.3746 60 110 86
-1.57263 1.23424 4.19397 97 154 145
-0.763932 1.27243 4.31757 95 159 140
1.3396 1.36484 4.63477 133 213 166
-0.230605 1.30419 4.42302 95 146 132
-0.458018 1.29296 4.37069 94 154 143
-0.256517 1.30524 4.408 83 117 93
1.33133 1.37013 4.6327 143 214 171
1.27979 1.37088 4.62422 87 115 92
-1.73019 1.23858 4.17137 81 124 97
-0.74713 1.28872 4.31874 93 149 138
-1.55277 1.25719 4.20144 152 216 181
-0.784555 1.29797 4.32531 163 228 207
0.062368 1.35155 4.4834 92 161 141
1.24292 1.39202 4.59895 73 123 93
1.24719 1.39102 4.59633 133 175 150
-0.938176 1.30719 4.29884 150 202 184
1.21978 1.39774 4.59472 110 158 122
-0.0487762 1.36186 4.46847 90 152 140
-0.55041 1.33199 4.37235 149 206 185
2.19956 1.49656 4.89889 83 121 109
0.0940205 1.38386 4.4914 139 215 197
0.128764 1.38901 4.49535 131 205 193
-0.255369 1.37267 4.42965 233 255 246
-0.217521 1.37722 4.4378 171 225 212
0.117046 1.39656 4.49153 230 249 246
0.865982 1.40121 4.49931 121 187 145
0.911544 1.40027 4.498 105 132 99
-0.02516 1.39453 4.47449 86 129 116
0.224834 1.40573 4.50629 85 139 122
1.22623 1.43462 4.5983 34 71 45
0.0889207 1.40135 4.48773 91 151 121
1.27053 1.45467 4.61034 138 200 160
-0.150042 -1.69228 3.90162 114 157 160
-1.42273 -1.6273 3.77174 157 236 215
-1.49598 -1.612 3.77141 91 175 150
-1.45759 -1.61255 3.77627 82 126 120
-1.42209 -1.60379 3.77505 84 148 126
-1.3659 -1.59908 3.77911 84 159 143
-1.24257 -1.574 3.78573 112 191 164
-1.25168 -1.55701 3.7863 113 179 160
1.02995 -1.62197 4.02629 183 224 217
1.08819 -1.57782 4.02484 105 126 127
-1.67812 -1.43737 3.7682 85 166 133
-1.88581 -1.42791 3.74805 150 222 186
-1.38103 -1.44428 3.79634 102 145 124
-1.56044 -1.4338 3.77608 171 221 179
-1.8783 -1.42008 3.75519 149 224 192
-1.38212 -1.42762 3.78751 136 197 161
-1.54104 -1.41945 3.77767 126 206 177
-1.39576 -1.4226 3.78845 78 136 108
1.00701 -1.50286 4.02118 136 182 170
-1.5342 -1.41413 3.78507 90 149 129
-1.51904 -1.41038 3.77867 150 225 203
-1.39021 -1.4079 3.79365 78 122 91
0.698959 -1.48082 3.99075 80 148 113
0.650309 -1.46479 3.99156 198 234 220
1.15065 -1.47309 4.03917 177 233 214
0.819776 -1.42229 3.95198 76 133 100
-1.35435 -1.36437 3.79775 142 211 191
0.947381 -1.44698 4.02469 94 111 108
-1.17588 -1.37416 3.83069 93 162 147
-0.248484 -1.39362 3.92175 136 187 183
-1.53753 -1.3436 3.79305 134 196 178
-0.116183 -1.36429 3.93857 120 169 147
-2.01402 -1.29541 3.74505 98 190 155
-1.99071 -1.29064 3.74875 103 159 140
-0.118184 -1.35005 3.93038 157 223 194
-0.035037 -1.34441 3.94836 100 150 126
-1.28594 -1.27302 3.81934 92 162 145
-0.899443 -1.27417 3.85934 114 164 152
-0.0011925 -1.30241 3.96459 76 138 116
0.722909 -1.32404 4.04288 168 214 202
-1.84194 -1.2274 3.77806 136 195 167
-0.126685 -1.28034 3.93849 179 210 203
-0.0198682 -1.28522 3.95593 107 173 138
-1.28182 -1.22947 3.8233 91 150 129
-0.88252 -1.22955 3.87204 127 176 162
-1.57253 -1.19877 3.80068 95 131 109
-0.839874 -1.22343 3.87975 140 202 186
-0.95079 -1.20812 3.8649 129 175 153
-1.71181 -1.18034 3.77652 136 197 161
0.820035 -1.25267 4.05843 104 157 144
0.622357 -1.24432 4.03311 114 177 161
-0.168497 -1.19379 3.9419 252 255 253
-0.82585 -1.17005 3.88392 63 89 65
-0.1722 -1.18282 3.94197 165 149 167
0.0358239 -1.18766 3.97848 69 143 109
1.55218 -1.23511 4.1629 148 189 181
0.0370351 -1.1682 3.97458 124 196 166
1.13391 -1.19427 4.09975 198 232 225
0.0489634 -1.1573 3.98841 103 160 145
-1.18866 -1.1164 3.85312 154 220 185
-0.134782 -1.14296 3.95752 110 134 156
-0.706503 -1.10974 3.89496 136 159 167
-0.872923 -1.09606 3.88387 61 76 62
-0.136063 -1.11788 3.96223 114 157 166
-0.757885 -1.09754 3.90393 156 234 210
-0.778384 -1.08935 3.89983 186 232 226
-0.0853794 -1.08407 3.96411 67 134 119
-0.704825 -1.0601 3.91024 89 104 100
1.02484 -1.10255 4.08663 150 191 176
-1.07986 -1.03964 3.86607 115 146 161
-0.790122 -1.03979 3.89371 177 222 219
-0.735896 -1.04185 3.903 171 200 204
-0.586936 -1.03808 3.90776 146 180 170
-0.804865 -1.02558 3.89937 89 131 120
-0.79742 -1.02759 3.90375 179 225 219
-0.7883 -1.0236 3.90823 90 110 105
0.726385 -1.0677 4.06681 77 126 98
0.808547 -1.06572 4.08983 168 226 215
-0.804843 -1.01329 3.90677 85 102 93
-0.790302 -1.00847 3.89924 155 192 184
-0.588277 -1.00426 3.92297 92 115 110
-0.810351 -0.99241 3.90019 111 132 124
-0.763924 -0.982824 3.90691 117 142 128
-0.674674 -0.980138 3.91469 134 146 134
-2.28305 -0.936306 3.75892 70 119 103
1.36365 -1.02659 4.13339 99 158 137
-1.17321 -0.953493 3.87046 124 137 139
-0.451483 -0.965807 3.94266 160 207 191
1.23591 -1.01027 4.134 172 227 218
-0.0851842 -0.968805 3.99805 94 166 144
1.14951 -0.996186 4.12984 107 166 145
-0.729938 -0.940143 3.91248 159 198 200
-0.785464 -0.936097 3.90934 98 127 111
-0.541171 -0.941721 3.9372 113 149 143
-0.206066 -0.946121 3.983 217 248 251
-0.741349 -0.919904 3.91592 173 216 219
-0.77278 -0.907216 3.91678 147 204 189
-0.422499 -0.917743 3.96718 84 124 113
-0.794514 -0.903583 3.91127 105 123 116
-0.652328 -0.901581 3.93124 98 124 110
-0.18384 -0.911596 3.98954 106 174 151
-0.193439 -0.903614 3.98956 84 146 140
-0.20047 -0.901793 3.98911 193 237 236
-0.741287 -0.876143 3.92583 157 184 181
-0.805945 -0.868583 3.91694 124 173 151
-0.690788 -0.859722 3.9321 143 182 174
-0.372036 -0.868676 3.97115 105 129 111
-0.324658 -0.859842 3.9832 118 143 123
-1.66467 -0.820973 3.83645 81 151 114
-1.63261 -0.810227 3.82867 98 172 138
-0.514799 -0.782231 3.79973 35 56 48
0.509207 -0.838275 4.07855 161 238 211
-0.0838026 -0.817419 4.01086 109 173 167
-1.6046 -0.774082 3.83711 157 236 209
-1.54983 -0.766694 3.83069 71 131 100
-0.500177 -0.763182 3.80404 146 195 179
-0.499246 -0.763218 3.8031 153 200 184
-1.64341 -0.761697 3.83205 85 150 124
-1.57364 -0.758192 3.83659 140 227 189
-1.77057 -0.745265 3.82067 169 225 196
0.56203 -0.793317 4.08414 88 141 132
-0.0175108 -0.774463 4.02618 102 172 149
-0.437328 -0.736977 3.84204 140 174 157
0.0562387 -0.757223 4.03685 117 174 159
-1.58024 -0.718488 3.84911 82 144 104
-1.66664 -0.714644 3.84441 91 163 133
-0.00832133 -0.726797 4.0215 147 224 186
-1.86479 -0.686873 3.81556 96 169 147
-1.4569 -0.692866 3.87107 160 245 207
-0.39698 -0.687286 3.8497 137 173 157
-1.7272 -0.683488 3.83991 149 212 186
-0.402744 -0.685468 3.85181 62 85 63
-0.0657224 -0.716456 4.02111 101 157 144
-1.5749 -0.683207 3.85311 91 187 146
-0.442525 -0.676587 3.82492 119 148 132
-1.77291 -0.672436 3.82319 83 136 109
-1.53622 -0.678943 3.85509 102 153 125
-1.52933 -0.680491 3.86453 144 228 193
-1.44723 -0.671278 3.86826 71 130 102
-0.221311 -0.700324 4.02061 106 140 129
-1.57764 -0.664027 3.8619 149 223 195
-1.8648 -0.653153 3.82024 71 147 105
-0.218927 -0.686494 4.01232 117 139 134
0.0734337 -0.692256 4.05551 112 167 158
-1.4368 -0.656037 3.87575 74 137 105
0.0317592 -0.679606 4.0497 105 144 123
-0.495014 -0.629348 3.79337 68 135 106
-0.448226 -0.630462 3.80487 188 224 218
-0.386133 -0.625472 3.82171 166 209 198
-1.72267 -0.617554 3.84203 87 163 139
-1.65791 -0.621421 3.85946 63 102 77
-1.76655 -0.613717 3.83078 96 158 134
-0.0436566 -0.639787 4.02605 141 168 164
-0.256618 -0.637323 4.02861 116 170 170
-0.0425866 -0.639099 4.03343 143 186 173
-0.478462 -0.603325 3.81671 151 193 186
-1.58419 -0.607757 3.86437 87 148 122
-1.42788 -0.609945 3.88458 103 163 139
-1.6334 -0.601481 3.8587 134 190 171
-0.453807 -0.591919 3.82575 130 184 167
-1.2273 -0.602618 3.90462 85 147 123
-0.492439 -0.589439 3.82094 135 181 162
-0.290028 -0.615691 4.00282 48 87 72
-0.0421117 -0.619763 4.03914 99 160 132
-1.20979 -0.594834 3.91233 67 159 130
-1.88846 -0.567014 3.83345 168 238 208
-0.434908 -0.563116 3.83245 124 177 164
-1.87665 -0.549483 3.8322 160 226 191
-1.22781 -0.561767 3.91621 76 163 127
-0.428704 -0.552738 3.85274 125 174 158
-0.335329 -0.57094 3.99991 141 184 173
-1.05627 -0.559977 3.93354 86 160 126
-1.07137 -0.557152 3.92961 154 226 190
-0.0366104 -0.57163 4.0434 86 151 129
-1.07905 -0.550524 3.92819 156 231 193
-1.36899 -0.545108 3.9048 83 172 128
-1.60875 -0.533986 3.86597 82 158 124
0.57984 -0.569547 4.11859 136 179 176
-1.17551 -0.538665 3.92377 82 163 138
-1.69613 -0.517215 3.85541 99 190 157
-1.90618 -0.513791 3.84266 93 159 134
-1.08361 -0.525216 3.93423 90 169 130
-0.481482 -0.515175 3.86548 156 204 186
-1.62856 -0.512306 3.86519 65 121 80
-0.922818 -0.521862 3.9535 71 154 122
-0.287282 -0.531941 4.03067 133 179 167
-0.300527 -0.527622 4.0235 121 153 136
-0.954836 -0.509513 3.9492 150 236 202
-0.291426 -0.518041 4.02363 140 209 189
-1.66136 -0.491022 3.86781 97 152 127
-1.77379 -0.490364 3.85816 101 166 141
-1.17663 -0.496647 3.92347 100 179 152
-1.53369 -0.490646 3.89559 83 152 119
-0.59929 -0.490837 3.87857 80 142 120
-1.67292 -0.486042 3.85528 91 169 138
0.455211 -0.518831 4.1249 101 152 138
-1.64467 -0.482145 3.86441 107 172 146
-1.52468 -0.476545 3.88055 144 226 183
0.433672 -0.505296 4.12499 93 149 126
-1.77941 -0.466585 3.85776 136 225 182
-1.36857 -0.463785 3.9148 142 227 199
-1.88576 -0.445188 3.85969 143 235 200
-0.297429 -0.46608 4.04338 110 149 151
-0.987691 -0.450704 3.96657 100 166 141
-0.293523 -0.45748 4.03774 166 218 218
-1.52373 -0.436476 3.89508 75 126 98
-0.296302 -0.454862 4.05753 141 190 182
-1.5141 -0.432264 3.89516 95 161 120
-1.57935 -0.419129 3.87358 98 168 137
-1.54923 -0.420135 3.88947 68 116 88
-1.61161 -0.415046 3.87754 91 147 126
-1.99082 -0.408143 3.84774 105 151 138
-0.285975 -0.426705 4.05435 137 196 198
-1.43471 -0.406956 3.91941 171 238 211
-0.543768 -0.394924 3.79914 147 202 193
-1.66894 -0.392584 3.86654 107 172 147
-0.547381 -0.383963 3.8074 71 114 105
-1.94411 -0.388175 3.86031 163 234 208
-1.71282 -0.389642 3.87204 114 189 161
-1.71249 -0.382209 3.87269 168 233 201
0.435092 -0.410395 4.1419 119 188 155
-1.95394 -0.373902 3.84865 164 244 221
-1.54578 -0.377963 3.89035 93 161 130
-1.33981 -0.380954 3.92565 83 156 134
-1.26831 -0.381685 3.93589 87 149 125
-0.800084 -0.383624 3.97512 88 158 135
-1.51335 -0.375574 3.89564 158 228 188
-1.53682 -0.371395 3.89324 95 155 124
-0.548247 -0.364886 3.81592 40 78 66
-0.56963 -0.3542 3.80376 131 183 173
0.783032 -0.388214 4.1845 116 166 154
-1.04916 -0.367133 3.96313 101 175 157
-0.910622 -0.362556 3.97334 94 161 140
-1.1324 -0.357054 3.94167 87 167 130
-1.27414 -0.355771 3.94004 173 235 213
-0.336145 -0.361811 4.05002 171 223 213
-0.527665 -0.333467 3.83062 76 117 110
-0.509245 -0.3359 3.83744 90 139 125
0.698739 -0.360308 4.17804 118 165 156
-1.11476 -0.338833 3.95831 159 243 209
-0.265192 -0.348096 4.06701 114 170 171
-0.558016 -0.323169 3.82302 62 109 93
-1.88085 -0.321915 3.87065 72 129 104
-1.23614 -0.328787 3.94535 78 133 114
-0.135513 -0.337989 4.08693 173 206 202
-0.386846 -0.330391 4.05095 139 173 167
-2.11164 -0.311105 3.8531 88 156 131
-1.28783 -0.318371 3.9425 97 179 156
-1.90556 -0.309826 3.86526 94 145 125
-1.23727 -0.316156 3.95182 91 167 143
-0.388561 -0.323737 4.04903 85 119 113
-1.74913 -0.300382 3.89383 104 165 155
-1.25353 -0.305556 3.9511 88 169 142
-1.85219 -0.296251 3.8817 85 140 121
-1.73445 -0.293417 3.89007 103 165 151
-2.00694 -0.288966 3.86363 136 198 180
-1.17317 -0.287739 3.96346 106 154 125
-0.439556 -0.287773 4.04633 168 209 204
-1.97342 -0.272137 3.86375 70 143 121
-0.837503 -0.275598 4.0096 54 131 94
-0.597285 -0.261354 3.84887 63 135 105
-1.96268 -0.256918 3.86776 87 147 129
-0.556058 -0.258035 3.85735 62 104 86
-1.84289 -0.257003 3.88374 76 135 120
-0.558135 -0.256494 3.85305 86 131 114
-0.827796 -0.26305 3.99815 112 186 144
-1.12598 -0.251614 3.97624 110 156 137
-0.816614 -0.246577 4.01059 29 88 57
-1.0506 -0.243243 3.98104 85 154 134
0.234617 -0.253852 4.14105 136 180 174
-0.624929 -0.232788 3.86203 72 174 133
-0.817603 -0.231574 4.00809 72 162 126
0.718591 -0.2385 4.22028 107 170 154
-1.25342 -0.210706 3.9669 86 160 132
0.886657 -0.218428 4.24498 95 129 119
-1.36504 -0.200835 3.9522 149 209 191
-0.0430776 -0.211247 4.11943 152 196 179
0.830704 -0.214358 4.20217 175 222 196
-0.761059 -0.197436 4.01666 86 165 121
0.887561 -0.210607 4.24358 149 193 180
-0.125782 -0.20169 4.09684 94 147 138
-1.29436 -0.191528 3.96867 102 169 138
-1.69799 -0.187273 3.91243 91 162 152
0.253066 -0.187948 4.1638 98 141 130
-1.14715 -0.178078 3.98425 101 165 143
0.174614 -0.179161 4.15938 159 197 185
1.55885 -0.186995 4.36098 86 113 103
1.50508 -0.182614 4.3113 90 133 118
-1.17908 -0.164844 3.97686 99 148 132
1.00389 -0.174175 4.25857 129 176 167
-0.578785 -0.164378 4.053 183 237 230
0.258917 -0.167011 4.16897 159 212 202
0.89008 -0.170232 4.24745 167 230 214
-0.994263 -0.15484 3.99233 98 168 131
0.957404 -0.160745 4.25584 125 195 182
-0.59145 -0.148705 4.05764 51 106 81
-1.09012 -0.147108 3.99515 117 182 161
-1.01009 -0.145851 4.00738 97 176 149
0.579664 -0.153774 4.22365 115 171 158
-1.40484 -0.138225 3.948 102 161 141
-1.30044 -0.139702 3.96568 79 148 121
-0.91378 -0.13989 4.01636 96 173 145
-0.854939 -0.14021 4.01287 104 180 162
-0.581375 -0.140877 4.04418 157 214 181
-0.773214 -0.137907 4.03103 140 198 180
-1.62293 -0.121918 3.92893 106 172 161
-1.23418 -0.123087 3.98685 69 145 121
-1.2208 -0.120395 3.98462 86 153 124
-1.86381 -0.113156 3.90513 109 177 166
-1.27976 -0.108867 3.97981 84 141 120
-1.51409 -0.104562 3.94288 110 178 161
-1.74509 -0.102121 3.91705 95 166 146
-0.801552 -0.102472 4.02966 102 175 153
-0.7835 -0.103019 4.03462 101 147 134
-2.27435 -0.0956093 3.86475 93 160 145
-1.28907 -0.0980548 3.97682 173 226 229
-0.789472 -0.100202 4.03476 82 136 119
-1.24155 -0.0947668 3.98352 82 150 109
-0.571962 -0.0985758 4.06787 152 195 186
-1.07258 -0.0949503 4.00617 93 170 142
0.59221 -0.0984212 4.21799 113 180 165
-1.77999 -0.0869491 3.92226 85 154 139
-0.572241 -0.0894635 4.06765 42 84 66
-0.887758 -0.0853173 4.02367 91 163 143
-1.26879 -0.0816964 3.97716 163 215 185
-1.26686 -0.0814414 3.99687 72 107 73
-0.83302 -0.0794277 4.02758 78 140 118
0.217715 -0.0824706 4.17391 155 190 186
-0.79739 -0.0744005 4.03583 86 126 108
0.504043 -0.0777976 4.20666 168 224 203
-0.915429 -0.071891 4.02944 104 184 155
-0.791357 -0.072766 4.0449 166 214 196
-1.14956 -0.0675921 4.00312 99 182 144
-1.12143 -0.0672442 4.0012 70 127 96
-1.11107 -0.0652513 4.00776 140 225 187
0.226725 -0.0659382 4.19152 94 128 118
-1.28098 -0.0601341 3.9811 168 235 198
-1.22542 -0.0566343 3.98496 108 165 127
0.147965 -0.0599953 4.17027 137 180 169
-1.80524 -0.0500879 3.92303 96 143 135
-0.565131 -0.0522527 4.07649 97 157 149
0.566014 -0.051266 4.22338 189 236 227
-0.591969 -0.0475881 4.07702 153 205 195
-1.79951 -0.0425609 3.91355 158 225 204
-0.80268 -0.0413573 4.03866 71 140 120
-0.8638 -0.0403648 4.034 114 157 144
-0.80328 -0.0388851 4.04893 93 160 145
-1.52989 -0.0363374 3.9606 86 155 140
0.449249 -0.0388846 4.22485 103 167 155
-0.808829 -0.0329717 4.04007 164 233 218
1.40129 -0.0293044 4.37057 109 163 164
-0.54393 -0.0250967 4.08373 90 162 156
-0.273064 -0.0226004 4.1232 139 187 189
0.202917 -0.0171547 4.18549 112 155 152
-1.24969 -0.016696 3.98606 90 167 130
-2.02674 -0.00220364 3.89847 61 136 115
-1.99865 -0.00364817 3.90013 76 140 121
-0.584032 -0.00300291 4.08006 83 153 130
0.210757 -0.000642935 4.18977 110 179 152
-2.29176 0.0151808 3.87568 154 222 205
-0.930915 0.016326 4.04049 81 150 129
-0.622778 0.0162956 4.07946 84 162 131
0.571965 0.0259153 4.25105 177 236 222
-2.08684 0.0250632 3.89071 144 217 195
-1.25568 0.0270376 4.00071 108 177 162
-2.17855 0.0279752 3.88991 88 150 132
1.56173 0.0489763 4.41432 120 180 169
-0.764434 0.0476308 4.06658 112 177 162
-2.06938 0.0493944 3.89998 99 178 157
-2.13178 0.0515659 3.88915 87 153 124
-0.884705 0.0533289 4.04994 108 179 159
-0.783397 0.0571567 4.07522 123 173 173
-1.84755 0.0660909 3.93325 124 167 152
-0.36053 0.0684683 4.13086 207 247 246
-1.95162 0.0687319 3.92226 92 157 141
-2.11912 0.0709788 3.90312 166 232 207
-2.0654 0.076413 3.90995 88 140 122
-0.778143 0.0868378 4.07643 96 164 141
-0.770497 0.0921651 4.0763 103 173 150
-0.703713 0.0924039 4.07869 93 152 138
1.39868 0.104247 4.39956 105 159 152
-0.574879 0.102205 4.10616 96 168 148
-0.393318 0.101514 4.13702 98 150 140
-0.86879 0.105969 4.06295 83 142 121
-0.77003 0.10775 4.07458 87 148 128
-0.573914 0.111641 4.1027 191 244 231
-1.43022 0.109471 3.99864 72 153 144
-0.837597 0.111768 4.06562 119 192 160
-2.03483 0.109111 3.91933 98 155 134
-1.07301 0.119563 4.04068 62 146 111
-0.814477 0.131498 4.07397 179 241 225
-2.24506 0.127879 3.89549 168 220 197
-2.23366 0.128928 3.89387 153 221 198
-0.738816 0.13396 4.0725 74 166 115
-2.25325 0.130983 3.89888 117 166 150
-2.05384 0.1315 3.89874 53 114 78
0.344088 0.143038 4.24987 98 158 147
1.46034 0.153595 4.41681 96 143 134
-2.13687 0.137666 3.89526 140 200 170
1.04718 0.158284 4.34228 116 157 149
-0.762264 0.152036 4.08474 161 233 210
-0.704709 0.150354 4.09415 61 133 113
1.477 0.161848 4.42666 72 107 93
-0.599873 0.153838 4.11188 100 167 152
-0.78818 0.153135 4.08281 90 140 116
-1.99246 0.155375 3.92826 136 186 168
-0.945495 0.159819 4.07031 101 148 126
-0.41456 0.165952 4.14832 106 160 147
-1.98633 0.161054 3.91739 84 116 92
-0.63199 0.171298 4.11085 117 169 169
-0.630043 0.171409 4.1098 118 175 172
-1.67058 0.173086 3.97356 103 163 152
0.146015 0.18352 4.21991 97 182 162
1.39004 0.191484 4.40935 108 156 138
-0.355392 0.185153 4.15129 110 189 156
1.52764 0.198913 4.43878 121 141 129
-2.25009 0.179423 3.90302 92 154 130
1.3963 0.204318 4.40862 103 159 146
1.54488 0.208268 4.45209 191 222 225
-0.408584 0.208878 4.15456 165 226 212
-2.05366 0.205067 3.8867 106 142 120
1.31353 0.229701 4.40783 88 139 132
0.979585 0.228268 4.29382 138 171 157
-1.9526 0.213896 3.93662 85 133 109
1.57755 0.241562 4.44586 128 181 172
-0.976758 0.226847 4.07299 72 146 122
1.00977 0.236029 4.3008 156 198 187
0.949236 0.239215 4.30541 123 143 130
-0.302682 0.24702 4.1715 92 166 140
-1.93669 0.23798 3.94402 173 224 210
1.30209 0.275954 4.41237 112 156 150
-0.044875 0.264619 4.21191 170 222 215
-1.26645 0.254919 4.03871 89 167 143
1.33287 0.277661 4.39118 171 214 201
-1.98361 0.25192 3.93361 59 91 72
-0.285801 0.270662 4.181 96 149 135
-1.9988 0.257031 3.93274 111 159 131
-1.54472 0.26101 3.99569 94 168 150
-0.289209 0.285166 4.18466 81 136 119
-0.327702 0.288435 4.17921 93 158 137
-0.00177025 0.290541 4.22731 80 158 135
-1.85925 0.273886 3.96357 101 166 144
-0.295027 0.298398 4.18416 110 177 162
-0.160358 0.301471 4.21078 88 148 130
-0.664977 0.314772 4.13649 99 161 143
-0.786673 0.313163 4.10367 102 160 149
-1.87782 0.305616 3.95472 156 221 200
-0.788171 0.319956 4.1116 163 219 208
-1.29838 0.316928 4.04599 87 150 134
-1.99745 0.311768 3.94586 60 116 87
0.827683 0.329927 4.20618 161 220 200
-1.25597 0.321905 4.05503 71 128 107
-1.21213 0.329428 4.06224 102 172 159
-1.39337 0.327511 4.0332 88 161 139
-0.911442 0.333493 4.09619 186 224 218
-0.730783 0.346675 4.127 89 170 151
-1.23579 0.349922 4.06486 78 140 118
-1.27115 0.351733 4.05356 90 154 135
2.28934 0.393668 4.55801 125 172 170
0.327241 0.375755 4.28292 164 235 208
1.03623 0.37743 4.31714 67 117 85
-0.163426 0.37127 4.21152 171 218 196
-0.02174 0.373481 4.24289 72 136 117
1.44034 0.390999 4.41964 171 233 211
0.258945 0.388969 4.27737 127 184 175
1.26455 0.405383 4.40023 67 130 110
-0.753338 0.384781 4.13311 113 179 167
-0.55897 0.387974 4.15068 170 239 206
0.225941 0.401388 4.27945 104 176 164
-2.14052 0.368337 3.92684 158 208 184
-0.514312 0.392246 4.16391 97 169 147
-1.28769 0.384515 4.06742 82 152 135
0.26335 0.416577 4.28639 165 197 192
-0.690016 0.405769 4.14159 102 173 157
-0.471931 0.408898 4.17704 106 146 144
-0.734365 0.409901 4.13778 178 230 230
-0.709841 0.417043 4.14701 91 154 145
-0.150029 0.425802 4.23469 96 163 136
-0.462378 0.423611 4.17523 74 127 117
0.77725 0.439947 4.27106 139 167 147
0.233334 0.443562 4.27795 115 164 156
-2.16015 0.414829 3.94406 97 158 132
-0.355948 0.444183 4.18914 162 219 204
2.17609 0.486482 4.6034 94 156 142
0.264185 0.455821 4.2898 90 132 121
1.14192 0.470681 4.36488 145 215 178
0.643568 0.460518 4.24354 81 148 117
-2.13756 0.434647 3.94884 87 152 131
0.23456 0.47764 4.2877 172 217 201
1.29933 0.495679 4.43378 120 193 153
1.4064 0.496393 4.44163 135 177 152
-0.0387914 0.479603 4.26622 108 175 154
1.42171 0.502006 4.45441 59 75 57
0.677593 0.481548 4.25508 60 88 65
-0.482571 0.472329 4.18049 103 150 141
0.35723 0.488427 4.31473 88 133 124
0.837836 0.489964 4.32519 117 154 120
-1.89038 0.454591 3.9837 92 159 138
1.35113 0.508183 4.46098 86 158 128
0.730719 0.483924 4.24748 129 199 158
1.68064 0.523044 4.53994 143 177 176
-2.01986 0.457306 3.97121 78 118 106
0.12364 0.49412 4.28762 152 236 207
-0.596403 0.485194 4.17296 93 149 126
-0.395338 0.485668 4.19422 93 147 130
0.649281 0.492251 4.24764 84 157 125
0.910757 0.49858 4.31747 150 217 172
0.569522 0.487586 4.19743 70 111 90
0.928848 0.5094 4.30515 147 192 153
-0.700372 0.494912 4.16038 78 150 130
1.39083 0.527402 4.44097 68 120 97
0.389173 0.516984 4.31231 183 230 221
0.0827204 0.513563 4.27906 82 161 122
0.710261 0.512093 4.2473 14 46 27
1.34843 0.533184 4.43672 70 124 95
1.40258 0.532863 4.43465 105 155 121
-0.462426 0.507875 4.1998 120 180 172
0.822164 0.523652 4.29428 129 188 157
1.28498 0.539787 4.43637 114 187 141
-0.450329 0.513249 4.19443 111 175 163
1.394 0.543041 4.43041 155 208 169
-0.82972 0.507996 4.13914 143 204 168
-0.889224 0.507433 4.12815 85 146 136
-0.497559 0.517373 4.19139 89 155 136
-1.12577 0.508896 4.10088 79 148 145
1.21799 0.552777 4.41788 162 199 179
1.25188 0.552375 4.41293 128 191 149
-0.651641 0.523484 4.17185 173 234 224
-2.20317 0.507194 3.95788 109 158 142
-0.823254 0.531555 4.14673 83 130 114
-0.14173 0.54546 4.263 106 168 154
0.858551 0.557496 4.31808 71 124 91
1.24761 0.570248 4.40911 125 192 177
0.833288 0.563071 4.31396 57 95 65
-1.00888 0.545783 4.12969 115 174 166
-1.25978 0.546161 4.08549 87 162 134
0.891801 0.580445 4.32791 154 230 182
1.70742 0.608753 4.5565 115 138 140
-0.794426 0.56029 4.15868 104 155 141
1.24418 0.598896 4.42434 71 125 96
1.57714 0.611941 4.51214 91 138 122
0.375704 0.58799 4.32402 120 167 159
-1.24624 0.55759 4.09289 79 142 122
-0.067644 0.584508 4.27964 79 134 117
-1.25926 0.560364 4.094 102 171 150
-0.617774 0.573333 4.18211 171 228 219
0.836258 0.592735 4.31197 165 206 168
1.25713 0.608149 4.42185 149 229 192
-0.757928 0.575415 4.16788 92 163 143
-0.750255 0.580284 4.16846 91 160 145
-2.22941 0.555308 3.96732 103 156 146
-0.565302 0.586267 4.19396 104 156 149
1.11608 0.61537 4.41335 36 75 53
-0.631572 0.591577 4.18844 97 168 152
-0.581331 0.595655 4.19592 169 225 214
-0.278173 0.602422 4.24969 101 163 151
-0.736499 0.595949 4.1757 87 145 120
-1.82997 0.575153 4.02639 102 167 151
1.11607 0.63108 4.40773 144 225 180
0.782545 0.623601 4.29868 151 201 171
1.16096 0.643202 4.41961 66 136 100
-1.83314 0.588105 4.02789 115 182 161
1.09691 0.649869 4.40391 150 239 196
1.29018 0.652623 4.43931 84 148 118
-1.89394 0.595275 4.02236 81 157 123
-1.82249 0.605574 4.03601 76 129 115
-0.654512 0.630189 4.20026 73 149 118
0.0787513 0.648328 4.3213 91 152 126
0.776525 0.648282 4.29278 153 226 186
-1.20604 0.625217 4.11085 86 151 136
-1.82987 0.615215 4.02887 88 145 124
-0.314463 0.649388 4.25333 105 175 162
1.28505 0.691506 4.44721 138 194 165
0.0855652 0.671368 4.31529 106 171 156
0.969064 0.686706 4.40191 157 238 191
-0.697565 0.657152 4.1935 131 172 165
-0.267856 0.672675 4.26684 97 160 150
-0.763934 0.661379 4.18132 85 159 141
1.16875 0.695163 4.40023 97 182 138
-1.21696 0.653381 4.11722 164 240 216
-0.0762622 0.680997 4.29926 75 140 125
0.0542235 0.686234 4.31128 70 130 106
0.962524 0.700174 4.39756 141 212 169
-0.725187 0.668493 4.19344 166 236 219
0.951693 0.70274 4.40229 146 195 157
-2.40154 0.634643 3.96085 80 145 129
1.06988 0.713453 4.44183 84 163 120
1.42705 0.724285 4.49273 140 193 183
-0.479502 0.684582 4.23347 103 176 154
1.27334 0.710634 4.39907 69 105 83
-0.584989 0.686982 4.21714 177 236 221
0.956324 0.717003 4.40629 102 158 123
-1.90103 0.658645 4.03119 84 127 112
-0.162368 0.703005 4.2978 87 156 136
-0.558985 0.692982 4.2268 92 149 134
1.19124 0.724053 4.40648 166 236 199
-0.151001 0.713012 4.30507 83 172 153
-0.259664 0.710425 4.27383 81 140 120
1.02253 0.735269 4.43164 154 225 185
-0.703311 0.698375 4.19623 92 151 131
0.803471 0.719021 4.31953 81 139 115
-0.0988169 0.72012 4.31446 104 157 148
0.80088 0.726567 4.3221 166 230 200
0.748016 0.735 4.33388 95 156 128
1.27248 0.750598 4.4187 108 173 134
0.177596 0.745268 4.35226 117 180 164
0.96762 0.756106 4.41258 38 80 39
-2.20412 0.68699 3.99874 79 131 121
-0.52925 0.732329 4.24288 129 179 169
1.04253 0.779476 4.47186 40 85 52
0.783407 0.75879 4.32738 84 140 117
0.991281 0.784058 4.44401 123 186 142
-2.22475 0.706094 3.99637 81 142 122
-1.18901 0.732198 4.14174 74 136 118
0.846541 0.764203 4.30453 160 214 177
-0.450251 0.76159 4.25907 163 222 208
1.07457 0.797007 4.46494 69 143 101
-0.689702 0.755634 4.21212 89 139 129
-0.651899 0.755601 4.2029 90 134 121
0.12504 0.782441 4.35412 101 173 150
1.04012 0.802777 4.46421 152 224 188
-0.709399 0.758517 4.20904 97 150 136
-0.31517 0.771929 4.28297 161 223 207
1.0674 0.804704 4.46764 148 240 187
1.20611 0.803001 4.46191 157 237 194
-2.34742 0.721696 3.98782 90 139 131
-0.720642 0.75915 4.20589 114 162 150
-0.582063 0.767202 4.23082 96 151 134
-0.531135 0.771645 4.24511 107 160 151
-1.24821 0.753989 4.13889 97 170 162
-0.714967 0.76728 4.209 81 133 116
1.05694 0.813534 4.45836 82 159 122
-0.645483 0.778363 4.22836 168 227 213
-0.179842 0.793475 4.31365 143 184 169
0.211087 0.802767 4.36434 75 140 124
-0.742148 0.77747 4.20856 101 160 145
1.4561 0.836537 4.52335 43 93 81
-2.1583 0.745265 4.01151 96 152 139
0.129538 0.809004 4.36965 119 188 167
-0.649253 0.785116 4.22656 69 124 107
1.43976 0.837694 4.50216 160 225 209
-0.742576 0.788183 4.20785 88 151 135
-1.9435 0.762992 4.05102 111 163 153
-0.811466 0.789754 4.20465 97 167 150
-0.56827 0.799842 4.24759 152 210 192
-1.0292 0.790183 4.1737 104 177 151
0.140016 0.824557 4.365 94 142 124
0.954423 0.829626 4.38369 138 200 152
0.133693 0.826945 4.36956 154 219 197
0.0912522 0.828304 4.36043 114 183 173
-0.403598 0.813152 4.27478 100 158 140
-1.35573 0.787349 4.13069 78 142 130
-1.09257 0.791713 4.15737 91 153 131
-0.740302 0.803342 4.21122 87 156 136
-0.585524 0.809197 4.24203 89 137 125
0.128942 0.832039 4.36251 74 151 124
-0.880547 0.801744 4.19023 160 225 204
-0.544159 0.813751 4.25187 169 223 218
-0.455535 0.819035 4.26859 171 233 203
1.44346 0.869132 4.52863 147 212 186
-0.883693 0.805592 4.18599 97 150 136
-0.571336 0.814869 4.24136 171 230 210
-1.92283 0.781027 4.05496 84 133 119
-0.2823 0.82869 4.28649 57 85 62
-0.901628 0.812704 4.19244 169 227 222
0.217686 0.850824 4.37785 170 226 213
1.09824 0.880083 4.50327 84 174 131
-1.91195 0.801024 4.06304 74 117 108
-0.930689 0.825702 4.19077 123 185 169
1.15425 0.890489 4.51392 133 198 152
1.20412 0.880383 4.46805 81 162 115
-0.734086 0.834298 4.21777 170 228 204
-0.586602 0.840599 4.25285 94 147 134
-0.558992 0.841571 4.25507 109 158 150
-0.474295 0.847517 4.27376 144 221 184
-0.751871 0.840747 4.22085 101 163 145
-0.217949 0.861489 4.31967 121 148 139
1.07835 0.898834 4.49102 159 239 192
-0.804205 0.847412 4.21232 64 130 95
1.6959 0.933039 4.64874 124 174 164
-1.37004 0.83711 4.14092 156 218 206
-1.10885 0.842265 4.17061 82 146 127
-0.80183 0.851324 4.21184 77 154 127
-0.413728 0.864753 4.26979 93 171 147
-0.807185 0.85243 4.20407 151 246 202
1.02661 0.909897 4.49109 73 168 123
-0.92788 0.857256 4.1963 107 173 154
0.15078 0.900287 4.38576 111 179 162
0.83019 0.909278 4.42178 153 239 197
1.30171 0.922964 4.47466 156 202 173
-2.06579 0.836235 4.04562 138 214 190
-0.72091 0.876581 4.24161 81 127 105
-0.202309 0.90144 4.34597 84 128 115
1.02213 0.929858 4.49254 143 226 187
1.23975 0.92675 4.44995 120 182 152
0.139394 0.915233 4.39144 109 182 160
0.78663 0.929727 4.43536 103 172 129
0.830301 0.931333 4.42957 89 160 120
1.7621 0.992967 4.67751 124 163 165
1.15613 0.952886 4.46776 82 168 128
1.34372 0.95881 4.48895 63 102 81
-0.783945 0.902819 4.22698 98 159 145
-0.758668 0.90471 4.22134 202 242 231
-1.26277 0.900502 4.17277 77 145 128
-0.831798 0.909314 4.21933 176 229 219
-0.988086 0.907884 4.20316 92 165 139
-0.75018 0.913436 4.22676 202 239 231
0.808342 0.958955 4.43505 109 160 123
-2.11547 0.878855 4.04603 88 150 128
-1.61434 0.893703 4.11406 77 156 142
1.24769 0.969574 4.46166 83 143 109
-1.45217 0.902769 4.14583 86 136 124
-0.243267 0.943008 4.33762 83 145 127
