ply
format ascii 1.0
element vertex 1239
property float x
property float y
property float z
property uchar blue
property uchar green
property uchar red
end_header
0.146235 -0.720454 2.30712 97 145 133
-0.327964 -0.476372 1.42709 86 143 135
-0.318548 -0.470325 1.43905 84 146 134
-0.417547 -0.42341 1.25908 162 199 197
0.421885 -0.827406 2.80472 92 151 136
-0.40136 -0.426444 1.28606 161 191 196
0.613975 -0.915228 3.15882 124 181 173
-0.408612 -0.420499 1.2712 156 190 184
0.0727977 -0.640543 2.15224 208 231 233
-0.0130502 -0.598917 1.99443 97 157 147
-0.0346071 -0.584607 1.95134 108 161 152
1.74167 -1.45983 5.22814 173 222 224
-0.348181 -0.439484 1.37871 94 147 137
-0.177062 -0.508279 1.6859 105 159 152
0.247735 -0.698811 2.4641 131 171 169
0.286031 -0.712165 2.53388 87 133 121
-0.401501 -0.405159 1.27544 151 177 177
-0.29533 -0.44637 1.46554 109 173 168
-0.0431983 -0.554373 1.92519 117 154 146
-0.372843 -0.41155 1.32435 165 207 200
0.809709 -0.926264 3.48358 101 165 153
-0.079083 -0.528749 1.85373 112 155 146
0.0114047 -0.563643 2.01749 103 153 143
-0.387461 -0.399217 1.29362 136 188 181
0.514037 -0.785336 2.94277 108 158 148
0.245627 -0.6635 2.44768 99 162 152
0.150192 -0.616602 2.26961 163 230 209
-0.409272 -0.38434 1.2519 101 139 144
-0.0223302 -0.536679 1.95169 104 160 149
-0.161525 -0.468567 1.69326 108 137 134
0.248975 -0.621609 2.43462 97 151 128
0.188009 -0.595079 2.3241 143 224 197
-0.196469 -0.442456 1.62453 90 151 147
0.23646 -0.610967 2.41066 101 166 150
0.47006 -0.702922 2.83537 99 151 144
-0.098707 -0.474351 1.79809 84 138 131
0.0688757 -0.537431 2.10371 90 146 135
0.364077 -0.652815 2.63888 176 240 218
0.044643 -0.520333 2.05664 162 228 203
0.0294387 -0.512307 2.02593 143 220 199
-0.100754 -0.461389 1.78829 120 170 168
-0.00766174 -0.495688 1.95753 104 155 148
0.235207 -0.577999 2.39406 116 175 167
-0.0343773 -0.478263 1.90643 119 177 176
0.204857 -0.562944 2.33662 190 223 226
-0.309681 -0.375641 1.40311 96 145 137
-0.363385 -0.35529 1.30557 88 141 131
-0.294701 -0.36681 1.42105 83 141 140
0.20158 -0.527733 2.31623 99 155 150
-0.333149 -0.352304 1.35002 192 220 227
-0.228342 -0.384632 1.53895 99 142 151
-0.342717 -0.349072 1.33429 71 122 114
-0.301059 -0.359128 1.40738 99 153 148
0.475658 -0.615388 2.81151 98 150 143
-0.0255506 -0.44552 1.9005 107 155 156
-0.320884 -0.352104 1.37117 122 139 148
-0.296277 -0.358731 1.41365 101 152 154
-0.33803 -0.343964 1.33662 59 131 119
-0.318829 -0.34914 1.37155 77 125 119
-0.189944 -0.386652 1.60126 194 230 238
-0.344237 -0.337544 1.32289 82 129 120
-0.0504443 -0.425905 1.84888 98 160 160
-0.165734 -0.389193 1.64167 168 219 215
0.836463 -0.70744 3.45625 104 143 151
0.0674121 -0.449523 2.05297 90 147 139
0.206415 -0.492723 2.3044 109 144 157
0.190125 -0.486053 2.2743 99 161 161
-0.285176 -0.344596 1.42171 80 137 128
-0.111712 -0.393951 1.72989 91 144 141
1.23219 -0.822497 4.16096 120 177 174
-0.173177 -0.365005 1.61314 75 129 116
0.922672 -0.695063 3.59108 83 139 128
-0.260577 -0.331368 1.4498 65 113 117
0.127014 -0.427519 2.13759 71 144 136
0.231013 -0.449355 2.32202 120 155 169
0.193255 -0.436306 2.24987 130 177 175
0.252591 -0.44792 2.35608 120 160 172
0.234801 -0.439898 2.32193 94 150 145
-0.291652 -0.305589 1.38388 132 208 190
-0.274353 -0.306881 1.41294 150 206 195
1.0568 -0.643642 3.78672 89 156 141
-0.25592 -0.308058 1.44179 90 147 138
-0.244576 -0.307897 1.45921 90 141 134
0.283637 -0.431373 2.39624 87 151 145
0.394995 -0.456323 2.59397 97 153 142
-0.0237808 -0.352693 1.84312 104 150 157
0.424356 -0.445541 2.63823 186 226 231
-0.22331 -0.299385 1.48821 161 213 213
-0.26797 -0.290486 1.41127 107 167 159
0.0626882 -0.351597 1.98535 76 120 133
0.217788 -0.377516 2.25399 115 149 162
0.222337 -0.377978 2.26084 100 132 137
0.513579 -0.43825 2.77927 103 153 159
0.13848 -0.355827 2.10842 185 220 224
0.390478 -0.398841 2.55309 99 156 153
0.43254 -0.37892 2.60981 130 165 178
0.542328 -0.391459 2.7989 100 144 151
0.130257 -0.298028 2.06185 88 150 144
0.317907 -0.327312 2.38631 108 162 157
0.825955 -0.409471 3.28378 106 145 160
0.824637 -0.390687 3.26376 138 161 187
0.0806869 -0.259355 1.95396 88 148 140
0.170138 -0.258973 2.10029 120 162 169
-0.0496372 -0.20585 1.69892 72 133 123
0.706054 -0.176871 2.95126 90 159 149
0.630628 -0.126825 2.79405 89 166 145
-0.368266 -0.761064 1.4436 141 185 172
-0.372664 -0.752778 1.43382 35 55 42
-0.367811 -0.750466 1.44202 38 66 47
-0.367348 -0.747983 1.44171 108 153 127
-0.377575 -0.734511 1.41703 133 192 161
-0.317889 -0.782399 1.5324 111 159 133
-0.316598 -0.782515 1.53558 54 82 69
-0.265377 -0.809966 1.63144 146 212 187
-0.366296 -0.714201 1.43784 145 209 180
-0.338601 -0.724625 1.48913 140 191 164
-0.439643 -0.636662 1.29966 88 137 123
-0.439886 -0.635659 1.29995 96 150 137
-0.344076 -0.705743 1.48001 100 147 145
-0.361907 -0.690469 1.44692 118 165 156
-0.273804 -0.753966 1.60937 133 196 176
-0.28888 -0.731892 1.57944 113 154 147
-0.283205 -0.735735 1.58975 84 145 135
0.335578 -1.21999 2.7336 127 202 164
0.211693 -1.03122 2.50014 104 150 137
0.211994 -1.03126 2.50286 106 155 139
-0.289551 -0.666532 1.56253 114 164 160
-0.261964 -0.686607 1.61612 89 167 150
-0.259066 -0.684147 1.61928 137 166 171
0.290951 -1.07599 2.64058 126 178 160
-0.302396 -0.652485 1.5385 103 156 146
0.801962 -1.43199 3.60005 73 119 106
0.118541 -0.936046 2.32255 56 74 67
0.137962 -0.941351 2.358 134 183 175
-0.246415 -0.671497 1.63705 105 165 155
0.121285 -0.924122 2.32383 125 171 152
-0.221783 -0.684145 1.68195 108 134 150
-0.235488 -0.672759 1.65603 175 223 224
-0.341651 -0.597884 1.45402 171 224 215
0.397918 -1.09424 2.83199 80 149 122
0.405591 -1.09824 2.84261 161 222 196
-0.179772 -0.699586 1.75535 113 148 152
-0.17741 -0.698723 1.76073 193 229 237
-0.157617 -0.705542 1.79552 92 143 139
0.307572 -1.01805 2.66611 168 239 219
-0.334676 -0.591416 1.46471 163 212 204
-0.308193 -0.607758 1.51439 181 229 217
0.30395 -1.01223 2.65873 82 133 125
-0.155899 -0.704283 1.79771 101 136 146
-0.401668 -0.547256 1.33763 142 175 184
-0.133915 -0.708178 1.83478 110 163 166
0.30623 -0.996874 2.66277 192 234 233
0.981735 -1.41513 3.90991 107 169 157
-0.432177 -0.501881 1.27061 156 218 212
-0.191169 -0.634835 1.71757 105 156 152
0.408326 -1.00331 2.83827 121 175 170
0.0959227 -0.801626 2.25245 86 146 135
0.117557 -0.813274 2.29168 118 158 163
1.09973 -1.42055 4.12164 142 173 188
-0.288961 -0.564997 1.52851 93 159 148
0.175301 -0.838713 2.39563 112 138 152
0.185448 -0.840305 2.41184 89 130 145
-0.00101823 -0.717051 2.06077 125 182 174
-0.297535 -0.546836 1.50746 124 161 165
0.267129 -0.873547 2.56271 135 173 178
-0.32629 -0.530406 1.45332 97 144 135
-0.340018 -0.521726 1.42819 93 155 143
-0.283342 -0.552832 1.53264 112 169 166
-0.342205 -0.516414 1.42231 108 165 156
1.00603 -1.29873 3.93448 135 160 176
3.09012 -2.55235 7.81441 116 165 157
-0.253851 -0.561554 1.58512 119 179 169
-0.301554 -0.534957 1.49568 84 146 140
-0.196578 -0.590932 1.69076 112 181 168
-0.0404597 -0.666505 1.97736 91 161 138
0.369233 -0.895758 2.73892 129 180 176
-0.143859 -0.608968 1.78439 183 224 233
-0.243104 -0.553448 1.59773 124 165 167
0.0502195 -0.709744 2.14294 87 151 132
-0.370403 -0.484416 1.36163 90 139 137
0.196772 -0.787843 2.41681 115 172 163
-0.344993 -0.494406 1.40804 119 171 171
0.353081 -0.867231 2.70374 122 148 164
-0.270602 -0.529698 1.544 170 227 218
-0.457766 -0.434779 1.19842 108 151 142
0.0405729 -0.690878 2.11989 79 147 130
-0.157605 -0.573743 1.74578 135 169 168
-0.33545 -0.485051 1.41918 179 235 230
-0.443364 -0.43271 1.22118 162 213 215
-0.0996687 -0.595839 1.84954 98 141 144
0.127546 -0.706735 2.27127 96 142 153
0.512776 -0.901852 2.983 121 175 170
-0.319638 -0.476708 1.44162 93 149 138
-0.29336 -0.484884 1.48575 122 167 164
-0.132099 -0.560509 1.7802 100 155 146
-0.0311934 -0.605415 1.96831 206 237 240
0.0044418 -0.618356 2.03296 110 147 143
-0.0526809 -0.582336 1.92361 98 146 128
1.74167 -1.45983 5.22814 173 222 224
-0.337876 -0.446638 1.39744 90 143 134
-0.2054 -0.504531 1.63736 108 146 150
-0.313318 -0.455128 1.4418 163 216 213
-0.417023 -0.408794 1.25282 156 197 192
0.796041 -0.972593 3.48031 101 148 139
-0.386682 -0.420894 1.30784 161 212 205
-0.397916 -0.415003 1.28628 86 119 115
-0.344286 -0.434396 1.38313 144 185 187
-0.056155 -0.556132 1.90467 125 178 169
0.224108 -0.682684 2.41988 95 164 131
0.0708527 -0.606594 2.13659 109 165 152
1.16735 -1.11334 4.14873 97 153 148
-0.363735 -0.41836 1.34282 168 204 204
-0.395799 -0.403934 1.28366 144 180 174
-0.370618 -0.409294 1.3269 158 196 190
0.10854 -0.610817 2.1994 95 157 133
0.809469 -0.926258 3.48307 103 167 155
-0.338638 -0.419048 1.38401 127 158 167
0.0727453 -0.589249 2.1313 90 153 137
-0.217694 -0.46542 1.60154 101 145 144
0.345877 -0.70658 2.63353 107 137 132
-0.336276 -0.417144 1.3862 101 137 143
-0.28719 -0.436314 1.47373 107 142 146
0.54699 -0.791542 2.99987 190 239 231
-0.404343 -0.387994 1.26108 168 209 204
-0.369638 -0.401485 1.3244 169 213 214
0.12223 -0.59609 2.21459 117 164 156
2.0355 -1.43941 5.71993 161 230 220
-0.255775 -0.440413 1.52677 111 160 158
0.555107 -0.777156 3.00829 117 173 162
0.129785 -0.592553 2.22606 101 159 141
0.90082 -0.920586 3.63567 119 180 170
0.0577097 -0.559422 2.0936 90 142 132
-0.192971 -0.455121 1.63639 126 174 180
-0.256061 -0.430087 1.52227 85 153 142
-0.155906 -0.466883 1.70117 104 159 150
-0.0517433 -0.505962 1.8908 109 155 149
0.163778 -0.592119 2.28098 81 141 123
0.287536 -0.640767 2.50621 115 161 169
-0.156177 -0.459344 1.69673 102 153 155
0.285853 -0.633309 2.50276 106 155 169
0.407264 -0.677978 2.72329 65 127 111
0.563286 -0.740925 3.00754 126 177 169
0.100754 -0.552905 2.16142 70 107 111
-0.348624 -0.383205 1.34647 141 181 193
-0.159526 -0.451891 1.68671 140 181 176
0.171609 -0.578403 2.28898 79 157 146
0.364202 -0.652659 2.64009 173 237 215
0.00748798 -0.512514 1.99219 120 160 155
-0.250614 -0.414312 1.52125 107 145 157
0.405737 -0.659766 2.70991 130 169 171
0.0581594 -0.523992 2.07998 110 157 149
0.0294545 -0.512308 2.02595 149 225 207
-0.381918 -0.362731 1.28111 160 202 195
-0.100634 -0.461454 1.78818 109 159 157
0.348361 -0.622069 2.5995 90 145 128
2.02973 -1.2734 5.64866 122 174 174
0.100647 -0.526656 2.15118 88 137 129
0.00454469 -0.490808 1.97578 94 145 138
0.0361601 -0.502513 2.03279 101 145 144
0.134821 -0.535174 2.20941 100 137 133
-0.0497719 -0.468939 1.87452 120 174 167
1.14967 -0.91225 4.05485 123 178 169
-0.283732 -0.382718 1.4481 147 181 187
-0.0683718 -0.452066 1.83473 130 168 186
-0.103944 -0.436805 1.7699 145 190 203
-0.253906 -0.378336 1.49342 206 234 245
1.29157 -0.914083 4.28807 98 167 154
0.386139 -0.591659 2.64949 112 159 157
-0.342607 -0.349036 1.3345 69 118 110
0.490919 -0.624027 2.83736 118 168 168
0.387918 -0.58816 2.65315 84 146 130
-0.322181 -0.351954 1.36774 183 212 216
0.321657 -0.560584 2.53101 113 166 156
-0.197638 -0.388083 1.59083 102 151 159
-0.0493929 -0.433586 1.85452 84 152 145
0.267626 -0.534935 2.42728 91 145 140
0.121459 -0.485867 2.16309 120 164 165
-0.288893 -0.356593 1.42344 108 140 145
-0.119694 -0.405573 1.72306 217 239 250
-0.344237 -0.337539 1.3229 82 129 120
-0.17001 -0.389112 1.63373 181 225 232
-0.184376 -0.383932 1.60869 115 161 155
0.540807 -0.617488 2.91888 101 145 146
0.676966 -0.66119 3.16475 106 158 164
0.0611078 -0.455537 2.04754 101 156 159
0.423804 -0.572014 2.70492 109 170 166
-0.285585 -0.34985 1.42404 100 138 138
0.619855 -0.63364 3.05658 108 140 145
0.390406 -0.558317 2.64355 112 172 166
0.713155 -0.663518 3.22892 109 153 152
-0.0300737 -0.422016 1.87851 115 159 166
-0.27679 -0.348538 1.43906 60 117 109
-0.310024 -0.33687 1.37614 96 147 139
0.337811 -0.531325 2.54286 99 161 161
0.625317 -0.616798 3.05863 100 165 156
-0.00775496 -0.415846 1.91062 202 234 239
-0.178404 -0.366477 1.60865 164 220 209
0.922672 -0.695063 3.59108 83 139 128
1.33467 -0.814269 4.33075 114 152 156
-0.276675 -0.33212 1.42555 87 131 125
-0.154949 -0.36336 1.64194 163 214 210
1.08958 -0.729092 3.88806 102 160 142
0.0366532 -0.413751 1.98462 111 154 157
1.10737 -0.722089 3.90898 91 142 122
-0.0222803 -0.386765 1.87116 87 149 143
-0.263484 -0.322742 1.44041 105 161 156
0.143312 -0.427706 2.16646 89 154 145
0.0452002 -0.3984 1.98633 93 141 135
0.132441 -0.403701 2.13464 87 153 148
0.308261 -0.44759 2.4451 107 151 150
0.43422 -0.480065 2.67103 105 138 157
0.487033 -0.492352 2.76559 123 170 178
-0.0487061 -0.353072 1.8054 95 132 140
0.419347 -0.468157 2.64173 145 181 191
-0.123181 -0.332275 1.6717 109 162 165
0.179271 -0.401932 2.20864 89 136 140
0.416971 -0.458915 2.63444 80 138 133
-0.118329 -0.32892 1.67835 121 157 163
-0.127542 -0.324403 1.65945 103 138 152
0.303294 -0.42194 2.42396 214 243 247
-0.00494766 -0.348575 1.87214 130 179 181
0.108286 -0.374087 2.07319 177 233 228
0.0910749 -0.369745 2.04435 184 227 236
0.341335 -0.425798 2.48601 99 137 149
0.379677 -0.43042 2.55216 109 151 158
0.673233 -0.4982 3.07771 132 172 191
0.315303 -0.411152 2.44026 187 225 229
0.897414 -0.536235 3.46871 124 166 179
0.392395 -0.414324 2.56745 143 173 184
0.517307 -0.441053 2.78972 68 118 116
0.468602 -0.425491 2.69965 96 136 135
0.224557 -0.36734 2.25582 145 174 189
0.0789945 -0.305228 1.981 192 228 234
-0.122755 -0.268438 1.62832 181 225 219
0.316854 -0.327438 2.38619 110 166 161
0.768961 -0.397542 3.17487 114 152 164
0.891078 -0.395525 3.38478 124 174 186
0.362615 -0.31164 2.45386 105 158 155
0.626026 -0.324748 2.90202 128 180 180
0.243979 -0.263321 2.22697 136 167 176
0.192992 -0.24916 2.12968 84 140 129
0.0899699 -0.2168 1.93753 72 122 118
-0.0965814 -0.202268 1.61868 162 225 216
0.316674 -0.222822 2.3206 98 141 138
0.646236 -0.211196 2.86726 124 174 180
0.391152 -0.190903 2.42551 120 166 167
0.135181 -0.136437 1.95287 100 142 135
0.292492 -0.0778664 2.1745 76 128 118
0.375954 -0.0681498 2.31616 85 141 128
0.0838906 -0.0804224 1.82159 74 131 128
0.851672 -0.0298092 3.11239 79 150 124
0.303783 -0.043374 2.17222 68 136 119
0.77905 0.245702 2.80122 86 133 161
-0.319912 -0.806643 1.5286 88 122 105
1.15958 -2.18154 4.24749 97 171 129
-0.317999 -0.806714 1.53246 133 191 167
-0.371076 -0.757661 1.43864 143 197 167
-0.410624 -0.720043 1.3643 81 129 111
-0.369402 -0.751489 1.43717 113 184 141
-0.366915 -0.751961 1.44361 64 81 70
-0.367793 -0.74699 1.4397 134 180 151
-0.364194 -0.743837 1.44493 113 139 115
-0.325644 -0.775004 1.51814 52 96 79
-0.418725 -0.69607 1.34645 104 124 129
1.67465 -2.52382 5.17336 65 102 76
-0.415573 -0.688219 1.3499 83 112 109
-0.367476 -0.722075 1.43133 139 196 163
-0.35157 -0.738214 1.46739 153 195 170
-0.343861 -0.729402 1.47619 139 208 175
-0.352445 -0.721118 1.45981 160 219 188
-0.389877 -0.69066 1.39692 122 160 162
-0.328436 -0.739257 1.50791 160 206 187
-0.316892 -0.740808 1.52527 72 145 123
2.08477 -2.8005 6.03013 61 106 89
-0.263211 -0.778579 1.62944 61 86 76
-0.260991 -0.780922 1.63628 57 91 85
-0.351572 -0.707363 1.46683 135 166 181
0.313029 -1.2479 2.70044 67 97 72
-0.338652 -0.711089 1.49043 90 112 123
-0.318056 -0.726951 1.52841 109 166 158
-0.343846 -0.705476 1.47976 100 147 145
-0.382429 -0.670121 1.40623 115 138 154
-0.231641 -0.782811 1.67909 51 97 74
0.280581 -1.2018 2.63734 111 144 110
-0.379235 -0.668978 1.4116 204 233 240
0.354437 -1.25468 2.77577 132 197 172
-0.39997 -0.650815 1.37191 166 232 221
-0.282513 -0.735926 1.58975 85 132 124
0.317237 -1.21012 2.69905 101 143 126
0.312461 -1.20636 2.69287 27 44 33
-0.279405 -0.736322 1.59648 87 101 107
0.134543 -1.06261 2.36812 71 100 84
-0.276482 -0.731579 1.60177 178 222 221
-0.259946 -0.740441 1.63096 93 130 134
1.95099 -2.51897 5.77172 142 224 201
1.98547 -2.53647 5.84513 76 123 114
1.59288 -2.2179 5.11689 114 155 157
-0.240222 -0.747424 1.66694 116 136 147
-0.342207 -0.669935 1.47381 135 165 170
-0.234509 -0.74994 1.67566 89 98 112
1.79242 -2.33664 5.47056 147 241 207
3.1297 -3.40023 7.97143 139 221 179
2.10348 -2.58905 6.08027 108 172 172
0.129401 -1.01473 2.35035 104 150 127
-0.371629 -0.637895 1.4155 102 156 143
-0.365613 -0.641837 1.42653 107 156 148
2.71633 -3.03303 7.22589 132 165 174
0.183185 -1.04297 2.44644 125 213 173
0.170462 -1.03383 2.42743 143 186 171
-0.35841 -0.639227 1.43878 100 160 149
0.154512 -1.01626 2.39402 132 198 163
-0.349306 -0.644468 1.45666 81 130 114
-0.291633 -0.685824 1.56416 107 157 153
1.69371 -2.19982 5.29262 99 156 147
-0.405895 -0.599688 1.34717 96 137 140
0.173951 -1.01453 2.43179 31 58 42
-0.272404 -0.685848 1.59783 114 156 161
0.255131 -1.05759 2.57208 150 205 178
-0.212709 -0.723157 1.70929 120 154 167
-0.257077 -0.690311 1.62347 113 162 170
0.938396 -1.5613 3.85926 65 137 115
0.186614 -1.00357 2.4558 66 112 100
-0.290371 -0.661801 1.56051 75 129 124
3.46782 -3.44231 8.61377 123 146 141
3.35137 -3.34917 8.38948 95 164 137
0.809437 -1.45055 3.61663 84 137 127
-0.191574 -0.725725 1.74598 92 153 143
1.2039 -1.73329 4.35683 68 148 117
0.804125 -1.43182 3.59948 70 116 104
-0.413857 -0.568838 1.32533 99 164 155
4.38914 -4.0729 10.3531 82 137 122
0.118439 -0.936027 2.32276 56 74 67
3.38064 -3.32748 8.44807 111 159 141
0.223128 -1.00663 2.5141 76 135 115
0.167064 -0.964497 2.41262 65 106 91
-0.176533 -0.722519 1.76853 119 175 162
0.773399 -1.3937 3.53691 131 178 175
0.16066 -0.955788 2.39908 140 194 181
-0.239286 -0.678966 1.6526 110 157 148
2.79521 -2.85669 7.33495 100 154 147
-0.264069 -0.660859 1.60524 118 175 160
0.188511 -0.964758 2.44486 122 198 164
1.51713 -1.91091 4.93423 85 96 93
-0.221739 -0.684146 1.682 98 124 140
-0.351693 -0.596341 1.43598 186 242 231
-0.223305 -0.680678 1.67576 202 231 246
1.52065 -1.91303 4.94569 74 88 84
-0.235525 -0.67266 1.65659 183 229 223
0.134773 -0.922937 2.34584 121 173 163
1.62849 -1.98059 5.15549 82 114 109
-0.345531 -0.596546 1.44708 94 151 126
0.202426 -0.967488 2.47176 95 133 127
-0.448121 -0.530631 1.25493 179 239 229
0.10228 -0.89605 2.28984 89 146 147
0.229525 -0.981403 2.52047 105 135 140
-0.397492 -0.560891 1.34877 104 152 153
-0.393972 -0.563518 1.35534 94 151 143
-0.18923 -0.695813 1.73866 104 139 152
0.405591 -1.09824 2.84261 161 222 196
0.225595 -0.974754 2.51623 196 234 239
1.14477 -1.61111 4.22676 101 126 130
-0.294013 -0.624524 1.54238 89 132 119
-0.185053 -0.694413 1.74509 113 144 169
0.116434 -0.895924 2.31167 190 229 231
0.193037 -0.943312 2.45432 105 142 156
0.307788 -1.01807 2.66627 173 246 224
0.831197 -1.37393 3.64437 180 212 211
-0.172329 -0.694194 1.76916 113 157 156
-0.15679 -0.704413 1.79702 105 138 147
-0.401629 -0.547209 1.33786 142 175 184
-0.159823 -0.700634 1.78922 226 255 255
0.380943 -1.06018 2.80521 85 138 129
-0.425336 -0.529101 1.29257 100 144 143
2.03058 -2.18229 5.89472 90 145 136
-0.405107 -0.541008 1.33107 196 231 234
-0.40149 -0.543653 1.33651 115 152 156
0.301385 -1.00096 2.6585 128 155 159
0.135598 -0.886476 2.34379 96 162 137
0.817652 -1.34272 3.61282 97 139 128
2.97524 -2.82145 7.6659 129 178 170
-0.442319 -0.515492 1.26042 137 167 168
0.470006 -1.10011 2.95874 174 224 224
1.13855 -1.55127 4.21866 174 227 217
-0.135597 -0.702168 1.83185 115 166 169
-0.442666 -0.512846 1.25831 208 232 232
0.309278 -0.98994 2.66228 129 184 181
0.460953 -1.09237 2.94695 94 128 134
-0.416568 -0.525436 1.30514 110 147 151
0.400663 -1.04462 2.83176 103 165 149
-0.402853 -0.52775 1.326 136 155 168
-0.185257 -0.661697 1.73465 112 162 150
0.981636 -1.41525 3.91123 103 162 154
-0.409387 -0.523466 1.31612 127 163 169
0.126083 -0.857034 2.31958 79 115 98
-0.390671 -0.533351 1.34894 90 131 133
0.877835 -1.34111 3.71568 75 106 97
1.10491 -1.49451 4.14779 79 138 124
-0.171991 -0.664886 1.75811 100 164 152
0.275373 -0.949445 2.59691 96 154 136
0.189408 -0.891776 2.43425 108 148 147
-0.297656 -0.58636 1.52377 160 222 200
0.209106 -0.902141 2.47205 104 159 150
0.806205 -1.28254 3.58286 217 254 252
0.868479 -1.30995 3.6968 120 164 163
0.899528 -1.32971 3.75035 195 233 245
-0.368205 -0.534521 1.38722 208 232 232
-0.198365 -0.634513 1.70457 181 231 227
-0.369628 -0.53207 1.38459 156 184 191
1.42137 -1.65443 4.7252 98 156 151
1.89107 -1.9466 5.60805 95 158 149
0.289956 -0.927258 2.61552 90 155 133
1.13636 -1.45942 4.19262 127 156 171
0.213991 -0.878035 2.47104 81 150 129
-0.391184 -0.514507 1.34101 185 225 224
-0.341062 -0.542481 1.434 98 141 150
-0.371898 -0.523875 1.3764 136 160 166
-0.239103 -0.600293 1.62557 112 162 158
1.14055 -1.4471 4.19595 133 160 181
-0.418756 -0.495087 1.28937 132 176 177
-0.241568 -0.591955 1.617 90 142 125
0.14587 -0.82124 2.3398 107 140 156
-0.372408 -0.517739 1.37255 172 217 220
0.176546 -0.839015 2.39764 96 121 131
-0.372312 -0.514853 1.36939 133 174 169
0.163848 -0.83118 2.37617 100 136 152
0.193988 -0.846676 2.42697 121 160 168
0.262209 -0.889402 2.55862 93 150 135
0.185416 -0.84025 2.41253 89 130 145
0.281822 -0.896851 2.59257 120 175 158
-0.391783 -0.501458 1.33573 99 146 143
-0.301991 -0.549404 1.50199 127 159 165
-0.0431001 -0.697787 1.98272 94 138 125
0.247578 -0.869462 2.5291 126 159 174
0.158325 -0.813633 2.3595 108 158 164
-0.388626 -0.499745 1.33956 109 147 147
0.284795 -0.885528 2.59551 121 168 166
0.880508 -1.24167 3.70065 117 173 162
-0.283318 -0.552705 1.5332 112 169 166
-0.238392 -0.578542 1.61791 73 147 129
0.0137832 -0.721241 2.08755 98 134 128
0.0107502 -0.717595 2.07957 112 165 152
0.92034 -1.2555 3.77395 119 169 157
-0.397682 -0.489454 1.31967 85 135 133
-0.272754 -0.55657 1.55148 100 165 156
1.00577 -1.29864 3.93332 135 160 176
0.0427334 -0.729708 2.13767 95 151 132
-0.38359 -0.486848 1.34217 109 168 164
-0.389959 -0.480366 1.32844 114 158 152
-15.0521 8.14632 -25.7771 151 208 205
-0.262929 -0.545467 1.5625 80 142 130
0.369351 -0.895707 2.74021 118 175 174
-0.243089 -0.553368 1.59808 114 163 161
-0.464152 -0.439332 1.19141 195 233 227
0.0784379 -0.727099 2.197 98 149 135
0.217582 -0.801348 2.45517 95 146 138
-0.224582 -0.559236 1.63198 196 233 237
0.353182 -0.867221 2.70412 122 148 164
-0.270548 -0.529631 1.54433 170 227 218
-0.180878 -0.576566 1.7119 106 159 156
-0.217768 -0.554806 1.64059 112 175 165
1.11468 -1.28619 4.11421 133 170 178
-0.341779 -0.488626 1.41039 112 162 150
-0.425497 -0.446024 1.25628 117 146 153
-0.220419 -0.54779 1.63267 115 166 158
-0.370519 -0.472074 1.35751 213 241 242
-0.426355 -0.44428 1.25379 202 236 236
-0.252272 -0.52843 1.57309 97 155 150
0.269284 -0.800406 2.54167 190 240 236
-0.26722 -0.518697 1.54593 121 162 165
0.313985 -0.823563 2.62452 80 137 134
-0.201404 -0.549599 1.66502 89 156 147
-0.117594 -0.59 1.81883 109 163 158
-0.165386 -0.565476 1.73053 98 162 156
-0.248001 -0.522558 1.57864 83 148 139
-0.174398 -0.557526 1.71239 114 164 164
0.268711 -0.78697 2.53689 99 168 155
-0.376546 -0.459126 1.34212 111 155 156
-0.36842 -0.46161 1.35357 103 159 160
-0.322631 -0.483878 1.43821 110 158 159
-0.103536 -0.592871 1.8475 95 125 136
-0.0759172 -0.604042 1.894 94 151 142
-0.24854 -0.518022 1.57464 184 229 226
0.227894 -0.759604 2.45727 132 167 171
-0.262825 -0.507771 1.54596 115 159 160
-0.2378 -0.51892 1.59228 114 154 149
-0.0801843 -0.592565 1.87926 203 232 236
-0.3194 -0.476687 1.44122 93 149 138
0.213253 -0.737999 2.42513 106 175 160
-0.300107 -0.483494 1.47454 217 249 248
0.0136291 -0.633883 2.05219 110 169 155
-0.408784 -0.431883 1.27668 92 119 115
-0.290859 -0.485406 1.49134 188 230 229
-0.283114 -0.488241 1.50492 200 236 230
-0.416347 -0.426117 1.26205 90 109 114
0.33771 -0.789373 2.64971 85 150 141
1.99871 -1.64391 5.71672 120 171 173
-0.333468 -0.459536 1.41144 117 171 164
-0.0950243 -0.568893 1.84557 109 165 154
-0.258124 -0.491112 1.54707 196 230 229
-0.404752 -0.42519 1.28068 164 202 202
-0.400823 -0.4266 1.28661 160 191 192
0.094457 -0.654642 2.19392 79 121 114
-0.408714 -0.420889 1.27101 156 189 185
-0.0651149 -0.575494 1.89963 108 162 149
-0.0526082 -0.582346 1.92365 97 147 129
0.0247247 -0.616403 2.06463 98 151 138
0.0136758 -0.609331 2.04293 93 154 144
1.63631 -1.41247 5.03508 79 135 136
-0.40615 -0.418452 1.2738 84 106 104
-0.39675 -0.422983 1.29364 181 216 220
0.159389 -0.676221 2.30732 91 132 125
-0.387542 -0.425479 1.30816 152 192 187
0.425616 -0.805091 2.80272 93 161 150
-0.211313 -0.502022 1.62776 189 236 227
-0.40479 -0.415991 1.27551 172 217 221
-0.392653 -0.422054 1.29904 99 115 121
-0.200515 -0.50536 1.64561 120 170 170
-0.313002 -0.455405 1.44238 179 232 229
-0.381821 -0.425655 1.31797 185 229 223
-0.158428 -0.521501 1.72233 93 146 137
-0.0438251 -0.575413 1.93499 160 216 205
0.151755 -0.666134 2.29187 119 152 171
-0.145778 -0.524979 1.74398 100 143 140
0.230706 -0.697186 2.43392 108 156 150
0.00785068 -0.593166 2.0288 118 174 161
0.265137 -0.711335 2.49798 80 142 126
-0.343851 -0.434738 1.38323 151 201 201
-0.375656 -0.420704 1.32554 161 197 197
-0.375145 -0.42113 1.32479 157 199 198
-0.165693 -0.510959 1.70527 95 149 144
-0.113778 -0.532938 1.79883 121 163 156
-0.346541 -0.431268 1.37957 165 199 205
-0.420783 -0.399355 1.24164 201 232 233
-0.0558714 -0.556071 1.90528 126 177 170
0.0335858 -0.594223 2.06958 91 147 136
-0.190625 -0.493819 1.65724 101 163 151
-0.296403 -0.447687 1.46472 101 160 152
-0.296912 -0.44709 1.46615 104 168 163
0.633302 -0.864613 3.17054 194 235 230
0.331275 -0.722518 2.61736 76 133 125
-0.184895 -0.487776 1.66086 117 177 167
-0.155113 -0.501472 1.71828 100 148 136
1.64618 -1.32642 5.02544 126 174 175
0.352392 -0.724511 2.65077 115 165 161
-0.173968 -0.490574 1.68197 113 160 151
0.277408 -0.689685 2.51071 85 150 125
-0.414478 -0.391957 1.24655 84 106 104
-0.0789259 -0.528946 1.85396 112 155 146
-0.382123 -0.401606 1.30291 140 176 176
-0.359316 -0.412157 1.34589 204 241 237
-0.276634 -0.445003 1.49597 102 155 152
-0.214445 -0.471652 1.61096 96 146 142
-0.303729 -0.433343 1.44615 205 234 238
-0.217388 -0.468187 1.60271 176 236 228
-0.157839 -0.491811 1.70872 102 161 153
-0.399088 -0.392795 1.27177 131 168 160
-0.287106 -0.436243 1.47405 107 142 146
0.132079 -0.610527 2.2372 108 164 153
1.40695 -1.18132 4.57756 129 180 182
-0.214968 -0.463805 1.60334 98 155 147
0.348989 -0.702479 2.63727 115 158 155
-0.395794 -0.390841 1.27572 143 191 185
-0.186866 -0.4731 1.65486 107 139 138
-0.207626 -0.462715 1.61583 102 149 153
-0.327622 -0.414696 1.39798 182 229 227
0.122379 -0.596012 2.21519 105 154 146
0.555161 -0.776494 3.00752 115 173 162
0.129963 -0.592402 2.22708 101 159 141
0.0576615 -0.559639 2.09251 89 141 131
0.0647826 -0.561724 2.10406 110 169 155
0.296184 -0.657849 2.52739 123 175 212
1.50441 -1.17338 4.73401 120 183 173
-0.307304 -0.411969 1.42736 99 135 141
-0.286094 -0.419045 1.46447 231 252 254
-0.192769 -0.455271 1.63608 130 178 184
-0.256077 -0.430036 1.52241 85 153 142
-0.190427 -0.455269 1.6405 216 247 255
-0.0896551 -0.495372 1.82374 121 159 163
-0.284881 -0.418629 1.4667 222 241 246
-0.107733 -0.485642 1.78378 112 163 156
0.00305356 -0.530815 1.99064 213 243 238
0.299847 -0.650678 2.52943 194 237 255
-0.372245 -0.383996 1.3106 142 174 173
0.655284 -0.794227 3.17924 109 172 156
-0.247473 -0.42913 1.53591 175 223 225
-0.27692 -0.417113 1.48131 205 234 239
-0.0697968 -0.495779 1.85424 103 153 151
0.758987 -0.834529 3.36591 97 144 136
0.248375 -0.620838 2.43289 96 150 127
1.53726 -1.1586 4.788 116 165 175
-0.156365 -0.459316 1.69663 114 162 166
0.286157 -0.633115 2.50434 104 154 166
-0.279788 -0.412103 1.47193 135 165 182
-0.145772 -0.461938 1.71458 180 228 229
-0.195972 -0.442208 1.62545 90 149 141
-0.315255 -0.397665 1.40867 97 151 146
0.10056 -0.552888 2.16128 70 105 115
-0.24472 -0.421286 1.53313 110 141 156
-0.0637883 -0.487375 1.86148 98 140 139
-0.342321 -0.38462 1.35595 106 149 146
-0.159756 -0.451755 1.68694 134 174 169
1.78206 -1.23219 5.2227 127 183 178
-0.251144 -0.4156 1.51878 144 183 185
0.455938 -0.68863 2.80666 94 148 141
0.48167 -0.697904 2.8533 89 155 136
0.0226816 -0.516151 2.01788 96 129 122
-0.250552 -0.414475 1.52081 111 148 156
0.0115401 -0.511574 1.99788 196 232 226
0.0344148 -0.520322 2.04051 201 236 240
0.851423 -0.838407 3.52119 99 166 151
-0.017916 -0.497595 1.94287 91 151 140
-0.0278432 -0.492374 1.92255 84 139 136
-0.115475 -0.45758 1.76131 132 177 174
-0.00731922 -0.49614 1.95917 98 147 139
-0.0697483 -0.471325 1.84394 190 231 234
0.24918 -0.591821 2.42187 104 163 149
-0.340269 -0.37562 1.35467 148 182 188
0.396055 -0.645458 2.69045 88 151 135
2.03445 -1.28024 5.66299 126 170 171
-0.116444 -0.450411 1.75772 137 170 179
-0.373541 -0.36114 1.29472 104 144 149
-0.329581 -0.374699 1.3708 140 165 167
2.04263 -1.28145 5.68554 122 174 174
-0.0635825 -0.466784 1.85015 93 161 154
0.00454289 -0.490665 1.97635 83 136 127
-0.309508 -0.375617 1.40425 103 158 149
1.18544 -0.92326 4.11127 107 167 156
-0.0894255 -0.447284 1.79925 137 176 185
0.23575 -0.561957 2.39054 125 176 172
-0.275141 -0.38263 1.46282 113 151 151
-0.357507 -0.355358 1.3154 204 233 238
-0.277773 -0.378265 1.45487 226 248 254
0.344101 -0.592945 2.58361 107 167 149
2.16965 -1.26831 5.88639 97 145 149
-0.353975 -0.35405 1.31983 104 144 142
-0.341647 -0.356216 1.34194 108 160 166
-0.141489 -0.421369 1.69864 201 232 235
-0.342711 -0.353333 1.33549 96 128 127
-0.275405 -0.373707 1.45661 84 126 119
-0.253888 -0.378357 1.49314 209 235 247
0.0184416 -0.46762 1.98488 92 147 138
1.29085 -0.91409 4.28623 98 167 154
-0.338567 -0.349826 1.34232 118 143 145
0.41287 -0.595104 2.69879 99 142 139
0.424802 -0.599575 2.7202 115 137 143
-0.00831014 -0.450625 1.93002 128 165 173
0.476156 -0.614996 2.81328 105 159 154
-0.322128 -0.351932 1.36785 187 214 218
-0.320673 -0.351268 1.37091 107 136 141
-0.194642 -0.390591 1.59856 108 154 161
-0.197764 -0.387741 1.59174 112 161 169
0.343512 -0.565442 2.56771 110 154 147
-0.184479 -0.390805 1.61118 207 233 249
-0.2163 -0.380004 1.55418 186 233 231
-0.202525 -0.383698 1.5789 185 225 230
0.267801 -0.534835 2.42796 105 158 155
0.55712 -0.633487 2.95699 125 174 176
-0.329019 -0.345288 1.3543 87 139 132
-0.288876 -0.356392 1.42401 97 139 144
-0.119643 -0.405397 1.72368 217 239 250
-0.0943018 -0.41405 1.7715 116 170 177
0.0426439 -0.457349 2.01837 171 219 213
0.047959 -0.457956 2.02567 104 151 148
-0.301988 -0.350213 1.39851 95 132 128
-0.18671 -0.384499 1.60451 196 228 234
0.625622 -0.647494 3.07378 114 162 156
-0.317603 -0.344505 1.36839 77 110 103
-0.313778 -0.344563 1.37513 99 145 133
-0.305475 -0.34717 1.38974 94 138 132
-0.115991 -0.40393 1.72894 119 153 166
0.206782 -0.505958 2.31484 112 149 169
-0.131808 -0.398487 1.70282 135 168 187
0.097828 -0.468539 2.11285 116 147 170
0.854539 -0.717592 3.48353 133 168 181
-0.334722 -0.337541 1.33884 77 138 128
-0.2815 -0.352933 1.43346 199 227 234
-0.149058 -0.391126 1.66753 109 152 169
-0.102798 -0.40561 1.75199 107 131 143
0.10976 -0.470979 2.13202 102 136 160
0.301809 -0.532925 2.4837 206 238 244
-0.285131 -0.349884 1.42557 104 140 140
-0.264091 -0.353476 1.46199 97 144 148
-0.0293256 -0.421788 1.88008 106 151 155
-0.0646842 -0.409487 1.81329 130 163 179
-0.0463311 -0.414295 1.84767 125 174 184
0.0596232 -0.445728 2.04113 98 161 159
0.337954 -0.532227 2.54173 106 171 169
-0.30644 -0.33814 1.38332 93 130 122
0.75896 -0.665336 3.30449 120 171 164
0.953984 -0.726486 3.65503 106 151 155
-0.00764975 -0.415738 1.91111 198 231 234
0.0354994 -0.428328 1.98773 116 154 158
0.210134 -0.480332 2.30569 122 176 177
-0.30109 -0.332892 1.38606 147 224 203
-0.178328 -0.366402 1.60895 164 220 209
1.37893 -0.843884 4.41837 102 168 157
-0.173255 -0.36519 1.61327 75 129 116
-0.157441 -0.36881 1.64178 156 209 199
0.0970889 -0.438091 2.09346 199 228 242
1.1824 -0.768185 4.05683 187 228 220
-0.0259515 -0.400761 1.87372 89 155 150
-0.161908 -0.360217 1.62729 106 153 145
1.04851 -0.713906 3.80699 87 136 114
-0.172845 -0.356712 1.60866 186 225 234
-0.262448 -0.331881 1.44806 98 146 150
0.150891 -0.44238 2.18525 136 169 184
0.15652 -0.441416 2.1928 102 133 148
0.0726892 -0.417004 2.04439 203 237 243
0.0835793 -0.419116 2.06506 97 155 154
-0.236211 -0.331032 1.49015 80 127 119
0.180889 -0.433244 2.22643 75 132 129
0.216356 -0.439439 2.28863 81 136 133
2.58279 -1.11012 6.53431 114 169 166
-0.281805 -0.311931 1.40463 150 230 213
0.0053875 -0.382434 1.91138 191 233 238
0.172319 -0.4264 2.21261 193 232 234
0.252601 -0.447092 2.35532 124 166 179
0.244555 -0.441941 2.33157 119 160 163
1.03134 -0.657747 3.75202 99 160 150
0.235844 -0.438547 2.32284 84 147 145
0.249718 -0.439449 2.34397 96 141 145
0.425371 -0.4852 2.66147 85 121 139
0.280652 -0.442946 2.39775 87 137 135
0.300314 -0.448656 2.43308 212 241 250
1.30718 -0.7081 4.23555 96 162 143
0.420199 -0.467708 2.6446 150 184 197
0.258453 -0.427554 2.35171 200 232 237
-0.134866 -0.331279 1.65156 105 158 168
-0.141076 -0.328496 1.63906 78 136 142
0.156765 -0.398619 2.16793 90 127 141
1.15553 -0.642736 3.95319 196 225 232
-0.129312 -0.3254 1.65708 102 130 147
0.167731 -0.394068 2.18385 211 243 248
0.0269667 -0.360192 1.9334 193 230 234
-0.0128472 -0.350234 1.85933 127 167 185
0.189407 -0.395653 2.2196 127 173 181
-0.119763 -0.324913 1.67264 171 217 228
0.360205 -0.432804 2.52294 86 150 144
-0.130413 -0.320826 1.65161 198 227 236
0.0917137 -0.369612 2.04345 190 231 240
-0.149721 -0.315902 1.61951 85 151 140
0.0421398 -0.354793 1.95208 131 169 181
-0.183704 -0.305902 1.5558 196 239 236
0.673482 -0.498069 3.07863 132 172 191
0.317204 -0.411094 2.43862 204 236 242
0.677162 -0.486098 3.07932 99 145 146
0.927015 -0.541523 3.52318 129 165 173
0.0854234 -0.347931 2.01878 207 237 242
-0.225108 -0.285085 1.47645 77 147 134
0.245233 -0.37926 2.29731 98 133 137
0.661033 -0.471124 3.04426 101 157 146
0.741228 -0.483316 3.18194 76 129 120
0.775454 -0.49033 3.24528 101 147 154
-0.236988 -0.278091 1.45076 93 143 139
0.141393 -0.351726 2.1144 114 165 175
0.246422 -0.371955 2.29682 81 121 133
0.0894025 -0.338835 2.019 196 232 232
0.300893 -0.376477 2.39011 88 115 125
0.346237 -0.381236 2.46053 111 157 151
0.382927 -0.38578 2.52981 103 143 141
0.882026 -0.487883 3.41796 76 135 127
0.442184 -0.390581 2.63207 196 231 234
0.897736 -0.479508 3.44318 98 153 144
1.24627 -0.546452 4.06142 103 163 153
0.12943 -0.320739 2.07194 128 162 175
0.176576 -0.328451 2.15499 81 139 134
0.541171 -0.393424 2.79735 121 166 170
0.986034 -0.474655 3.58487 108 162 155
-0.102664 -0.273633 1.6637 85 140 137
1.34125 -0.51485 4.19571 96 157 153
0.686046 -0.388754 3.03526 189 228 236
0.741774 -0.397948 3.13253 129 171 184
0.822565 -0.409591 3.27447 98 134 152
0.139228 -0.297391 2.07417 187 237 235
0.122826 -0.290313 2.04267 191 236 233
0.249261 -0.309485 2.26119 111 165 160
0.545301 -0.348993 2.77993 125 160 164
1.16305 -0.44104 3.86398 112 151 160
-0.132055 -0.245352 1.59634 176 220 219
0.638448 -0.34988 2.93768 90 143 146
0.68339 -0.356183 3.01477 111 157 164
1.24142 -0.430018 3.98222 108 154 161
1.25171 -0.428274 4.00751 97 134 148
0.388228 -0.299682 2.48778 114 158 159
0.105092 -0.262848 1.99366 120 159 161
0.169501 -0.260368 2.09824 104 145 148
0.462505 -0.293584 2.6074 197 238 241
0.436881 -0.286206 2.56248 107 176 165
0.451564 -0.288019 2.5864 189 232 235
0.184458 -0.252512 2.11675 76 129 120
0.510221 -0.288727 2.68722 209 243 243
0.192469 -0.248892 2.13106 90 143 133
0.166356 -0.245626 2.08336 119 169 167
1.28544 -0.370125 4.0331 91 151 143
0.36563 -0.262479 2.42689 190 234 233
0.291558 -0.252875 2.29584 108 152 153
0.280474 -0.243395 2.27348 119 176 168
0.157513 -0.228578 2.06058 83 139 134
0.540472 -0.256094 2.71697 94 140 134
0.0345198 -0.2119 1.84234 198 233 237
0.0979703 -0.207189 1.94306 111 164 161
0.036892 -0.200064 1.83615 210 235 237
-0.0425841 -0.1852 1.69552 187 227 225
-0.0419261 -0.185055 1.6965 194 226 225
0.214219 -0.195428 2.12724 111 158 156
0.372668 -0.197926 2.39639 95 148 145
0.492064 -0.196426 2.59709 185 230 233
0.391302 -0.190746 2.42607 114 158 159
0.561304 -0.198205 2.72255 106 166 156
0.0276128 -0.170366 1.79792 85 137 130
0.406314 -0.173869 2.43715 101 160 156
0.0057539 -0.155927 1.75297 100 157 149
0.724365 -0.169713 2.97784 96 153 144
1.02109 -0.176808 3.48123 101 166 157
0.0596016 -0.150021 1.83233 204 243 245
0.110862 -0.150444 1.92456 196 228 234
0.378877 -0.149249 2.37758 97 150 136
0.14718 -0.13963 1.97469 194 240 234
0.144666 -0.132944 1.96314 86 144 143
0.147564 -0.129029 1.96996 157 223 218
0.164013 -0.115222 1.98278 47 119 99
0.237399 -0.110211 2.10728 84 155 139
0.170729 -0.090729 1.97817 68 137 126
0.161961 -0.0764531 1.94885 185 222 226
0.775641 -0.0138721 2.9721 98 153 126
0.626484 0.145635 2.60845 89 126 116
0.775892 0.211125 2.8334 70 126 107
0.790219 0.22878 2.8407 156 194 176
0.802394 0.232292 2.86302 75 93 80
0.811052 0.233698 2.87649 116 159 138
0.820824 0.237787 2.89408 80 103 89
-0.369645 -0.751405 1.43751 114 183 140
1.18943 -2.17576 4.2977 121 207 167
-0.407837 -0.712962 1.36712 88 118 107
-0.367869 -0.746961 1.43982 134 180 151
-0.392334 -0.717731 1.38741 101 137 121
-0.377672 -0.729014 1.41617 76 111 97
-0.378795 -0.720588 1.4122 153 226 186
-0.422368 -0.683853 1.3378 105 134 138
-0.361858 -0.721485 1.44468 83 114 105
-0.34034 -0.736372 1.4864 79 99 86
-0.352445 -0.721118 1.45981 160 219 188
-0.317816 -0.749334 1.52594 82 116 105
-0.397989 -0.685127 1.38156 114 158 159
-0.331693 -0.737639 1.50542 79 100 97
-0.302287 -0.75258 1.54976 49 71 59
-0.355382 -0.708106 1.45814 174 228 221
-0.260825 -0.785061 1.63819 148 209 195
2.07904 -2.7956 6.01373 60 102 84
-0.351563 -0.707344 1.46696 140 168 185
-0.263912 -0.778261 1.63133 46 69 64
-0.258115 -0.778584 1.64268 87 127 122
-0.339097 -0.711057 1.48936 101 118 131
0.286563 -1.20611 2.64713 99 132 98
2.11047 -2.74844 6.08939 164 240 198
-0.379288 -0.668984 1.4115 197 228 237
-0.297101 -0.734606 1.57018 78 142 123
-0.399963 -0.650813 1.37193 166 232 221
0.126464 -1.05843 2.35608 92 139 107
-0.279586 -0.736413 1.59554 100 115 118
0.134228 -1.06261 2.36951 71 103 86
-0.215225 -0.779841 1.71028 56 79 74
0.305091 -1.18011 2.66793 136 212 180
1.68403 -2.31627 5.27856 90 151 141
-0.276415 -0.731583 1.60183 178 222 221
-0.242208 -0.75742 1.66561 97 134 130
-0.214778 -0.768015 1.71053 71 117 104
-0.234571 -0.749816 1.67659 76 86 104
0.129853 -1.01477 2.34899 125 172 150
0.139213 -1.01954 2.36586 47 66 51
0.169674 -1.03268 2.42235 108 157 141
0.725248 -1.46445 3.46331 56 81 67
0.128874 -0.998495 2.34166 50 62 44
0.211713 -1.06085 2.49399 122 174 150
0.219945 -1.06406 2.5111 155 230 192
0.796059 -1.49294 3.59969 83 133 131
-13.2503 9.34125 -22.9507 104 136 135
0.267307 -1.0668 2.58834 134 203 183
0.818324 -1.47842 3.64173 185 233 227
0.938396 -1.5613 3.85926 65 137 115
1.1292 -1.70395 4.21737 84 141 133
-0.29044 -0.661815 1.56035 75 129 124
3.46632 -3.44149 8.6109 123 146 141
0.773716 -1.39391 3.53885 131 178 175
0.130299 -0.928953 2.34136 56 85 76
3.47144 -3.23265 8.57801 118 165 156
-0.444143 -0.525559 1.26079 102 152 150
-0.39752 -0.54855 1.34365 133 157 169
1.5898 -1.87846 5.05823 117 151 151
-0.409314 -0.53974 1.32318 180 221 224
1.05702 -1.50021 4.05653 81 126 117
1.13343 -1.55036 4.20304 179 225 219
-0.409364 -0.52345 1.3162 127 163 169
0.12513 -0.856093 2.31688 79 115 98
0.672877 -1.20765 3.3411 90 116 132
0.894799 -1.35104 3.74715 100 134 128
4.43951 -3.67033 10.3802 114 140 140
1.04117 -1.43291 4.01824 141 185 186
-0.406872 -0.51235 1.31295 180 217 215
-0.398876 -0.518212 1.33059 124 159 163
-0.368374 -0.534594 1.38675 212 238 238
4.47077 -3.61097 10.4073 123 158 148
-0.40958 -0.507093 1.31047 195 229 228
-0.182461 -0.638367 1.7332 204 236 241
-0.395024 -0.512844 1.33374 106 143 151
4.89662 -3.86268 11.2169 117 164 148
-0.331338 -0.546989 1.45248 93 144 136
-0.463623 -0.469668 1.20571 118 162 169
0.647785 -1.12595 3.27942 92 138 139
0.206461 -0.852404 2.45199 109 128 136
-0.369446 -0.516063 1.37742 98 154 141
-0.03803 -0.701318 1.99434 102 161 147
-0.0202704 -0.707714 2.02628 81 118 110
4.31855 -3.34856 10.1283 124 171 169
-0.310705 -0.539005 1.48387 225 238 240
2.87557 -2.39537 7.42073 158 181 203
-0.0288185 -0.680147 2.00053 87 166 127
0.558281 -1.01811 3.09499 99 155 142
12.4961 -7.96391 25.2097 81 131 119
-0.213835 -0.567538 1.65109 102 154 144
-0.199772 -0.576559 1.68115 98 163 154
-0.224436 -0.559445 1.63123 198 233 237
0.107655 -0.730628 2.24907 102 157 138
-0.390175 -0.468535 1.32364 224 252 253
-0.203923 -0.558068 1.66419 96 157 147
-0.427273 -0.441131 1.25158 185 222 218
0.0993876 -0.703378 2.21608 105 148 135
-0.406549 -0.44726 1.28713 151 191 189
-0.353941 -0.471803 1.38282 107 146 144
-0.220231 -0.537114 1.62965 121 170 162
-0.102143 -0.592586 1.84264 100 127 141
-0.379921 -0.456578 1.33558 167 221 221
-0.420758 -0.427475 1.25511 80 99 102
-0.43923 -0.416769 1.22166 77 120 111
-0.413654 -0.423384 1.26465 150 183 186
0.00403745 -0.617863 2.03312 109 145 139
-0.412036 -0.420617 1.26714 92 104 108
-0.392319 -0.422221 1.29889 96 105 114
-0.381824 -0.42525 1.3192 190 230 228
-0.417029 -0.409025 1.2511 143 193 189
-0.422009 -0.405307 1.24333 146 194 195
-0.405565 -0.412427 1.27244 148 194 188
-0.36211 -0.426114 1.34868 209 237 237
-0.350957 -0.431558 1.37049 183 224 226
-0.378806 -0.418239 1.3189 88 122 115
-0.346753 -0.431147 1.37973 168 211 214
-0.388266 -0.412906 1.3034 158 191 187
-0.324631 -0.432739 1.41316 117 162 159
-0.401735 -0.396069 1.269 123 174 166
-0.214526 -0.472175 1.609 97 147 143
0.372425 -0.728847 2.68783 109 155 162
-0.305196 -0.433146 1.44383 202 230 237
0.0384884 -0.577688 2.06925 111 161 151
0.368829 -0.716677 2.67733 117 169 159
-0.350257 -0.409671 1.35738 106 155 153
-0.265163 -0.440015 1.51221 217 248 251
1.42235 -1.17118 4.59452 128 176 170
-0.17422 -0.470532 1.67333 120 151 144
-0.281339 -0.42245 1.47601 196 225 234
-0.286022 -0.419178 1.46607 234 253 255
-0.29304 -0.412662 1.45116 148 198 204
-0.277135 -0.418787 1.4818 206 228 239
-0.386933 -0.376996 1.28194 148 196 198
-0.157109 -0.459258 1.694 99 144 148
-0.244744 -0.421234 1.53326 110 141 156
-0.186999 -0.441845 1.6388 99 154 157
-0.0254014 -0.502982 1.93398 95 145 135
-0.113359 -0.465508 1.77047 125 182 181
-0.250554 -0.414472 1.52082 111 148 156
1.32424 -1.01013 4.37391 119 178 170
-0.120239 -0.445983 1.74792 210 236 242
0.387081 -0.621747 2.66683 102 176 158
0.031662 -0.490816 2.01975 105 152 149
-0.262804 -0.382901 1.48425 111 148 156
-0.332055 -0.356406 1.35746 100 144 151
1.84532 -1.12058 5.29162 84 141 140
0.391407 -0.597241 2.6627 198 239 241
-0.336922 -0.35001 1.34767 168 211 208
0.424779 -0.599718 2.71933 111 128 137
-0.323492 -0.352627 1.36922 185 216 225
-0.0190714 -0.4468 1.91199 90 142 149
-0.172983 -0.39341 1.63051 102 139 143
-0.298531 -0.352709 1.40523 192 224 230
0.676291 -0.663303 3.16369 109 161 161
-0.295004 -0.350055 1.40879 103 124 126
-0.282516 -0.352661 1.43138 201 227 234
0.711751 -0.661811 3.22016 113 157 156
-0.0650468 -0.410212 1.81423 108 141 157
0.0592809 -0.446268 2.04087 84 143 139
0.588133 -0.614313 2.9924 89 127 132
0.64794 -0.625866 3.09933 109 171 159
0.0691574 -0.438657 2.05172 106 141 145
-0.30126 -0.332737 1.38629 160 237 216
1.14168 -0.767804 3.98452 92 151 143
0.0210795 -0.419481 1.95912 216 241 245
-0.304737 -0.326304 1.37552 99 152 143
1.16498 -0.761557 4.02814 89 148 128
0.0327799 -0.411589 1.97632 176 216 221
0.144065 -0.437679 2.17008 227 242 245
0.213063 -0.449258 2.29365 102 147 151
0.180384 -0.433505 2.22491 76 130 130
0.391657 -0.473456 2.59648 133 171 183
0.258456 -0.427628 2.35143 198 233 237
-0.141076 -0.328496 1.63906 78 136 142
0.157335 -0.398894 2.1704 90 127 141
-0.102267 -0.329018 1.70258 107 164 163
0.380579 -0.430402 2.5525 103 144 153
0.417459 -0.424169 2.61784 100 131 140
1.0184 -0.545928 3.67677 97 128 137
0.235127 -0.36922 2.27931 221 245 255
0.268613 -0.374798 2.33512 131 162 177
0.195147 -0.360035 2.20741 121 175 170
0.300783 -0.376651 2.38938 88 115 125
0.368755 -0.382739 2.50843 213 243 254
0.382371 -0.386211 2.52765 88 132 126
0.361449 -0.379929 2.49437 113 157 158
0.495756 -0.386677 2.71845 101 139 141
0.493177 -0.379947 2.71218 222 242 247
0.587408 -0.376325 2.86422 223 242 245
0.623199 -0.383504 2.93412 130 178 184
0.557627 -0.333195 2.79121 128 173 170
0.176186 -0.268303 2.11704 112 159 156
0.178998 -0.260607 2.11595 212 244 249
0.322343 -0.261566 2.35463 109 160 152
0.224108 -0.200263 2.15006 87 118 115
0.214414 -0.194795 2.12905 111 157 158
0.186731 -0.157453 2.05546 211 245 239
0.10804 -0.145261 1.91267 190 228 228
1.19217 -2.17821 4.30665 126 212 172
-0.422212 -0.708397 1.34285 81 118 114
-0.366107 -0.750933 1.44429 42 58 47
-0.406846 -0.713434 1.37016 64 97 90
-0.317841 -0.779027 1.53496 30 56 43
-0.321286 -0.767916 1.52365 69 94 84
-0.331915 -0.737649 1.50505 84 103 100
-0.371899 -0.696828 1.42773 117 153 163
-0.252796 -0.781471 1.64941 158 223 208
-0.265821 -0.765861 1.62959 48 69 61
-0.297375 -0.738624 1.56865 78 130 120
0.347145 -1.24696 2.75673 107 165 136
0.359766 -1.24859 2.78511 44 63 54
0.115836 -1.04781 2.32969 84 101 90
-0.407891 -0.636424 1.3532 80 100 125
0.331441 -1.21201 2.72029 116 192 150
0.250934 -1.14066 2.55809 125 153 124
0.288177 -1.16732 2.64006 104 155 128
0.14055 -1.01969 2.37095 44 54 42
-0.280708 -0.704399 1.58736 131 162 177
2.52338 -2.88649 6.85729 142 174 179
0.186025 -1.05371 2.46775 115 188 156
0.187266 -1.05381 2.46732 106 176 146
0.169265 -1.03261 2.41959 100 147 131
0.21969 -1.06402 2.51038 163 238 200
-7.11685 4.70444 -11.3716 88 131 118
0.236664 -1.05974 2.54681 56 101 85
-13.2013 9.30237 -22.8644 105 136 137
-7.81841 5.15325 -12.6507 108 161 147
-0.256674 -0.692838 1.62802 109 156 170
0.179132 -1.00897 2.44306 146 208 186
0.385698 -1.15086 2.82047 134 199 160
0.110584 -0.946031 2.30926 62 95 88
0.402126 -1.15815 2.85128 49 90 75
3.50186 -3.46518 8.68705 78 110 105
0.276712 -1.05524 2.61524 133 194 174
0.859239 -1.47821 3.69923 82 139 124
1.20819 -1.74645 4.37616 111 188 151
0.761832 -1.40079 3.5262 82 116 110
0.18915 -0.985227 2.45071 98 159 131
-0.370765 -0.595138 1.40506 85 153 142
0.715988 -1.35006 3.42033 156 231 209
1.15758 -1.6788 4.26474 132 178 172
0.33024 -1.06463 2.70086 75 118 103
1.43094 -1.85523 4.77055 195 223 223
1.47918 -1.89234 4.8717 98 112 111
0.174027 -0.952378 2.42198 95 128 114
1.66113 -2.01651 5.21945 112 164 154
0.379932 -1.08836 2.79623 85 122 106
2.89927 -2.87743 7.53046 92 125 121
0.733068 -1.32915 3.457 161 214 204
-0.294904 -0.623901 1.54241 99 145 133
0.68684 -1.26954 3.35286 146 199 179
0.709508 -1.2422 3.40326 74 126 103
-0.399183 -0.517765 1.33191 126 163 171
-0.394854 -0.512742 1.3343 102 138 146
-0.324286 -0.527128 1.45762 84 139 130
0 0 0 122 187 165
-0.467623 -0.437029 1.18483 84 98 97
-11.7553 6.11048 -19.6675 118 160 143
-0.454307 -0.438863 1.20359 126 165 173
0 0 0 111 189 166
0 0 0 107 183 159
11.6238 -7.20248 23.5422 71 121 109
-0.422778 -0.444186 1.26035 179 217 219
-0.441686 -0.433845 1.22463 97 141 134
-0.0645163 -0.617175 1.9149 100 159 145
-0.409527 -0.436877 1.27641 159 210 203
-0.406446 -0.417946 1.27292 84 111 108
0.187121 -0.681582 2.35663 112 135 150
-0.416561 -0.408646 1.25138 154 200 194
-0.291453 -0.461033 1.4775 211 242 245
-0.364316 -0.427225 1.34679 198 233 237
-0.371549 -0.420124 1.332 85 112 108
-0.162261 -0.502615 1.70711 109 161 154
-0.35635 -0.41365 1.35314 92 89 98
-0.305388 -0.433005 1.44408 196 225 229
-0.358992 -0.400584 1.33905 82 107 103
-0.375092 -0.393843 1.31042 52 92 104
-0.226334 -0.447662 1.57977 216 243 247
-0.180533 -0.461741 1.65683 128 163 166
0.249942 -0.620229 2.43723 125 184 164
-0.367246 -0.378649 1.31186 189 223 229
0.102778 -0.552449 2.16342 81 109 133
-0.250738 -0.414969 1.51936 125 165 170
0.576457 -0.734876 3.02944 123 173 163
-0.0342822 -0.483117 1.91049 121 170 162
-0.12029 -0.445679 1.74893 216 241 245
0.035362 -0.502614 2.03091 99 147 141
-0.353058 -0.361979 1.32592 92 144 150
-0.278837 -0.377543 1.455 210 241 244
0.392284 -0.596734 2.66668 207 245 245
-0.172985 -0.392822 1.63232 115 153 157
-0.284583 -0.356884 1.43202 195 227 232
-0.0654967 -0.409735 1.81535 143 176 191
0.206666 -0.493401 2.30688 105 143 155
0.117252 -0.440814 2.12631 99 136 150
0.181457 -0.432761 2.22886 95 155 149
0.431251 -0.482132 2.66798 98 135 143
0.0814337 -0.381451 2.03901 192 223 232
-0.128334 -0.324908 1.6582 110 143 162
0.00891712 -0.34767 1.89462 203 234 237
0.0624146 -0.351476 1.98442 76 120 133
0.416345 -0.423697 2.61863 120 152 165
0.409874 -0.416331 2.5958 232 252 255
0.74006 -0.482909 3.18066 78 134 123
0.167231 -0.356481 2.15887 112 159 157
0.382073 -0.385469 2.53012 139 177 182
0.402164 -0.369683 2.55367 122 157 167
0.503623 -0.384138 2.72883 82 127 130
1.04863 -0.408715 3.6529 125 164 179
