ply
format ascii 1.0
element vertex 1251
property float x
property float y
property float z
property uchar blue
property uchar green
property uchar red
end_header
0.00825354 -1.5075 3.67851 82 149 134
0.549944 -1.48218 3.62229 100 140 138
0.387185 -1.48209 3.63092 149 237 213
0.521235 -1.47032 3.62028 240 255 249
-0.537627 -1.51537 3.73634 68 125 104
0.115238 -1.48398 3.67003 90 144 139
-0.499048 -1.50998 3.73703 60 97 95
-1.28489 -1.55132 3.84555 145 216 199
-0.383108 -1.49813 3.72143 178 237 229
0.880691 -1.42807 3.57404 173 223 211
0.560998 -1.44232 3.61618 81 129 117
-0.839637 -1.50163 3.78893 78 143 141
-0.208693 -1.46203 3.70838 131 183 166
-0.219127 -1.45567 3.70802 120 185 164
0.431621 -1.42229 3.64002 188 232 219
-0.451014 -1.44929 3.7383 154 208 191
-0.730201 -1.45765 3.77886 181 239 221
-0.865548 -1.45292 3.79135 82 151 138
-0.946275 -1.45627 3.80318 158 200 205
-0.581257 -1.4382 3.76164 178 231 217
-0.697236 -1.44113 3.77438 102 163 165
0.0326884 -1.41043 3.69269 218 237 242
-0.955752 -1.44931 3.80344 144 228 200
0.528042 -1.37816 3.62979 78 116 120
-0.715454 -1.42787 3.77585 159 228 213
-1.02499 -1.44058 3.81748 95 117 123
-0.887035 -1.43052 3.7977 175 232 224
-0.752381 -1.40868 3.77942 199 255 237
-0.458708 -1.39538 3.74493 212 247 237
-0.654187 -1.40286 3.77043 211 247 235
-0.418664 -1.39209 3.74112 186 233 217
-0.647299 -1.39716 3.76685 95 128 121
-0.460006 -1.38978 3.74767 197 223 223
-0.45965 -1.38972 3.74707 197 223 223
-0.172785 -1.37688 3.71509 85 140 113
-1.13732 -1.42247 3.84672 68 120 113
-0.189425 -1.3738 3.72224 125 199 181
0.601192 -1.33293 3.62299 166 229 220
-0.669446 -1.37294 3.77312 70 124 117
-0.585584 -1.36617 3.76495 201 247 234
0.321093 -1.33109 3.67119 140 199 184
-0.452288 -1.35297 3.75152 168 228 210
-0.305686 -1.34734 3.73269 90 130 129
-0.277191 -1.34499 3.73188 173 233 225
-0.395408 -1.33916 3.74135 133 188 163
1.6029 -1.25134 3.49493 159 225 206
-1.2049 -1.37887 3.86609 89 145 124
-0.550785 -1.33877 3.76548 98 145 137
-0.417779 -1.32172 3.74496 175 240 219
-0.074118 -1.3101 3.71102 140 194 181
-0.418174 -1.32205 3.74877 175 240 219
-0.527762 -1.32275 3.76163 93 155 139
0.121704 -1.29917 3.69292 172 236 217
-0.40297 -1.30669 3.74761 71 114 103
-0.431756 -1.30427 3.74591 90 127 117
-0.22386 -1.29821 3.73039 176 233 218
-0.158176 -1.29744 3.72896 67 132 123
0.831028 -1.25003 3.58905 174 227 218
-0.706745 -1.31552 3.78101 64 108 149
-0.528597 -1.30662 3.75785 91 156 135
-0.791034 -1.31902 3.80155 176 230 217
-0.5469 -1.29463 3.76385 61 133 110
-0.659665 -1.29434 3.77651 99 162 160
-0.841244 -1.30411 3.80922 203 218 220
-0.994644 -1.30908 3.83378 86 135 137
-0.531263 -1.28527 3.76591 66 142 118
0.0509928 -1.26054 3.70325 180 236 225
1.61677 -1.18817 3.49119 82 120 102
-0.883528 -1.29599 3.81771 94 145 148
-0.146784 -1.26667 3.72966 60 120 102
-0.143344 -1.25635 3.73035 57 117 99
-0.180772 -1.25183 3.73244 137 197 179
-0.48572 -1.25846 3.76595 61 106 89
-0.0088497 -1.23986 3.71727 165 221 208
-1.32795 -1.29577 3.89019 85 129 152
-0.554507 -1.25656 3.76869 156 240 211
-0.182005 -1.24334 3.73317 189 240 232
-0.5212 -1.24837 3.76562 165 227 209
-0.442401 -1.24497 3.75626 90 125 138
-0.731406 -1.25103 3.78951 76 116 135
0.246081 -1.21411 3.68655 137 204 189
-1.00695 -1.26503 3.84653 142 219 198
-0.133617 -1.21281 3.73054 80 140 130
-0.419649 -1.22006 3.75156 55 83 100
-0.593376 -1.2212 3.77206 44 103 89
-0.556783 -1.22208 3.77387 87 137 143
-0.0805319 -1.20638 3.73075 149 222 206
0.214977 -1.18372 3.69524 59 139 108
-0.811292 -1.22075 3.81526 79 154 152
-0.132797 -1.19205 3.73035 82 144 130
1.23641 -1.13275 3.55228 74 147 131
-0.247573 -1.18726 3.74428 87 150 134
-0.0410656 -1.17754 3.72336 165 225 215
-0.0378858 -1.17108 3.72218 159 223 211
-0.754673 -1.19039 3.80379 73 128 135
-0.755281 -1.19053 3.8067 73 128 135
1.24653 -1.10553 3.55648 180 239 218
-0.00568051 -1.15647 3.72036 67 115 127
-0.475572 -1.16923 3.76768 88 157 147
-0.732801 -1.17667 3.8008 161 223 209
-0.579997 -1.16541 3.76831 126 209 171
-0.258871 -1.15848 3.74706 155 207 200
-0.195783 -1.13301 3.73081 163 224 210
-0.805368 -1.15291 3.82347 201 234 227
-0.160177 -1.12164 3.72502 227 255 238
-0.56536 -1.13811 3.78204 160 221 201
-1.05312 -1.16199 3.86863 160 230 207
-0.663871 -1.1414 3.79638 146 196 214
-1.17361 -1.14826 3.88696 81 131 121
-0.501529 -1.10697 3.75626 97 183 153
-1.19359 -1.14411 3.88696 66 130 118
-0.778953 -1.12055 3.81927 85 134 136
-0.461128 -1.09842 3.75554 69 144 112
-0.352751 -1.08736 3.74127 59 115 102
-0.719296 -1.08627 3.80608 55 107 97
-0.427841 -1.06725 3.74625 85 150 129
-0.597836 -1.07548 3.78203 115 157 162
-0.122689 -1.05225 3.71461 222 255 252
1.28232 -0.986349 3.56279 108 133 135
1.46704 -0.955841 3.54517 90 145 136
-0.591286 -1.01094 3.76655 152 229 191
-0.59381 -1.00575 3.77059 67 132 100
-1.02302 -1.0249 3.87226 97 129 135
-0.0967929 -0.98099 3.71829 129 170 185
-0.748337 -1.00436 3.82676 104 128 156
-0.768844 -1.00259 3.83303 199 228 242
-0.108181 -0.718615 2.77767 107 121 140
0.0482688 -0.955647 3.72149 77 126 110
-0.534685 -0.928558 3.61466 198 226 233
0.0507273 -0.955256 3.7259 78 141 121
-0.616422 -0.960358 3.77985 76 155 128
-0.846442 -0.975233 3.84783 56 130 102
-0.691648 -0.954708 3.80474 75 149 123
-1.00013 -0.972361 3.88088 173 239 204
-0.711607 -0.952748 3.81266 72 131 117
-0.112784 -0.721631 2.88919 85 105 123
-0.675578 -0.946074 3.79108 64 145 106
0.978413 -0.901795 3.61762 89 136 134
-0.5844 -0.938802 3.77367 123 197 169
-1.04333 -0.959445 3.88617 76 125 117
-0.61649 -0.927422 3.77462 54 124 88
-0.658899 -0.918165 3.78827 148 240 189
-0.77788 -0.929119 3.84036 93 127 140
-0.588252 -0.915159 3.77847 135 225 189
-0.697845 -0.918727 3.80555 36 91 72
-0.646261 -0.906541 3.78807 65 141 109
-0.0726998 -0.891624 3.72625 93 155 149
-0.596326 -0.900191 3.77886 120 178 149
-0.641398 -0.898078 3.79138 75 121 109
-0.612264 -0.896111 3.78328 176 241 225
-0.0728101 -0.87897 3.72997 87 140 137
-0.605298 -0.887574 3.78045 68 106 84
0.122561 -0.871704 3.73091 192 245 242
1.32722 -0.835855 3.57514 183 230 221
-0.641519 -0.884345 3.79493 66 111 115
-0.96072 -0.903378 3.88029 98 128 139
-0.755149 -0.893454 3.83193 43 84 77
-0.8437 -0.895805 3.8574 58 119 109
-0.582266 -0.875442 3.7808 48 97 77
-0.111503 -0.668693 2.89368 117 128 148
-0.611865 -0.873869 3.78634 141 175 168
-0.602506 -0.872448 3.77949 91 147 134
0.0987148 -0.860532 3.73264 83 155 142
-0.610567 -0.86798 3.79135 161 181 168
-0.593442 -0.856261 3.78224 117 139 111
0.107574 -0.844015 3.73976 76 144 119
-0.773473 -0.865393 3.84546 57 140 115
-0.668005 -0.853243 3.80065 148 183 196
-0.68885 -0.85166 3.80481 64 122 104
-0.643186 -0.849434 3.79842 82 93 73
0.536555 -0.820741 3.68337 187 223 229
-0.0757132 -0.821691 3.73416 243 255 255
-0.753331 -0.840135 3.83789 154 214 203
-0.7111 -0.825056 3.82076 115 130 146
0.846968 -0.785404 3.64314 81 138 123
-1.01404 -0.841635 3.90622 92 145 148
-0.722058 -0.822425 3.82411 156 189 198
-0.72616 -0.822017 3.82771 135 164 178
-1.00816 -0.833846 3.90653 99 146 150
0.0677127 -0.79617 3.74111 149 170 167
-0.718892 -0.806661 3.82452 80 115 118
-0.97734 -0.821146 3.89959 71 136 127
-0.79995 -0.807035 3.85811 64 111 95
-0.163076 -0.871391 4.1682 96 107 137
-0.717919 -0.797961 3.82041 166 195 199
-0.810972 -0.798397 3.86842 145 193 195
-1.23813 -0.810375 3.93465 69 125 114
-0.9398 -0.800889 3.88933 131 191 183
-0.0804658 -0.763702 3.7383 100 144 151
1.76717 -0.71831 3.52702 122 135 127
1.95069 -0.708527 3.50115 109 148 132
0.580898 -0.742848 3.67966 63 117 100
0.536544 -0.74492 3.69062 77 153 135
-0.726748 -0.771706 3.83349 55 83 90
-0.810447 -0.768604 3.87594 117 163 170
-0.793384 -0.755671 3.86985 134 196 196
0.046065 -0.72653 3.74249 155 214 193
0.0267928 -0.714884 3.7409 135 197 173
-0.832054 -0.734408 3.86744 148 197 195
-0.799688 -0.735212 3.86795 92 158 153
-0.819752 -0.733246 3.86522 147 203 192
-0.816849 -0.731273 3.86671 97 144 135
-0.045217 -0.7032 3.75249 167 232 211
0.401338 -0.697256 3.71517 83 120 124
-0.758957 -0.722259 3.85881 67 100 96
-0.798711 -0.723943 3.87343 149 195 203
-0.85363 -0.721097 3.88702 72 134 110
-0.882034 -0.714472 3.90008 56 111 102
-0.840586 -0.708953 3.88529 179 231 221
-0.182932 -0.855022 4.69972 89 109 126
-0.745326 -0.698245 3.85222 118 165 157
-0.598196 -0.686876 3.79997 101 98 84
-0.706168 -0.688245 3.83501 104 116 96
0.603021 -0.653864 3.67799 69 133 103
-0.71196 -0.679892 3.83223 139 188 166
-0.137861 -0.636128 3.59268 104 114 124
0.609674 -0.649966 3.67612 90 137 121
0.0120882 -0.660732 3.75162 80 148 131
0.013316 -0.66065 3.75267 77 145 128
-0.0609295 -0.658457 3.7521 214 240 234
-0.725362 -0.664621 3.8521 140 169 166
0.964232 -0.629926 3.64558 140 217 209
-0.0634129 -0.64236 3.75743 201 236 226
-0.740675 -0.651173 3.86173 66 119 105
-0.825428 -0.643371 3.89362 217 250 246
0.608767 -0.60699 3.68276 75 128 108
-0.880119 -0.64212 3.90513 66 109 106
0.819612 -0.590899 3.66636 58 115 107
-0.837081 -0.625875 3.89715 179 233 220
-0.736161 -0.619416 3.863 145 166 193
-0.840955 -0.61918 3.89988 80 129 127
-1.30454 -0.614325 3.97129 73 125 107
-0.751549 -0.599621 3.87599 175 214 216
-0.0389243 -0.579348 3.75662 62 132 115
0.132582 -0.577536 3.74715 160 240 217
-0.0210301 -0.575164 3.75766 72 134 116
-0.717594 -0.584242 3.85346 155 172 161
0.00491534 -0.561262 3.76078 251 255 255
-0.0648573 -0.554691 3.7677 93 149 138
-1.19899 -0.577376 3.96215 159 244 222
-1.34858 -0.577429 3.9823 99 141 134
0.0497998 -0.544518 3.75292 89 155 136
0.113045 -0.543265 3.75499 226 255 250
-0.0144897 -0.542214 3.76038 174 231 222
0.424949 -0.537525 3.73351 73 133 122
-0.779112 -0.555347 3.89421 62 126 121
-0.783904 -0.5549 3.89679 69 133 127
-0.74004 -0.547487 3.88216 171 212 205
-0.843106 -0.550247 3.9139 62 131 110
-0.80084 -0.544515 3.8963 231 251 246
-0.800517 -0.535586 3.90093 163 209 217
-0.59067 -0.547356 4.04969 192 205 207
0.0119199 -0.504059 3.76771 88 133 124
0.191141 -0.503124 3.7503 98 149 135
0.608426 -0.49144 3.69554 54 109 92
-0.885384 -0.517765 3.92656 202 240 222
-0.725616 -0.510582 3.8851 74 112 106
-0.797954 -0.511709 3.91391 220 241 233
-0.89916 -0.512803 3.94194 254 254 254
-0.910055 -0.506797 3.93209 133 173 171
-0.0284299 -0.477272 3.77451 183 243 233
0.0320995 -0.476323 3.76958 234 255 248
0.122322 -0.474084 3.76089 78 133 130
-0.933372 -0.492554 3.93197 232 255 251
-0.829964 -0.468672 3.92474 81 137 124
-1.06817 -0.471605 3.96053 47 137 101
0.905335 -0.42895 3.67618 66 137 121
0.109568 -0.436324 3.77049 69 127 132
0.270214 -0.435952 3.76493 95 123 123
-1.00144 -0.456686 3.95415 133 196 180
0.10477 -0.431443 3.76788 199 238 230
-0.0412225 -0.428093 3.77796 218 255 248
0.930003 -0.413743 3.67102 229 255 240
0.914576 -0.405361 3.67384 154 219 197
-0.773442 -0.431936 3.91501 88 139 141
0.626056 -0.407112 3.70277 81 142 128
-0.878765 -0.431584 3.93293 219 250 249
-0.177849 -0.519443 4.74577 110 133 148
-0.967756 -0.430319 3.94671 142 222 187
0.449626 -0.407416 3.74817 247 254 249
0.4779 -0.316195 2.9158 56 116 98
2.00217 -0.376697 3.50118 113 130 169
-0.568833 -0.402397 3.8409 157 128 101
-0.858462 -0.405747 3.93288 123 176 156
-0.0575164 -0.390943 3.78529 156 223 202
-0.0535555 -0.382864 3.78401 166 240 216
0.606096 -0.369408 3.71198 136 204 173
0.666938 -0.358432 3.70091 70 144 120
0.164198 -0.362954 3.75887 88 157 154
0.474113 -0.358999 3.75043 49 116 101
-0.873278 -0.375279 3.94175 100 151 131
-0.445305 -0.290235 3.10333 180 191 189
-0.866344 -0.365863 3.94195 247 251 246
-0.834239 -0.365212 3.93473 189 237 231
0.151094 -0.348036 3.76275 72 132 122
-0.874097 -0.363007 3.94131 213 241 228
-0.768389 -0.359687 3.91952 187 232 215
0.139469 -0.342258 3.76836 134 193 185
0.138163 -0.341333 3.77357 148 206 201
0.13967 -0.341392 3.77332 144 204 194
-0.80207 -0.351298 3.92621 223 237 235
-0.755457 -0.351148 3.92076 72 135 115
-0.0689012 -0.336795 3.79403 157 222 201
-0.0166045 -0.332731 3.78631 176 239 213
-0.733885 -0.342194 3.90338 109 154 115
0.140244 -0.331268 3.7756 143 191 185
-0.748529 -0.332186 3.92103 129 190 164
0.699803 -0.312529 3.7026 85 132 136
-0.0533672 -0.319184 3.79266 120 173 164
0.125564 -0.316825 3.77658 244 255 253
-0.852068 -0.329223 3.94623 151 219 194
0.743389 -0.309076 3.70014 225 254 238
-0.0535911 -0.314331 3.79485 207 255 239
-0.0806422 -0.311915 3.796 79 131 124
-1.23149 -0.320365 3.99871 237 251 247
0.265042 -0.30124 3.78212 152 194 201
0.648689 -0.29232 3.71279 67 131 119
0.242303 -0.285152 3.78246 145 196 192
0.554866 -0.278091 3.7419 69 137 120
-0.794994 -0.284296 3.93589 86 148 130
-0.762783 -0.274741 3.9302 72 141 121
-0.714919 -0.270109 3.89288 97 119 95
0.143371 -0.260254 3.77914 58 131 105
0.164614 -0.260195 3.78759 125 180 163
0.145628 -0.256316 3.78126 137 226 186
0.237474 -0.257072 3.79104 135 188 208
0.199287 -0.256266 3.79406 64 129 104
0.519525 -0.247975 3.75185 55 114 94
-0.558748 -0.256562 3.89148 53 66 74
0.203926 -0.251106 3.79546 141 203 179
-0.00899685 -0.249271 3.79878 143 215 193
-0.023198 -0.246841 3.80007 56 127 107
-0.750042 -0.251059 3.93341 147 199 181
0.104731 -0.242931 3.78974 54 105 91
0.21262 0.3349 -5.28464 100 123 119
-0.965237 -0.245796 3.96825 72 136 117
0.000156116 -0.233551 3.8036 185 241 222
0.0619221 -0.233587 3.79466 147 199 189
0.000577508 -0.233632 3.80322 183 239 220
0.0196398 -0.214928 3.79993 81 139 128
-0.166534 -0.199545 3.65627 199 231 242
0.0753687 -0.203367 3.80302 223 250 247
-0.733071 -0.19791 3.93864 129 165 141
0.462156 -0.141228 2.83282 41 85 79
0.60981 -0.177616 3.73132 27 82 63
-0.0825796 -0.16906 3.81948 93 138 149
-0.0274705 -0.161506 3.81491 46 126 109
-0.722079 -0.132707 3.937 147 171 147
0.61135 -0.122995 3.73969 49 91 84
0.607 -0.117918 3.74443 152 207 190
-0.818292 -0.0964718 3.96324 86 161 140
0.753694 -0.0821938 3.72728 77 142 110
-0.0884253 -0.0597003 3.83319 229 248 255
0.616494 -0.042164 3.74502 205 236 235
0.696164 -0.012847 3.73715 75 152 125
-0.131181 -0.011022 3.85697 105 130 164
0.615675 -0.0107631 3.74271 181 223 212
0.142427 -0.00983648 3.82536 100 138 173
-3.30459 0.0467415 17.7879 145 180 170
-0.923772 0.0157443 3.99727 70 138 113
0.264206 0.0149228 3.83149 220 252 251
-0.720721 0.0255202 3.95228 49 95 82
0.781268 0.0408657 3.73741 81 153 123
-0.81659 0.0460967 3.97763 153 210 201
-0.8868 0.0852352 3.99892 177 239 221
0.61934 0.082628 3.75786 206 241 237
-0.14473 0.102762 4.30087 116 138 163
-0.793484 0.109671 3.98707 67 136 109
-0.717875 0.130375 3.96919 63 117 94
-0.718355 0.134918 3.97458 142 212 176
-0.350371 0.129028 3.72912 244 253 255
-0.0684288 0.13514 3.85807 81 127 121
0.61281 0.142292 3.76813 54 95 88
-0.970576 0.204867 4.0231 87 163 145
0.49275 0.200486 3.81454 58 117 96
-0.0783999 0.219291 3.86464 162 203 225
1.51793 0.286549 3.66566 55 121 102
-0.523043 0.296773 3.77957 101 104 109
1.34747 0.297112 3.69319 86 145 141
1.51784 0.306181 3.66526 161 179 180
-0.916907 0.356687 4.04179 104 160 155
-0.723951 0.398988 4.00254 53 121 96
0.0595882 0.397575 3.87547 83 146 136
-0.0810663 0.431585 3.90241 96 133 153
-0.0173942 0.432033 3.88892 68 130 114
0.904821 0.431776 3.77115 64 146 133
0.478649 0.443961 3.8445 75 147 127
-0.00925314 0.463957 3.89693 195 245 241
-0.700809 0.488463 4.00906 46 97 90
-0.716776 0.491548 4.00831 68 134 122
-0.684122 0.493106 4.00028 78 122 109
-0.0155051 0.508301 3.90098 195 235 223
0.747166 0.496097 3.79585 76 141 125
0.576207 0.504174 3.83436 206 238 244
0.560997 0.538622 3.83467 79 123 124
0.560811 0.540724 3.83989 78 122 123
0.619173 0.66691 3.84937 111 145 128
0.500385 0.684632 3.8634 50 118 93
0.808739 0.767312 3.82317 199 240 235
0.677823 0.805285 3.84221 60 138 107
0.624225 0.902049 3.85796 209 238 235
0.569816 0.917735 3.87935 63 131 100
0.624157 1.05791 3.87443 176 228 211
0.768427 1.18247 3.88244 144 200 177
-1.27533 -1.5612 3.83669 84 127 118
1.95941 -1.39433 3.43606 140 172 183
-0.306118 -1.50413 3.70901 138 152 158
-0.304896 -1.50457 3.71216 94 124 125
-0.110563 -1.48981 3.6815 128 175 153
-1.09522 -1.5382 3.8184 167 235 218
-0.470033 -1.50367 3.7304 177 231 218
-0.499636 -1.50397 3.73411 125 194 179
-0.295993 -1.48194 3.70855 171 217 211
-0.851432 -1.50789 3.78981 79 144 135
0.59961 -1.42543 3.61176 83 136 127
-0.865199 -1.47627 3.78841 67 106 108
0.425449 -1.4191 3.64023 202 248 225
-0.681371 -1.45998 3.76906 229 255 251
-0.631239 -1.45211 3.76189 63 94 91
-1.14034 -1.48276 3.84206 74 136 124
-0.624916 -1.44432 3.75928 65 109 110
-0.479168 -1.43641 3.74103 62 109 100
-0.947262 -1.45646 3.80115 157 204 212
-0.536924 -1.4322 3.75407 255 255 247
0.526177 -1.37715 3.62778 76 105 112
-0.939502 -1.44349 3.80583 151 236 192
-0.471307 -1.42114 3.74613 217 241 233
0.0437606 -1.39992 3.69085 71 121 117
-0.997323 -1.44629 3.81904 82 154 142
-0.474583 -1.41058 3.74588 219 255 246
-0.91824 -1.42904 3.80245 66 139 123
-0.7486 -1.41504 3.77995 83 157 139
-0.752812 -1.40904 3.78281 199 255 237
-0.6527 -1.40289 3.76644 176 238 224
-0.418553 -1.392 3.74022 187 240 226
-0.648297 -1.39753 3.76904 87 130 121
-0.670872 -1.39579 3.77309 83 146 136
-0.19065 -1.37346 3.72032 127 202 181
-1.17275 -1.41972 3.85554 182 236 219
-0.171859 -1.36763 3.71781 58 130 108
-0.171869 -1.36211 3.71626 133 228 184
-0.583934 -1.3664 3.76562 220 255 246
1.79079 -1.25059 3.45958 111 132 99
-1.17559 -1.38944 3.85052 137 152 148
-0.432635 -1.35139 3.74162 168 225 227
-1.32707 -1.39512 3.8825 212 244 239
-0.380451 -1.33289 3.73478 53 92 84
0.617777 -1.29071 3.62824 80 124 125
-0.413047 -1.32937 3.74416 84 135 127
-0.939389 -1.3528 3.82114 200 255 238
-0.418124 -1.32223 3.75083 182 242 218
-0.726381 -1.32997 3.78655 157 205 241
-0.403184 -1.30666 3.74731 72 118 106
0.831231 -1.25003 3.58906 183 236 227
-0.527951 -1.30604 3.7586 91 158 137
-0.393728 -1.30018 3.74612 78 124 112
-0.93872 -1.32214 3.82399 117 136 151
-0.309986 -1.28524 3.73994 239 255 255
-0.221237 -1.2755 3.73203 157 209 186
-0.307452 -1.27714 3.74601 226 235 215
-0.804979 -1.29561 3.80708 172 219 223
0.0513909 -1.26005 3.70434 183 239 226
-0.146559 -1.2666 3.72872 60 120 102
-0.852446 -1.29438 3.81809 245 248 253
-0.785196 -1.28668 3.80537 101 137 147
-1.03723 -1.29585 3.83927 91 147 136
-0.14348 -1.25634 3.73026 57 117 99
-0.826192 -1.28158 3.81691 128 137 180
-1.58246 -1.31509 3.91758 71 137 118
-0.82016 -1.27622 3.8157 209 241 247
-0.181555 -1.24353 3.7361 197 246 238
-1.11297 -1.2727 3.86109 77 141 119
-0.0704423 -1.21826 3.7238 74 138 133
-0.291687 -1.2245 3.74906 215 248 241
-0.133824 -1.21274 3.72937 87 148 138
-0.330979 -1.21718 3.74682 188 253 228
0.558433 -1.1849 3.65 195 239 238
-0.593919 -1.22129 3.77369 44 103 89
1.46538 -1.13657 3.51059 73 138 113
-1.42016 -1.26361 3.91341 80 124 111
-0.988347 -1.23299 3.84324 83 125 130
-0.0410636 -1.17754 3.72333 165 225 215
-0.37743 -1.18583 3.75355 75 138 118
-0.387505 -1.17802 3.75477 96 157 143
-0.755332 -1.1905 3.80602 73 127 138
-0.269758 -1.16337 3.75555 223 255 254
-0.546954 -1.16276 3.77849 142 205 165
1.07179 -1.08954 3.58041 80 137 122
-0.541055 -1.15071 3.78202 159 219 208
-0.977088 -1.16348 3.85169 64 111 102
-0.565738 -1.13808 3.78156 157 218 198
-0.7787 -1.12048 3.81702 74 122 123
-0.769552 -1.10542 3.81742 77 110 106
-0.636415 -1.09643 3.80014 159 215 196
-1.30438 -1.10041 3.91904 244 255 251
1.29228 -0.996205 3.55849 237 255 255
1.56222 -0.969112 3.53196 107 151 134
1.46679 -0.955754 3.54295 90 145 136
-0.913345 -1.02632 3.8551 72 104 123
-0.87876 -1.01335 3.85682 64 105 120
-0.0933483 -0.964464 3.7263 244 255 255
-0.58837 -0.959387 3.77889 228 255 248
0.0645732 -0.9086 3.73199 170 232 232
-0.761039 -0.928271 3.82522 108 140 146
-0.588335 -0.915169 3.77795 135 225 189
-0.0735353 -0.891565 3.72605 89 147 142
-0.751471 -0.912868 3.82532 68 118 116
-0.64194 -0.898081 3.79104 82 125 114
0.74247 -0.85375 3.65007 194 231 223
-0.604234 -0.877029 3.77898 153 216 190
-0.0347793 -0.863276 3.72497 237 255 254
-0.571884 -0.86903 3.78823 64 79 71
0.00900941 -0.855082 3.73186 70 123 110
0.747133 -0.831311 3.64562 75 127 127
0.783369 -0.827505 3.64068 175 226 212
-0.960441 -0.874858 3.89521 79 121 133
-0.686438 -0.851762 3.8028 60 118 100
0.0669941 -0.836222 3.73573 96 152 133
0.556093 -0.822233 3.68452 233 255 255
-0.569805 -0.843474 3.79579 206 240 239
-0.713877 -0.835655 3.81388 164 210 221
-0.714764 -0.832746 3.81821 158 174 173
0.605844 -0.793361 3.66856 155 211 200
-0.717356 -0.824069 3.82554 159 192 201
-0.712204 -0.824894 3.82417 115 136 151
-0.731605 -0.810994 3.83458 59 89 94
0.541829 -0.771602 3.68543 69 120 106
-0.0781537 -0.780239 3.74478 133 171 175
-0.946591 -0.806133 3.89023 69 127 116
-0.765587 -0.790881 3.84532 41 100 85
0.606896 -0.745678 3.66983 73 134 120
-0.0826184 -0.762152 3.74608 136 164 181
-0.813835 -0.784675 3.87075 76 119 110
-0.809889 -0.768619 3.87579 96 135 149
-0.8076 -0.768738 3.87418 88 122 135
-0.715137 -0.754324 3.83321 167 202 198
-0.0522969 -0.716206 3.74549 221 255 255
-0.842882 -0.7389 3.88225 81 124 133
0.403756 -0.702438 3.71463 229 253 253
-0.0452602 -0.703298 3.75124 167 232 211
-0.0598437 -0.694355 3.74569 253 255 255
0.605326 -0.667141 3.67706 70 137 110
-0.723797 -0.692705 3.83587 119 179 155
-0.744635 -0.690041 3.85122 139 192 179
0.0996629 -0.662965 3.74555 248 255 255
-0.793415 -0.684052 3.87876 159 216 191
0.0802842 -0.661213 3.7493 90 159 138
-1.45752 -0.698621 3.97502 81 114 123
-0.0599622 -0.658731 3.7511 223 245 240
0.964419 -0.62986 3.64623 142 217 209
-0.727189 -0.664569 3.85232 137 175 169
-0.0719463 -0.640217 3.75045 130 162 157
-0.899922 -0.666559 3.90426 231 255 246
-0.585796 -0.643186 3.8017 123 118 109
-0.825117 -0.643599 3.8911 217 250 246
-0.739152 -0.623437 3.86434 75 87 99
-0.742664 -0.622415 3.87466 84 112 129
-0.79703 -0.62155 3.89255 227 255 249
-0.726522 -0.612374 3.86808 81 87 86
1.76766 -0.557588 3.53288 73 134 124
1.0017 -0.571134 3.64464 81 137 132
-0.746128 -0.596616 3.88387 72 109 105
-0.563869 -0.577191 3.8403 38 76 94
0.112808 -0.543419 3.75371 221 255 255
-0.0762832 -0.535319 3.77645 246 255 255
-0.845898 -0.55021 3.91452 62 122 104
0.494172 -0.525023 3.72437 71 119 91
0.0776576 -0.522714 3.76086 100 161 151
-0.805828 -0.540784 3.90084 82 118 118
0.17064 -0.517827 3.75902 104 161 153
0.174096 -0.50973 3.75708 240 255 253
-0.624057 -0.576178 4.27291 194 206 206
-0.869906 -0.525083 3.92164 94 146 139
0.176655 -0.503243 3.75818 212 245 238
-0.90861 -0.515557 3.931 232 255 255
-1.14033 -0.516215 3.96573 57 140 108
-0.0778325 -0.46462 3.76492 91 150 142
-0.719214 -0.479037 3.89185 112 131 122
-0.829997 -0.468563 3.92555 81 137 124
0.272348 -0.440181 3.75875 243 254 252
-0.0796715 -0.437732 3.78878 127 159 164
0.269168 -0.433104 3.7604 98 128 129
-0.913874 -0.451701 3.94275 70 138 121
-0.792526 -0.447618 3.91727 211 241 230
-1.05435 -0.877876 7.6872 137 136 132
0.0712144 -0.422963 3.77413 63 128 129
-0.772169 -0.432509 3.9111 89 140 142
-0.0797169 -0.416448 3.77802 85 154 139
-0.870947 -0.42244 3.94304 81 127 104
-0.951449 -0.403739 3.94867 57 120 100
-0.0538726 -0.382673 3.78516 166 240 216
-0.0813872 -0.377171 3.78759 83 144 140
-0.814074 -0.379067 3.93013 174 236 212
-0.834587 -0.373927 3.93191 188 237 239
-0.786402 -0.373168 3.9229 190 238 210
-0.0404037 -0.354128 3.78362 75 147 124
0.137421 -0.353122 3.77572 60 117 102
-0.866189 -0.36594 3.94148 247 251 246
-0.832473 -0.365412 3.94315 209 245 239
0.151549 -0.346937 3.76911 45 106 96
0.69172 -0.339611 3.70232 78 139 113
0.0430676 -0.345036 3.7798 212 254 255
-1.10862 -0.358051 3.97999 71 136 115
-0.755277 -0.351101 3.9196 72 135 115
0.053434 -0.336925 3.78004 62 124 130
0.617744 -0.327276 3.71312 200 240 229
0.122462 -0.322644 3.776 93 147 147
0.0611103 -0.318176 3.78399 170 230 229
0.743442 -0.308946 3.70083 225 254 238
-0.721194 -0.316185 3.90049 112 154 129
-1.23143 -0.320148 4.00001 245 252 249
0.26535 -0.30082 3.7844 159 197 202
0.123009 -0.275209 3.7736 67 136 109
-1.11405 -0.27565 3.98857 131 204 166
0.145754 -0.256315 3.78127 137 226 186
0.204754 -0.251667 3.79156 129 191 169
0.518965 -0.247473 3.75536 52 114 96
0.102907 -0.242099 3.79105 29 82 68
0.0771804 -0.230538 3.79498 226 255 251
-1.04092 -0.234091 3.99021 187 239 221
-0.166473 -0.19979 3.65497 198 230 241
0.210389 -0.195704 3.79762 222 255 255
-0.795439 -0.189302 3.94691 218 250 239
-0.820838 -0.183843 3.95307 114 132 101
-0.0827479 -0.169306 3.81834 93 138 149
-1.04301 -0.137521 4.00548 95 175 158
0.0595096 -0.12656 3.81199 69 117 105
-0.726094 -0.112914 3.94243 131 183 160
0.61216 -0.0883761 3.7482 59 101 94
-0.0880443 -0.0880848 3.8305 232 255 255
0.124598 -0.079802 3.81747 244 252 255
0.140206 -0.0637899 3.82192 253 255 255
-0.724211 -0.0351532 3.95463 136 200 181
0.404466 -0.0360483 3.79607 193 243 233
-0.0733421 -0.0229187 3.82359 61 116 91
0.0453892 -0.00226005 3.83089 116 178 172
-0.841539 0.0370845 3.97684 205 239 232
-0.816707 0.0462178 3.97809 158 216 205
-0.714032 0.0573926 3.95672 131 177 155
-0.0990495 0.0612026 3.85077 204 229 249
-0.713906 0.0776284 3.95963 150 204 174
-1.23959 0.0921858 4.04823 67 133 108
-0.709123 0.113439 3.9587 56 97 69
1.10175 0.109081 3.70286 57 89 102
-0.806008 0.190107 6.04323 190 189 185
-0.71774 0.12958 3.96638 67 120 100
0.616009 0.130995 3.78247 54 98 91
-0.731723 0.146671 3.97216 72 143 116
0.612884 0.142059 3.76736 59 95 89
0.15986 0.164745 3.84483 251 254 252
1.11004 0.160619 3.70195 141 186 183
-0.46879 0.183001 3.75743 123 143 160
0 0 0 99 97 97
-0.0929841 0.257388 3.88017 234 255 255
-0.72188 0.299602 3.99529 48 103 88
1.22409 0.288986 3.70147 88 130 153
1.53568 0.285825 3.66635 133 188 155
1.18953 0.300617 3.7024 140 218 195
1.51847 0.302521 3.67225 55 89 82
-0.705745 0.3587 3.99153 47 88 61
-0.703944 0.371024 3.99639 120 165 138
0.0995918 0.387923 3.88197 103 144 146
-0.782157 0.415138 4.01957 70 135 136
-0.701406 0.416365 3.99731 120 177 168
0.160729 0.421264 3.88786 57 134 126
0.0175306 0.428341 3.8888 207 246 248
0.314817 0.429682 3.86968 68 108 120
-0.695348 0.452636 3.99782 64 99 95
-0.716649 0.491269 4.00756 68 134 122
-0.68196 0.493485 4.00007 60 99 84
0.769285 0.493607 3.80492 52 114 100
-0.0146609 0.509381 3.9038 210 240 227
-0.287406 0.566195 3.95154 141 187 174
-0.281027 0.574987 3.94932 118 180 168
0.617709 0.65762 3.83707 43 58 60
0.576836 0.822509 3.86761 81 117 93
0.71671 0.865353 3.84025 244 255 255
0.71631 1.01487 3.85863 207 243 229
0.62413 1.13049 3.88688 176 220 203
-0.861304 -1.54318 3.78845 251 255 255
-1.2767 -1.56166 3.83988 65 111 99
-0.97878 -1.54448 3.79691 225 255 253
0.521543 -1.46916 3.61666 240 255 249
-0.559542 -1.51883 3.74576 203 238 234
-0.50024 -1.50979 3.73627 63 96 92
-0.400984 -1.50309 3.72351 177 237 237
-1.09492 -1.53822 3.81852 167 235 218
-0.470043 -1.50368 3.73048 177 231 218
-1.36022 -1.55051 3.85345 101 131 142
-0.526012 -1.50455 3.73848 168 237 217
-0.555382 -1.50295 3.7436 100 153 144
-0.364775 -1.49491 3.72096 72 123 115
-0.269875 -1.49204 3.71331 49 78 83
-0.979756 -1.52299 3.79697 79 80 100
0.559379 -1.44294 3.62081 78 134 123
-0.664713 -1.49189 3.76113 222 248 230
-0.19618 -1.46652 3.70928 46 77 62
-0.208986 -1.46149 3.70407 127 181 164
-0.51956 -1.47493 3.73883 70 114 113
-0.273342 -1.46119 3.71226 68 121 108
1.06746 -1.39932 3.5589 87 145 134
-0.21956 -1.45562 3.7072 109 170 156
-0.183449 -1.45873 3.7061 111 170 150
1.85732 -1.35883 3.45867 63 93 82
-0.504112 -1.46645 3.74056 60 107 99
-0.688613 -1.47266 3.75696 74 108 108
-0.619055 -1.47156 3.75642 77 131 124
-0.560039 -1.46196 3.74634 71 119 120
1.36825 -1.36986 3.50842 253 255 255
0.0516508 -1.41983 3.69158 60 110 106
-0.938761 -1.45785 3.79966 85 120 134
0.0347025 -1.41508 3.69068 208 238 239
0.0412916 -1.40812 3.69603 89 114 124
-0.0997683 -1.40571 3.70307 245 255 250
-0.994784 -1.44692 3.81381 87 133 134
-1.02632 -1.44145 3.81826 118 134 140
-0.463698 -1.4139 3.74796 111 139 139
-0.443389 -1.41093 3.74264 199 241 230
1.69352 -1.31216 3.48065 234 255 231
-0.807348 -1.42488 3.79022 95 135 163
-1.03911 -1.4322 3.82362 146 220 208
-0.748227 -1.41507 3.78021 74 151 130
0.155218 -1.37528 3.68048 153 236 211
-0.499111 -1.4002 3.7534 89 138 136
-0.6533 -1.40326 3.7699 201 251 239
-0.369432 -1.39076 3.73124 186 239 225
-1.15472 -1.42754 3.84768 157 210 200
0.586526 -1.33849 3.62896 93 131 149
0.601793 -1.33109 3.61807 169 232 223
-0.329788 -1.37073 3.7317 139 212 204
-0.169753 -1.3624 3.71829 136 230 183
1.6099 -1.27677 3.49163 172 230 212
-1.1681 -1.40886 3.85595 69 134 119
0.187947 -1.34611 3.68457 185 244 230
-0.894898 -1.3831 3.80241 67 124 115
-0.765565 -1.3753 3.78267 109 155 166
-1.0925 -1.39442 3.84099 74 129 126
-0.722034 -1.3723 3.77614 49 114 98
0.984982 -1.29061 3.56775 76 130 131
-1.1808 -1.39163 3.86078 136 153 150
-0.573508 -1.3581 3.77058 255 255 255
-0.432632 -1.35142 3.74202 168 225 227
-0.99501 -1.37532 3.82579 69 145 133
-0.427946 -1.34424 3.75077 71 93 111
1.60283 -1.25066 3.49882 171 228 207
-0.189026 -1.3289 3.73244 69 134 112
-0.173709 -1.32726 3.7234 154 228 194
1.31459 -1.25681 3.52772 70 107 103
-1.1678 -1.36998 3.85605 131 151 146
-0.949706 -1.35619 3.81772 82 155 139
-0.40431 -1.32675 3.74137 124 171 155
-1.59013 -1.38808 3.91734 119 153 169
-0.938328 -1.35243 3.81713 200 255 238
-0.945244 -1.3461 3.82028 63 134 131
-0.207593 -1.31019 3.729 42 96 79
-0.399971 -1.31259 3.74637 152 221 184
0.13598 -1.29113 3.68832 169 234 219
1.64255 -1.22028 3.48867 113 106 89
-1.31924 -1.35504 3.88668 88 154 143
-0.579036 -1.31192 3.76243 177 227 215
-0.568689 -1.31429 3.76705 66 93 89
-0.47212 -1.31082 3.75494 84 134 122
0.831698 -1.25003 3.58723 182 237 228
-0.763105 -1.31737 3.78909 83 102 135
-0.935515 -1.32237 3.8251 90 126 144
-0.922323 -1.32008 3.81708 100 150 156
-0.914198 -1.3179 3.82017 243 255 248
0.907208 -1.23448 3.58205 158 223 221
-0.88248 -1.3112 3.81952 95 141 158
-0.836883 -1.30779 3.81226 229 250 235
-1.1453 -1.3212 3.85581 106 181 165
-0.832026 -1.30199 3.80868 156 147 144
-0.803801 -1.29951 3.80319 93 139 156
-1.38297 -1.32573 3.88968 100 121 123
-0.145574 -1.26632 3.72206 66 115 99
-1.01983 -1.3019 3.84073 83 136 126
-1.4934 -1.32089 3.90429 109 153 160
-0.823509 -1.28036 3.81133 126 126 174
-0.821181 -1.28024 3.80946 106 102 154
-0.00790467 -1.24143 3.72206 165 221 208
-0.179681 -1.24124 3.73143 209 252 241
-1.19271 -1.28485 3.8741 89 144 135
-0.710264 -1.25376 3.7895 43 81 123
1.47226 -1.15525 3.50157 89 144 129
-1.08455 -1.27226 3.86021 66 109 100
-0.464079 -1.23961 3.76325 101 150 142
-0.282606 -1.23059 3.73973 94 148 131
-0.85483 -1.25464 3.81351 84 121 113
-0.283585 -1.23121 3.74991 92 142 132
-1.06992 -1.26299 3.85652 78 145 130
-0.915139 -1.25564 3.83193 92 144 167
-0.541109 -1.23022 3.76774 70 121 117
-0.998861 -1.25391 3.84403 115 181 170
-0.401807 -1.22213 3.74297 136 174 192
-0.291167 -1.22469 3.75164 222 248 242
0.0102622 -1.21158 3.7192 101 160 156
-0.283381 -1.22137 3.75163 207 245 249
-0.132471 -1.21296 3.73299 86 141 132
-1.01037 -1.24757 3.8479 252 254 254
0.739862 -1.17552 3.624 62 115 101
-0.269606 -1.21405 3.74958 199 239 234
-1.01569 -1.23788 3.84917 76 100 106
0.215344 -1.18333 3.69461 52 135 103
-0.789787 -1.21958 3.81505 89 143 150
1.23603 -1.13262 3.55293 73 143 130
-0.874933 -1.22092 3.83894 95 151 140
-0.345449 -1.19385 3.7534 220 250 231
-0.978038 -1.2209 3.8485 193 251 226
-0.319002 -1.19264 3.7488 244 255 255
-0.390108 -1.1895 3.7558 75 129 112
-1.12942 -1.22592 3.87466 78 130 130
-0.378653 -1.1872 3.75715 78 140 118
-0.30004 -1.18344 3.75717 243 255 252
-0.832064 -1.19256 3.81837 90 145 158
-0.348516 -1.17252 3.76059 232 255 255
-0.577759 -1.17731 3.78803 66 112 83
-0.16398 -1.1625 3.73629 235 255 253
1.2439 -1.10456 3.55563 199 255 232
-0.269733 -1.16343 3.75698 223 255 254
-0.773403 -1.17382 3.80923 87 128 130
-0.581216 -1.16597 3.7808 132 227 190
-1.41282 -1.20537 3.91561 74 123 131
-0.787214 -1.17103 3.80979 159 231 218
-0.469897 -1.15646 3.76424 55 116 112
-0.796506 -1.16308 3.8187 54 102 96
-0.0765276 -1.13301 3.72231 73 151 127
-0.699634 -1.14323 3.78882 114 174 174
-0.898095 -1.15774 3.84545 85 147 141
-0.702356 -1.14354 3.79746 86 139 149
-0.684399 -1.14135 3.79909 105 156 166
-1.54377 -1.17564 3.92717 80 117 121
-0.152027 -1.1135 3.72542 127 169 144
-0.829978 -1.14228 3.83658 148 203 200
-1.20489 -1.15149 3.89462 98 166 155
-0.859953 -1.12779 3.84745 204 244 242
1.64202 -1.02521 3.51659 108 127 110
-0.675506 -1.10613 3.81044 112 149 147
-0.624322 -1.09105 3.79016 61 93 88
1.6554 -1.00757 3.51553 83 115 98
-0.687222 -1.09088 3.80862 157 217 217
-0.91057 -1.10185 3.86063 178 234 223
-0.101386 -1.05936 3.71035 82 144 130
0.0271009 -1.05839 3.71629 238 255 251
0.787509 -1.03387 3.63542 176 237 217
-0.951028 -1.08707 3.86714 75 136 108
-0.771147 -1.05907 3.82199 73 101 108
0.517343 -1.01778 3.67106 79 134 125
-0.759928 -1.0542 3.82601 82 118 134
0.56779 -1.00521 3.66392 203 239 249
0.558133 -1.00174 3.66882 183 221 245
-1.60172 -1.06604 3.94657 97 144 135
-0.648171 -1.01542 3.78869 51 95 88
-0.0524611 -0.966574 3.71547 80 143 123
1.58272 -0.909353 3.53079 166 195 210
-1.44586 -1.00625 3.9358 87 133 140
-0.847167 -0.974597 3.846 52 123 96
-0.566427 -0.940553 3.77802 215 236 234
-0.808133 -0.952465 3.84408 96 134 158
0.654306 -0.906407 3.66026 173 222 244
-0.148753 -0.916241 3.74628 94 119 135
1.395 -0.869652 3.56076 174 223 221
-1.04341 -0.941469 3.8966 73 138 123
0.00713534 -0.89206 3.72897 246 255 255
1.59229 -0.844186 3.5385 152 181 195
-0.720377 -0.904943 3.81441 49 93 70
-0.704509 -0.904988 3.80587 151 237 183
-0.629146 -0.898387 3.78414 149 210 196
-0.611408 -0.897211 3.78523 165 235 218
-0.0260139 -0.881649 3.72343 74 136 122
-0.0184424 -0.880872 3.73128 83 139 126
-0.633339 -0.897785 3.8064 162 218 207
-0.765035 -0.899063 3.83873 147 188 190
-0.650452 -0.887261 3.79719 69 147 110
-0.598499 -0.884025 3.78395 68 119 105
-0.619663 -0.882221 3.79298 181 228 226
-0.0326334 -0.862579 3.72949 251 255 254
-0.986932 -0.898962 3.89292 81 140 156
-0.830212 -0.891004 3.85677 165 220 235
-0.726705 -0.879137 3.82619 118 184 143
-0.610343 -0.871062 3.80406 156 174 161
-0.643428 -0.860194 3.79283 144 192 166
-0.890153 -0.877291 3.87514 152 220 195
1.62238 -0.797384 3.53731 168 203 217
-0.603771 -0.8471 3.78842 85 105 86
-0.853175 -0.858274 3.86885 79 139 145
0.539862 -0.820201 3.68292 220 235 244
0.596093 -0.819819 3.67908 74 112 94
-0.715228 -0.847561 3.82059 64 89 93
-0.00601046 -0.829234 3.73549 237 255 255
-0.671958 -0.83982 3.80465 132 155 157
-0.714238 -0.835627 3.81446 162 206 213
0.537948 -0.802471 3.66577 94 151 142
1.62446 -0.775526 3.54187 123 144 165
0.0766537 -0.815016 3.73821 73 138 122
-0.14726 -0.816517 3.75335 112 119 138
0.0095695 -0.814031 3.73817 132 182 172
-1.12722 -0.844591 3.92006 98 154 159
1.80879 -0.758259 3.51991 127 148 145
0.688079 -0.785004 3.65886 59 132 106
0.112116 -0.797786 3.73617 229 255 254
0.0604308 -0.794449 3.74032 243 255 253
-1.1301 -0.829849 3.91799 105 141 151
0.0679535 -0.79187 3.74166 240 254 248
0.00757133 -0.790569 3.73883 189 207 206
1.66643 -0.747922 3.54766 158 189 220
-0.936493 -0.818867 3.88612 65 123 98
0.549299 -0.773449 3.68488 54 102 84
-0.717954 -0.800527 3.82439 161 196 200
-1.58943 -0.82219 3.97239 83 127 128
-0.733819 -0.795635 3.83504 91 119 126
1.6617 -0.732365 3.54332 97 130 175
-1.40756 -0.812228 3.95753 85 156 146
1.76962 -0.719094 3.52362 139 150 142
-0.921549 -0.787603 3.88748 122 170 188
0.607459 -0.745264 3.67575 62 108 95
-0.750073 -0.780571 3.84516 69 105 105
0.606972 -0.745128 3.67761 90 144 121
-0.729118 -0.774018 3.83749 60 83 85
0.578488 -0.743218 3.67831 81 130 116
-1.11269 -0.787235 3.92371 83 139 116
0.609669 -0.724745 3.67667 59 102 99
0.705379 -0.720695 3.66751 199 243 237
0.632074 -0.716344 3.67177 66 135 108
-0.76286 -0.748864 3.85196 86 134 135
-0.878201 -0.756348 3.8948 235 255 247
0.613955 -0.712687 3.6725 212 239 243
0.609482 -0.703772 3.67547 53 103 91
1.87666 -0.670021 3.51266 114 163 141
-0.826353 -0.734396 3.86784 99 140 133
-1.00995 -0.739813 3.92041 86 124 142
-0.0373881 -0.701026 3.75796 85 135 131
-0.0601922 -0.694033 3.7496 252 254 255
0.608407 -0.679421 3.68157 65 131 112
-0.866767 -0.709361 3.89768 70 122 104
-0.738917 -0.701946 3.85909 53 71 64
-0.850445 -0.705085 3.88947 54 114 96
0.605878 -0.667086 3.67771 70 137 110
-0.0610763 -0.676241 3.75046 219 252 245
-0.706548 -0.688717 3.83529 92 107 86
-0.711575 -0.679607 3.83345 139 188 166
-0.793096 -0.683895 3.8808 144 203 175
-0.197149 -0.887785 5.0227 120 132 150
-0.0819186 -0.656369 3.76056 182 196 208
0.70306 -0.632584 3.67074 207 236 221
-1.46333 -0.598459 3.49131 103 176 138
0.0499676 -0.64324 3.75395 235 255 255
-0.0715651 -0.639355 3.75951 113 153 148
-1.34918 -0.667412 3.96919 80 114 127
-0.56177 -0.644102 3.82972 203 230 227
-0.0576572 -0.617106 3.76458 91 155 143
-0.763618 -0.627252 3.87641 69 124 129
-0.836944 -0.625533 3.90083 186 236 226
0.0946116 -0.600138 3.75291 251 255 255
0.698268 -0.586213 3.67272 81 150 123
-0.738038 -0.611621 3.8722 162 211 221
1.7665 -0.557885 3.5303 77 138 128
0.115781 -0.580781 3.75331 88 153 137
-0.0607246 -0.57595 3.76283 187 239 229
0.674308 -0.562985 3.68088 51 116 94
-0.0878903 -0.573109 3.76987 165 184 192
-0.744967 -0.588252 3.87795 127 179 172
-0.0916197 -0.565821 3.7695 246 249 253
-0.0612105 -0.562176 3.76466 249 255 253
-1.12212 -0.585317 3.95683 249 254 255
-0.052696 -0.551291 3.76426 242 255 251
0.16999 -0.549644 3.75359 89 163 139
-1.20276 -0.573163 3.96534 89 148 134
0.144932 -0.542116 3.75719 108 163 166
-0.855711 -0.562651 3.91742 190 236 214
-0.73595 -0.557101 3.88816 82 93 90
0.703364 -0.519376 3.67011 217 249 248
-0.84689 -0.549658 3.91933 72 134 120
0.641754 -0.515838 3.69044 49 110 90
1.0523 -0.507259 3.64336 73 127 138
-1.22237 -0.547887 3.96321 141 236 202
0.222073 -0.520267 3.76282 71 133 139
-1.1776 -0.546354 3.96846 227 255 232
0.170045 -0.517834 3.75891 102 162 154
0.128656 -0.512604 3.76203 105 161 150
0.146163 -0.513137 3.76305 121 186 170
-1.02169 -0.528198 3.94508 218 255 255
-0.010329 -0.503666 3.76387 162 231 220
0.199996 -0.498376 3.75911 157 214 199
0.170905 -0.49338 3.76156 182 236 247
-1.14104 -0.51553 3.97042 58 142 108
-1.15651 -0.507271 3.96879 58 142 113
-1.28921 -0.506134 3.98403 215 255 251
-0.0668948 -0.474888 3.77269 90 159 146
-0.974258 -0.494454 3.94349 184 220 228
0.0422247 -0.4693 3.7725 176 230 237
-0.804147 -0.485459 3.91542 90 132 139
-0.739334 -0.482146 3.89611 149 181 187
-0.0782438 -0.463717 3.77125 82 141 133
-1.2283 -0.488002 3.97958 77 136 122
-0.818218 -0.481875 3.92162 248 255 255
-0.735209 -0.475851 3.89797 80 95 91
-1.29866 -0.478302 3.99132 104 176 164
-0.839846 -0.460237 3.94112 225 255 242
-0.269907 -0.797818 6.87207 110 101 104
0.274026 -0.439733 3.75488 253 255 255
-0.0794838 -0.437242 3.79209 127 159 164
-0.836815 -0.450564 3.92816 84 130 118
-0.559991 -0.441673 3.8516 164 193 202
0.271876 -0.432621 3.76846 125 133 133
-0.0401267 -0.428146 3.77899 227 255 252
0.284409 -0.426944 3.76058 255 255 251
-0.862702 -0.444294 3.93054 96 154 149
-0.0199257 -0.425746 3.77806 208 250 239
0.277691 -0.425087 3.76582 82 103 101
0.931613 -0.413773 3.67146 231 255 240
0.0718854 -0.422991 3.77332 63 128 129
-0.865507 -0.437369 3.93658 255 255 255
-1.20957 -0.438072 3.98266 198 242 236
-0.877706 -0.433623 3.93504 226 249 251
-0.0801888 -0.415319 3.78107 95 168 152
-0.861446 -0.428291 3.92383 218 232 244
0.452869 -0.410255 3.74898 250 255 255
-1.2165 -0.435166 3.9863 203 254 246
-0.872255 -0.428623 3.93663 167 189 184
0.0933919 -0.41025 3.76516 88 147 143
0.500025 -0.405256 3.74037 58 102 89
-0.457019 -0.391931 3.67599 105 104 113
-0.837423 -0.414919 3.93059 184 225 210
-0.830873 -0.415809 3.9314 237 255 252
-0.7186 -0.409066 3.88604 110 137 121
-0.0382837 -0.398531 3.77844 230 255 252
-0.855215 -0.411505 3.92685 76 124 95
-0.944901 -0.411168 3.95012 145 226 187
-0.857784 -0.410555 3.9331 81 127 108
-0.0666003 -0.393021 3.78121 80 134 111
-0.698165 -0.398467 3.86711 113 142 117
-0.140187 -0.389542 3.80962 95 88 101
-0.981248 -0.402908 3.95965 65 134 119
0.132395 -0.372374 3.77103 157 217 199
-1.20211 -0.389431 3.9891 234 255 255
-0.0784962 -0.363941 3.78608 82 129 120
-0.87635 -0.37536 3.94156 72 108 94
-0.834239 -0.373796 3.93277 190 239 241
-0.873733 -0.370544 3.94442 181 214 207
-0.855853 -0.364395 3.94588 187 224 214
0.0429392 -0.344138 3.78498 205 250 254
0.151002 -0.346603 3.771 43 103 92
-0.754551 -0.350526 3.91736 65 129 110
0.0876068 -0.335766 3.78355 152 226 208
0.701893 -0.327345 3.70811 85 123 117
-0.531994 -0.324037 3.68648 192 225 234
-0.860493 -0.334367 3.94228 57 116 96
0.217116 -0.317362 3.78417 78 153 132
0.700095 -0.312496 3.70623 85 132 136
-0.923761 -0.325891 3.95482 71 124 110
-0.52766 -0.304332 3.68979 166 175 184
-0.138568 -0.315119 3.81434 104 119 138
-0.0755831 -0.315685 3.79486 157 229 207
-0.7214 -0.316101 3.90096 112 154 129
-0.727662 -0.314113 3.90157 54 77 63
-1.38372 -0.307365 4.01809 47 115 98
0.211273 -0.284012 3.78807 60 112 94
-0.659053 -0.281612 3.89069 127 99 64
-0.742626 -0.27519 3.9258 66 97 88
-0.00146584 -0.26217 3.7893 54 122 91
0.247462 -0.258019 3.79224 153 213 225
0.0796636 -0.255634 3.78088 123 217 170
-0.790021 -0.261328 3.94144 77 130 116
-0.75063 -0.258837 3.92631 91 117 103
-0.0226133 -0.25143 3.79085 68 133 112
0.203801 -0.251672 3.79149 141 203 179
0.519907 -0.247204 3.75761 52 114 96
0.022057 -0.246924 3.79408 42 101 86
0.0727953 -0.24747 3.78795 40 93 79
0.721237 -0.238631 3.70979 53 106 86
0.164161 -0.237953 3.78697 130 214 180
-0.557702 -0.237981 3.87814 211 223 225
0.208123 -0.23234 3.79773 127 179 172
-0.143412 -0.218147 3.64728 178 192 214
-1.04108 -0.233924 3.99109 187 239 221
-0.0714792 -0.223861 3.80335 104 157 144
-0.867202 -0.224663 3.96177 78 139 125
-0.0107464 -0.210087 3.8002 78 140 118
-0.766213 -0.214393 3.94843 62 115 95
-0.665275 -0.211322 3.90576 138 123 97
0.147354 -0.204428 3.80159 57 87 68
-0.645956 -0.206649 3.89905 118 106 78
0.219568 -0.201691 3.80008 87 148 138
0.211549 -0.195429 3.79947 241 255 254
0.702179 -0.188 3.71744 49 121 108
-0.0691207 -0.189921 3.80709 80 149 134
0.0770489 -0.188608 3.80887 227 250 255
-0.713937 -0.190163 3.91678 94 116 91
-0.737485 -0.181143 3.93887 59 78 59
0.162984 -0.173871 3.8023 55 115 104
-0.852124 -0.177196 3.96237 206 247 242
-1.15895 -0.173695 4.01161 80 143 133
-0.0763831 -0.157372 3.81336 114 184 184
-0.0166356 -0.15195 3.80822 88 165 144
-0.01453 -0.147398 3.81694 60 129 126
0.697783 -0.142408 3.72327 66 136 106
0.0939674 -0.138308 3.79652 182 214 225
0.0908256 -0.134771 3.81195 172 217 221
0.0718519 -0.132834 3.81337 50 77 68
-0.72523 -0.131975 3.93462 153 201 165
-0.857039 -0.124289 3.97471 192 244 226
-0.00861471 -0.118086 3.80784 248 255 255
-0.111444 -0.156765 5.46002 80 136 141
1.14897 -0.0920144 3.66829 62 85 100
0.611726 -0.0880393 3.74956 75 120 111
0.133134 -0.0826825 3.81883 253 255 255
-0.925318 -0.0743851 3.9894 236 255 254
1.15005 -0.0676937 3.67515 42 52 86
-0.721919 -0.0658249 3.94679 124 172 148
0.740678 -0.0630159 3.73986 60 126 97
1.15197 -0.0604998 3.67349 69 80 102
-0.922416 -0.0612234 3.9947 66 103 87
1.14412 -0.0528978 3.68506 152 194 237
-0.552424 -0.043811 3.91264 202 223 231
0.40552 -0.0348162 3.80094 201 242 234
-0.724423 -0.0357095 3.95232 139 208 188
-0.952027 -0.0318741 3.99973 164 240 216
-0.717382 -0.0295251 3.95007 41 64 49
0.039115 -0.0283183 3.82891 244 255 255
-0.13213 -0.0109466 3.85607 108 128 153
0.0209823 -0.0101582 3.82837 220 243 239
-0.0242926 0.00315609 3.83277 90 153 133
-0.718155 0.0117396 3.95319 175 197 173
-0.551379 0.0143693 3.91077 144 172 189
-0.717558 0.0325981 3.95883 94 143 121
-0.714386 0.0576631 3.95773 131 177 155
0.198937 0.0600925 3.83047 55 106 92
-0.721868 0.0629547 3.96587 111 171 163
-0.0782283 0.0626867 3.85139 200 232 245
-0.0764831 0.0818131 3.8436 83 122 130
-0.0371613 0.090938 3.84263 68 119 105
-0.0792458 0.0945382 3.85548 66 111 122
-0.712952 0.106937 3.9645 112 182 146
-0.608366 0.110486 3.92839 128 127 107
1.10009 0.106591 3.69456 53 82 97
-1.45067 0.124755 4.07552 85 145 134
-0.553856 0.122576 3.93161 237 247 247
-0.806163 0.190703 6.04627 148 140 133
0.61542 0.129072 3.77605 38 85 77
-0.791497 0.138892 3.99079 71 142 122
-0.731425 0.147053 3.9735 69 138 111
-0.129183 0.143624 3.88188 110 117 136
-0.708663 0.151338 3.962 100 143 122
-0.933516 0.166036 4.01856 74 140 128
-0.708686 0.164099 3.96898 60 90 65
-0.692227 0.204429 4.92881 220 232 236
-0.709457 0.172131 3.97062 128 183 150
-0.0116891 0.199468 3.8639 77 137 126
-0.823151 0.218367 4.00612 191 244 247
-0.076797 0.237574 3.87043 77 112 102
-0.716485 0.258723 3.995 105 173 156
1.51742 0.263264 3.65582 68 109 101
1.22416 0.273848 3.6905 163 234 217
1.59897 0.268282 3.64646 190 217 221
-0.710979 0.301605 3.98472 99 144 128
1.53746 0.277276 3.66115 57 63 62
1.42629 0.286359 3.67246 45 92 83
1.53627 0.286419 3.66804 123 176 143
1.59883 0.285055 3.65876 111 129 136
1.43279 0.290673 3.67445 144 209 193
1.14238 0.295901 3.71854 54 90 78
1.5705 0.292943 3.66594 179 233 220
1.1902 0.301471 3.70483 140 218 195
1.20315 0.299771 3.70007 55 102 86
1.25774 0.311835 3.69801 209 242 245
-0.716154 0.344705 3.99561 60 90 71
-0.709356 0.351625 3.99523 115 173 145
1.14993 0.330052 3.70819 44 94 82
-0.705927 0.359167 3.99291 45 86 59
-0.123319 0.35053 3.90533 118 131 157
-0.705461 0.371603 3.99804 99 151 121
0.0996903 0.388001 3.88219 103 144 146
-0.87432 0.414222 4.03775 64 119 104
-0.700003 0.445574 4.00304 127 186 182
-0.696068 0.453297 3.99962 79 122 119
-0.697079 0.485529 4.00393 48 75 66
0.989096 0.460152 3.76033 169 223 253
-0.0802518 0.498413 3.91019 82 149 140
0.714407 0.484303 3.79339 241 255 255
0.781892 0.487701 3.79754 55 119 100
0.769638 0.494194 3.80641 52 114 100
-0.67634 0.532335 4.00981 127 164 162
0.79957 0.520528 3.79603 70 138 113
1.22311 0.508993 3.71813 74 126 103
0.800285 0.526197 3.81014 58 122 103
0.777952 0.529704 3.80661 69 125 114
-0.665458 0.592675 4.02035 116 163 160
-0.28576 0.591232 3.95122 129 158 155
0.569701 0.528087 3.5372 44 71 67
1.7299 0.561376 3.65568 61 119 94
0.617048 0.655308 3.83172 41 53 57
0.624715 0.746773 3.83802 205 241 235
0.577488 0.824684 3.87222 89 128 103
0.624732 0.89057 3.84822 221 242 244
0.461365 0.90546 3.9027 78 139 103
2.06945 0.832331 3.53211 150 156 145
1.47992 0.954099 3.74208 65 108 95
-1.44565 1.09773 4.16563 200 230 255
-0.827848 1.08859 4.1135 232 253 255
0.626088 1.1138 3.88025 192 233 226
-1.059 -1.54035 3.80934 71 110 108
-0.508135 -1.50902 3.7333 99 133 127
-0.27956 -1.48794 3.71375 121 203 185
-1.0721 -1.52564 3.81674 105 141 141
-0.179739 -1.46583 3.70016 49 77 71
-0.246591 -1.4646 3.71104 128 187 159
-0.719728 -1.48085 3.77496 193 225 231
-0.50359 -1.4663 3.73932 60 107 99
1.76376 -1.35716 3.4677 158 225 186
-0.82583 -1.47978 3.78623 80 144 132
-0.862153 -1.47335 3.77999 67 106 108
0.0438289 -1.43043 3.68696 70 111 106
1.35271 -1.36083 3.51452 255 255 255
-0.585748 -1.45059 3.75841 214 248 237
-1.35899 -1.47886 3.86531 97 141 128
-0.262263 -1.41862 3.71749 128 188 178
-0.181297 -1.41917 3.71365 183 237 214
0.0419195 -1.40643 3.69281 89 114 124
1.89098 -1.31165 3.45372 92 143 123
-0.443391 -1.41094 3.74266 199 241 230
1.6907 -1.31087 3.47845 234 255 231
-0.809777 -1.42545 3.7954 98 135 163
-1.31527 -1.45227 3.87074 81 142 144
-1.13743 -1.44107 3.84542 100 148 172
-0.5762 -1.40575 3.76511 100 153 143
-0.33633 -1.38761 3.72005 61 86 72
1.25701 -1.31237 3.53291 59 113 120
-0.756213 -1.40223 3.784 97 147 143
0.587076 -1.33867 3.63086 104 144 162
-0.330112 -1.37093 3.73372 132 209 202
0.601829 -1.33107 3.61786 167 227 219
0.574876 -1.32432 3.63007 105 138 158
-0.162983 -1.35416 3.71802 66 128 104
-0.945736 -1.37891 3.814 68 125 116
-1.18237 -1.39169 3.86151 114 137 133
-0.141801 -1.34271 3.71929 57 126 105
-0.978706 -1.37554 3.81984 183 239 234
1.59923 -1.2501 3.49491 171 232 212
1.65547 -1.21932 3.48083 104 96 73
1.59454 -1.21439 3.49101 58 100 83
-0.932304 -1.32155 3.81534 103 152 154
0.5434 -1.26429 3.65378 149 170 191
-1.4622 -1.34315 3.90042 99 147 148
-0.307964 -1.28818 3.742 245 255 254
-0.295274 -1.28745 3.7383 95 135 134
-1.37184 -1.33707 3.89364 214 248 248
-0.882069 -1.31103 3.81746 87 130 147
-0.836419 -1.30743 3.80786 226 250 240
-0.164806 -1.27391 3.73252 55 120 105
0.051579 -1.26079 3.70696 183 239 226
0.621405 -1.23392 3.61824 241 245 240
