ply
format ascii 1.0
element vertex 1300
property float x
property float y
property float z
property uchar blue
property uchar green
property uchar red
end_header
-4.70905 3.24857 27.0098 156 209 189
0 0 0 155 206 198
-0.736101 0.874372 7.12125 122 141 126
1.26341 -0.486395 -3.32119 157 213 208
0 0 0 70 115 98
1.26022 -0.496066 -3.28954 160 220 214
1.13685 -0.436018 -2.72372 138 220 185
0.182795 0.294306 2.34261 62 73 70
4.5906 -2.62365 -19.6337 165 235 198
6.14759 -3.72152 -27.5944 111 170 156
0.15798 0.318886 2.46663 87 130 115
0.1731 0.307152 2.38647 99 115 104
-0.413015 0.757284 5.47484 119 181 163
0.209642 0.285879 2.18605 77 88 85
0.212696 0.2833 2.16436 139 179 174
-6.67049 5.26109 37.3348 130 159 144
0.156106 0.342373 2.49152 98 111 113
1.13746 -0.465588 -2.70475 97 150 123
0.167546 0.339542 2.43816 131 153 158
1.23764 -0.527164 -3.17776 82 111 88
-1.16142 1.35167 9.31415 105 134 118
0.100023 0.397663 2.80554 153 218 196
5.69385 -3.69522 -25.1899 71 151 114
-0.369893 0.762581 5.25532 84 102 95
0.173758 0.33691 2.40284 94 125 124
-4.62961 3.93251 26.7925 114 159 132
-2.07236 2.05017 13.9722 115 147 128
0.169618 0.340655 2.41868 172 212 200
1.48512 -0.694094 -4.35654 138 180 173
4.23318 -2.67803 -18.0031 157 176 155
-0.273582 0.697327 4.74454 114 150 138
0.145989 0.367565 2.53989 128 168 173
1.30972 -0.590791 -3.51061 69 101 82
1.44633 -0.682734 -4.15367 173 225 225
1.30489 -0.590984 -3.48032 110 162 144
1.43508 -0.68465 -4.13086 177 229 222
0.13399 0.394295 2.59086 154 180 194
0.187302 0.350142 2.30205 148 161 163
-0.663217 1.08114 6.75328 83 111 112
-1.60838 1.88957 11.5929 152 217 196
0.070166 0.469206 2.92968 92 164 151
-1.72813 2.00207 12.2187 151 202 188
-1.01413 1.40575 8.55313 90 118 112
1.34362 -0.656536 -3.66177 88 106 135
0.237601 0.299887 1.97653 61 99 93
0.104884 0.44626 2.73489 118 158 156
-2.41557 2.63565 15.7162 155 235 200
0.236238 0.307906 1.97043 84 116 115
0.182869 0.37323 2.30094 168 202 202
1.37331 -0.697998 -3.80169 104 132 143
-0.81788 1.29423 7.56762 61 94 73
0.123189 0.437808 2.63204 122 163 158
-1.13284 1.59226 9.15009 157 209 199
1.39518 -0.729219 -3.88841 92 133 126
-2.80465 3.15251 17.8322 97 155 137
0.22324 0.337231 2.04561 88 121 124
0.19781 0.372998 2.19344 106 131 141
0 0 0 82 132 108
-6.95958 7.02513 38.8491 102 163 143
0.224635 0.341831 2.03273 108 134 128
-1.01145 1.55877 8.55044 169 196 192
0.111196 0.475658 2.68183 160 211 203
0.154644 0.42569 2.43457 106 141 144
0.154994 0.425701 2.43448 110 146 146
-0.714508 1.29526 7.02916 134 177 168
1.22462 -0.618288 -3.05419 87 120 105
1.23305 -0.623517 -3.09723 151 217 228
1.761 -1.14838 -5.71169 101 159 135
1.60588 -1.00366 -4.89098 107 182 150
1.32669 -0.749359 -3.53423 97 157 127
-2.1571 2.92336 14.455 115 171 166
-0.954414 1.68046 8.27142 90 114 112
-0.863114 1.59859 7.80103 73 104 105
1.47115 -0.89911 -4.23193 95 160 128
-1.65682 2.47891 11.9358 158 224 213
1.40737 -0.884193 -3.88672 105 172 133
0 0 0 92 149 134
-1.11398 2.05426 9.0653 102 164 140
-0.840561 1.73541 7.6495 78 153 139
-1.51212 2.55695 11.1266 105 169 140
-0.860744 1.81125 7.7663 83 133 115
-0.694996 1.62729 6.92547 150 215 193
1.23372 -0.745937 -3.03621 161 231 194
-0.59282 1.54212 6.40955 99 170 153
1.18958 -0.712822 -2.81969 105 169 150
-0.628254 1.59819 6.58347 91 155 125
-0.660815 1.64709 6.7453 69 112 99
1.53151 -1.12797 -4.43234 77 106 81
2.39927 -2.24512 -8.90045 98 146 134
1.62871 -1.25712 -4.88994 100 153 133
-1.02315 2.2086 8.62219 86 146 128
-1.07623 2.30819 8.91768 164 227 217
1.27924 -0.85626 -3.22648 81 124 103
-0.265458 1.2277 4.67206 81 144 124
-0.447986 1.49377 5.64821 167 232 217
4.81671 -5.6733 -21.4609 83 140 119
-0.299446 1.2962 4.85278 164 202 202
1.20157 -0.784904 -2.83635 98 170 127
1.8235 -1.59535 -5.87753 50 98 74
-0.183743 1.15 4.23158 175 230 215
-0.107245 1.03674 3.80932 111 161 151
1.30107 -0.925298 -3.32045 108 161 122
-0.213121 1.21088 4.40174 140 189 181
-0.471147 1.60752 5.76701 86 153 138
-0.368419 1.45426 5.22033 127 180 170
-0.45209 1.58909 5.6539 85 144 123
1.14698 -0.7441 -2.58197 137 210 172
-0.210491 1.23011 4.37751 90 141 127
-0.15214 1.1377 4.0536 97 127 122
1.77416 -1.57892 -5.63563 72 117 91
-0.415572 1.55196 5.4753 74 132 121
-0.336636 1.4312 5.04591 89 118 109
1.32133 -0.973581 -3.39635 91 167 126
1.16862 -0.782804 -2.66647 129 202 170
1.64478 -1.41237 -4.93269 86 148 130
-0.0384593 0.983087 3.41498 99 136 128
1.11598 -0.726246 -2.42735 79 120 99
1.56366 -1.31627 -4.55491 125 175 145
0.0317768 0.86174 3.00179 83 137 130
1.12303 -0.739983 -2.46047 118 214 177
1.16655 -0.79409 -2.65945 120 203 158
-0.0715936 1.06136 3.58996 97 153 140
-1.55928 3.44968 11.4731 141 207 188
-0.0574687 1.05231 3.51366 93 139 133
0.0284573 0.895738 3.02101 90 110 98
-0.0972883 1.12474 3.73576 91 148 139
-0.00170469 0.95113 3.19482 97 134 132
2.02383 -2.06472 -6.87147 61 81 58
0.0666153 0.833872 2.78996 98 140 139
2.13698 -2.26915 -7.44938 128 144 103
2.01879 -2.08654 -6.84268 73 100 67
1.86508 -1.85974 -6.08434 126 195 152
0.0321183 0.910828 2.99957 76 93 89
-0.0565998 1.09473 3.48661 175 232 223
1.33892 -1.09237 -3.47551 144 229 197
1.30542 -1.05786 -3.32696 51 111 93
1.77809 -1.80541 -5.68916 143 224 177
1.3061 -1.06648 -3.33219 63 117 94
-0.610349 2.12311 6.50535 92 145 131
1.44556 -1.25645 -3.90276 74 92 75
-2.50897 5.40683 16.4784 86 143 135
-2.31218 5.09908 15.4613 101 160 156
1.44199 -1.26378 -3.893 127 205 174
-1.16212 3.14602 9.44328 94 163 152
1.44806 -1.27731 -3.90298 97 134 118
-0.861811 2.65162 7.87121 82 151 131
-2.20697 5.03613 14.9474 113 165 158
-1.21993 3.29482 9.75933 84 143 135
-0.763672 2.48351 7.3378 77 151 133
0.0154782 1.01631 3.06985 105 159 152
-0.658622 2.35535 6.79564 116 177 163
-0.98653 2.97929 8.55025 151 215 210
-0.0737073 1.24269 3.58582 85 142 127
-1.09722 3.21509 9.12505 95 154 139
2.24119 -2.87488 -8.25301 81 154 132
1.17043 -0.944958 -2.6568 120 149 170
-0.222328 1.60741 4.4254 84 137 123
-0.214514 1.60491 4.36194 156 209 195
4.63961 -7.74261 -20.9859 76 140 104
-0.289756 1.81902 4.79603 179 227 215
1.78583 -2.17402 -5.86692 141 210 183
-4.01167 9.38547 24.733 90 168 144
-1.45337 4.20775 11.0488 133 201 184
-0.185819 1.59035 4.19022 87 124 108
1.20832 -1.02342 -2.75848 97 126 110
1.21143 -1.03461 -2.7829 108 156 132
1.63748 -1.92262 -5.07941 100 158 147
1.59888 -1.86842 -4.89764 97 156 136
1.8955 -2.49342 -6.47071 93 147 130
-0.39471 2.1451 5.38705 106 143 139
-0.380837 2.13594 5.3269 102 142 130
-0.196549 1.72622 4.2886 104 150 128
4.19344 -7.61617 -18.8331 150 218 187
-0.451716 2.36265 5.74865 100 149 127
3.64376 -6.55083 -15.9269 150 207 192
1.15101 -0.98443 -2.46164 123 183 152
2.75279 -4.62571 -11.2054 82 151 124
1.96674 -2.86728 -6.96359 86 151 136
2.88807 -5.00574 -11.9152 63 111 82
-1.54912 5.05018 11.7744 147 220 204
3.54173 -6.59797 -15.3773 74 107 93
2.65519 -4.60212 -10.6982 125 176 156
-0.855343 3.57696 8.05091 92 157 131
2.51115 -4.37338 -10.0174 118 161 140
-0.650967 3.15775 6.97601 159 217 199
2.37878 -4.13497 -9.34257 137 198 172
-1.58978 5.58479 12.2278 64 112 88
-1.09396 4.33552 9.46165 150 192 157
-1.21979 4.65753 10.1707 130 191 157
-4.65324 13.6599 29.3524 75 117 100
-2.09003 7.05586 15.0325 131 187 166
2.59191 -4.86697 -10.6018 156 203 187
3.61272 -7.52728 -16.3168 91 156 134
-2.13116 7.23172 15.3634 125 176 156
2.23854 -3.95131 -8.62214 166 226 216
0 0 0 94 160 148
-2.65746 8.61452 18.2199 100 171 151
-5.97812 17.4205 36.8999 144 206 190
-2.56716 8.497 17.8709 79 111 92
2.17004 -3.85506 -8.32821 101 154 144
1.09788 -0.955296 -2.12875 100 134 103
0 0 0 145 210 185
-6.41005 19.0596 39.508 133 179 157
-1.75359 6.46584 13.341 81 106 96
-3.31151 10.8006 22.2201 88 135 109
0 0 0 122 163 148
1.96407 -3.43105 -7.22119 108 170 158
-6.18652 18.75 38.2913 96 146 136
2.12513 -3.91239 -8.16226 105 174 153
-3.43745 11.3392 22.9977 146 192 179
2.0535 -3.75077 -7.79517 126 179 159
3.20071 -7.02993 -14.3552 99 158 150
1.06833 -0.925812 -1.97847 89 149 118
1.16609 -1.23179 -2.59096 84 151 112
6.52294 -17.4362 -33.8278 121 174 164
5.56106 -14.5268 -28.1834 118 169 165
4.99518 -13.165 -25.1908 101 154 145
1.17375 -1.3497 -2.68809 98 154 133
1.04205 -0.946377 -1.87249 151 209 191
1.4421 -2.3271 -4.40405 133 190 175
1.03047 -0.930544 -1.81463 68 95 79
1.51842 -2.93908 -5.15123 105 172 157
1.43454 -2.85404 -4.78108 100 167 146
1.29959 -2.67443 -4.15569 162 217 200
1.32107 -3.07846 -4.59038 89 151 137
1.2144 -2.38209 -3.62788 105 167 153
1.19057 -2.30476 -3.49181 86 140 127
1.15647 -2.32398 -3.39568 103 157 144
1.10491 -2.10878 -3.03177 109 152 139
0.322585 -0.459924 1.37998 113 169 150
0.379962 -0.391179 1.2302 88 134 111
0.390495 -0.370606 1.17709 124 165 127
0.393581 -0.366068 1.16675 80 95 64
0.326151 -0.448372 1.38216 80 72 72
0.388865 -0.367548 1.18659 91 104 80
0.404577 -0.34332 1.11816 96 148 118
0.30886 -0.468442 1.43696 206 177 156
0.367762 -0.392511 1.2602 80 144 108
0.317809 -0.452869 1.41106 150 161 141
0.370114 -0.383639 1.25329 65 139 103
-0.0578629 -0.918537 2.24653 62 86 51
0.331587 -0.42641 1.36842 124 196 160
0.401417 -0.338535 1.13468 79 134 95
-0.106573 -0.973266 2.37872 73 75 76
0.386397 -0.35622 1.206 119 155 125
-0.237829 -1.11096 2.63625 99 96 111
-0.136187 -0.997137 2.45867 86 90 108
-0.122901 -0.984135 2.43407 121 137 150
0.314016 -0.441727 1.44366 201 187 169
0.386948 -0.352082 1.21033 30 45 24
-0.204429 -1.06503 2.61996 95 92 117
0.344959 -0.40271 1.35616 229 235 212
0.402901 -0.31617 1.11258 121 172 144
0.3865 -0.346166 1.21618 113 161 119
-0.243292 -1.08675 2.79526 255 255 255
0.339967 -0.394673 1.38669 237 231 208
-0.0611831 -0.874952 2.43089 107 165 124
0.393399 -0.311691 1.15247 62 127 101
0.337794 -0.390041 1.40096 238 215 183
0.349817 -0.369279 1.33879 77 140 96
-0.157814 -0.973938 2.6867 137 151 174
0.398493 -0.301814 1.13574 43 62 47
0.375279 -0.339786 1.26995 68 111 84
0.386097 -0.31677 1.1881 42 92 74
-0.15129 -0.960659 2.70747 128 134 157
0.34866 -0.362515 1.34942 42 68 55
-0.0856818 -0.87029 2.57122 127 185 137
-0.0539471 -0.843424 2.52077 68 58 51
0.369782 -0.336106 1.28916 153 215 175
0.250092 -0.494789 1.74075 244 233 211
0.333351 -0.379963 1.42785 255 253 252
-0.200239 -0.997178 2.87215 137 132 163
0.393519 -0.296494 1.1618 91 174 135
-0.42763 -1.24781 3.44857 138 183 180
-0.0310318 -0.812038 2.49169 93 98 83
0.240666 -0.498744 1.77191 161 163 173
0.396033 -0.290939 1.14643 54 98 67
-0.0457028 -0.828602 2.53506 125 127 127
-0.00625813 -0.783244 2.43038 105 141 105
0.335031 -0.369359 1.43005 247 248 244
0.360253 -0.33655 1.31703 129 183 148
0.382452 -0.303547 1.20576 53 94 67
0.38735 -0.297525 1.18781 89 134 101
0.345937 -0.345084 1.35995 118 179 135
-0.053104 -0.826027 2.58276 140 151 159
0.332533 -0.36788 1.4415 176 125 93
-0.19736 -0.977961 2.95871 240 225 216
0.342075 -0.346759 1.37914 144 185 153
0.389267 -0.292008 1.18478 90 163 113
0.391019 -0.289728 1.17468 117 189 136
0.392239 -0.287528 1.17176 23 40 29
0.344088 -0.34003 1.3734 125 163 135
0.391523 -0.286116 1.17906 46 107 81
-0.320922 -1.09833 3.32822 133 180 172
-0.285855 -1.0566 3.21603 216 231 247
0.33062 -0.361696 1.45467 171 126 89
-0.299213 -1.06393 3.27658 140 139 155
-0.138859 -0.894565 2.85159 105 162 117
0.328749 -0.359536 1.45866 217 196 169
0.327133 -0.358816 1.46866 191 145 114
0.362254 -0.314739 1.32295 75 97 72
0.32377 -0.359134 1.48514 233 210 194
0.324901 -0.35703 1.47888 255 255 247
0.357887 -0.316954 1.33938 179 243 208
-0.362318 -1.11455 3.51999 143 182 174
-0.299994 -1.05094 3.33723 151 168 201
-0.239001 -0.987647 3.19242 255 255 255
-0.16613 -0.906258 2.98911 136 190 153
0.359617 -0.311262 1.32881 162 221 193
-0.216752 -0.955583 3.12904 226 243 246
0.390167 -0.275142 1.18723 77 124 78
0.394856 -0.271124 1.16874 87 125 97
-0.167241 -0.888566 3.04664 108 159 115
0.393172 -0.265273 1.17789 37 45 34
-0.200044 -0.922976 3.15349 119 133 121
-0.258026 -0.973282 3.34356 212 229 225
-0.361391 -1.07205 3.64973 142 174 163
0.391318 -0.258912 1.1938 106 165 127
-0.0131054 -0.695244 2.66885 111 175 133
0.336997 -0.308622 1.42572 62 80 63
-0.0790208 -0.754308 2.86332 56 97 65
0.363781 -0.284332 1.33333 125 166 138
0.334902 -0.308252 1.43459 143 191 162
0.350757 -0.293445 1.37233 73 101 78
0.361293 -0.285467 1.34385 56 102 79
0.311946 -0.335142 1.54708 237 211 194
0.345933 -0.296196 1.39586 69 112 85
0.313682 -0.330864 1.54613 255 255 254
0.388683 -0.252783 1.20932 90 145 106
0.226909 -0.43096 1.90777 141 117 135
0.365902 -0.277856 1.3338 54 73 52
0.223302 -0.43036 1.92575 255 255 255
0.364628 -0.273221 1.34107 108 179 139
0.369448 -0.267633 1.31896 44 98 85
0.33658 -0.294344 1.43594 128 193 144
0.327413 -0.301212 1.47494 27 40 32
0.327332 -0.295206 1.47766 145 196 158
0.310256 -0.315098 1.57207 255 255 254
0.33766 -0.282476 1.44008 154 219 180
0.390246 -0.236114 1.20552 82 106 74
0.353474 -0.269488 1.37879 143 218 174
0.30903 -0.310204 1.57923 226 191 177
0.3279 -0.288563 1.47953 116 174 133
0.331197 -0.285297 1.47426 97 130 96
0.390512 -0.231341 1.20769 116 164 122
0.38937 -0.2294 1.21408 101 135 104
0.351631 -0.259421 1.38402 128 204 170
0.35718 -0.251646 1.37425 55 123 88
0.369441 -0.244298 1.3332 127 204 166
0.360337 -0.250173 1.3692 40 69 44
0.364207 -0.247077 1.35419 137 210 178
-1.48349 -1.90962 8.15898 74 122 93
0.369112 -0.239989 1.32863 31 80 58
0.193945 -0.407903 2.08573 88 85 100
-1.38725 -1.79218 7.88498 89 157 126
0.344608 -0.245791 1.42408 160 209 177
-0.686693 -1.14841 5.31914 102 164 148
-0.984737 -1.39491 6.48494 108 153 136
-0.90873 -1.28696 6.27139 175 233 222
0.105536 -0.425886 2.3665 153 206 167
0.320726 -0.252553 1.54534 123 179 144
0.323313 -0.249172 1.54039 39 57 40
-0.618683 -1.03612 5.17046 96 169 129
0.375574 -0.201806 1.28461 141 191 161
0.367964 -0.190073 1.31189 60 76 59
-0.747711 -1.03224 5.93601 166 164 164
0.368838 -0.185632 1.30636 41 47 36
-0.758756 -1.0107 6.00596 207 212 211
-0.517125 -0.811867 5.07186 126 115 117
-0.368494 -0.609181 4.61099 164 160 166
0.346338 -0.150258 1.42382 52 74 55
-0.186536 -0.455832 3.90824 169 161 161
-0.184725 -0.426175 3.91832 161 158 150
0.0521533 -0.303289 2.92292 131 139 162
-0.11318 -0.3401 3.6673 162 161 165
0.0727381 -0.232607 2.87805 167 179 185
0.146615 -0.19531 2.54969 119 145 161
4.75414 1.15696 -19.7972 124 182 177
-7.4932 -2.40281 38.6135 116 175 161
0 0 0 101 148 145
-0.0409004 -0.141494 3.48149 133 124 114
0.229844 -0.0624054 2.17737 143 134 125
-0.0676277 -0.112536 3.62776 210 215 216
0 0 0 106 167 157
0.231057 -0.0538417 2.17522 180 177 169
0.214927 -0.0483921 2.24297 156 149 156
-0.789258 -0.158622 7.06773 111 167 148
-0.546534 -0.0990135 5.94688 87 144 129
-1.19939 -0.0597209 9.14905 251 255 255
-0.259762 0.0174768 4.61095 102 135 155
-0.253357 0.02109 4.57524 142 183 192
-0.494144 0.0370445 5.7745 130 168 180
-3.1319 0.208108 18.2492 115 178 139
1.55681 -0.171742 -4.77458 115 165 153
-0.42966 0.0591625 5.45841 227 243 242
-0.231729 0.0528928 4.50058 97 138 170
-1.49074 0.178287 10.3713 115 169 139
-1.91936 0.264605 12.4754 69 129 99
-0.03174 0.0824917 3.5251 115 164 156
-4.03294 0.524439 22.7002 59 91 66
-2.95835 0.432465 17.4344 56 87 66
-2.98615 0.510746 17.6605 70 106 89
-1.8865 0.364952 12.2868 142 228 188
-2.34055 0.490625 14.4961 121 199 162
-0.895734 0.298779 7.59222 74 120 98
1.4552 -0.290526 -4.29767 91 134 97
-6.83481 1.66608 36.5082 46 82 58
-0.501411 0.25741 5.70839 113 184 164
1.51945 -0.320507 -4.58854 147 217 181
-1.04189 0.402992 8.28193 59 127 102
-8.0059 2.21384 42.3537 53 111 76
1.38386 -0.310911 -3.95711 132 212 177
-0.762522 0.383483 6.99574 70 138 115
-1.10226 0.488023 8.60673 142 232 186
1.48535 -0.352407 -4.43498 143 211 170
1.41786 -0.342199 -4.10099 116 168 144
-0.784658 0.435753 7.1478 73 128 103
-4.72568 1.71508 26.7023 128 204 163
-1.06959 0.577529 8.51342 77 144 117
-0.377144 0.353498 5.18532 121 153 129
1.34425 -0.353397 -3.74492 89 162 124
-0.93423 0.550745 7.8913 89 132 105
-0.232635 0.311356 4.49367 89 121 102
-0.967736 0.587826 8.08808 69 100 71
-1.05621 0.622132 8.46992 83 126 105
-0.258738 0.354269 4.64821 56 78 60
0.239037 0.150173 2.09964 184 208 226
0 0 0 82 166 131
1.43856 -0.413989 -4.20416 70 110 82
-6.98367 2.99744 37.8083 95 138 105
-1.47274 0.829221 10.5405 111 177 136
-5.22856 2.38255 29.2475 128 205 161
0 0 0 55 76 51
1.25986 -0.36821 -3.33996 136 184 166
-0.3481 0.42265 5.09293 102 147 114
0 0 0 58 85 69
-1.90252 1.09326 12.749 29 50 35
0 0 0 149 230 185
-1.71655 1.0459 11.8505 57 101 72
0.266418 0.156672 1.92537 121 156 160
0.27802 0.148131 1.85334 238 249 247
0.203792 0.201354 2.29271 143 186 205
-0.643766 0.615445 6.61677 221 251 255
-0.614744 0.605803 6.47104 91 120 111
0.22998 0.190111 2.14549 185 211 223
-1.99836 1.26769 13.332 44 96 78
1.46005 -0.494154 -4.30006 222 244 242
-7.6576 4.05368 41.4299 145 240 190
1.29418 -0.425369 -3.49385 153 223 206
-0.664475 0.671981 6.73683 77 101 83
0 0 0 55 125 89
0.272357 0.170865 1.87249 246 254 253
-0.63253 0.668155 6.55932 115 132 123
0.263588 0.179489 1.92729 229 246 237
1.31258 -0.449773 -3.58969 122 174 144
0 0 0 107 167 149
-3.71048 2.28958 21.8618 65 101 87
1.21072 -0.410754 -3.07984 170 222 205
-3.34527 2.14462 20.0126 22 69 37
-0.504108 0.639402 5.90498 90 105 97
0 0 0 112 176 170
0.255704 0.199728 1.96688 114 158 159
-0.869883 0.853531 7.71198 136 149 127
0.269871 0.188978 1.872 111 180 169
-2.1628 1.5791 14.1335 73 134 108
-0.270088 0.53146 4.73897 108 131 123
1.47143 -0.557215 -4.3306 128 147 120
-6.5965 4.17664 36.4421 150 214 178
0.265554 0.198799 1.90347 97 141 128
9.20497 -5.04895 -42.8278 131 196 181
-6.96871 4.45825 38.2021 67 105 93
-1.30793 1.16594 9.96151 69 101 77
1.25228 -0.466775 -3.27414 148 213 198
-1.27041 1.16922 9.80465 112 161 129
-7.0574 4.66821 38.6141 116 193 172
-1.06042 1.0558 8.70366 138 186 174
-0.789973 0.898134 7.38013 131 164 150
0 0 0 62 118 89
1.15811 -0.434273 -2.82745 107 151 128
1.21933 -0.463031 -3.09953 98 134 120
1.27859 -0.502685 -3.3915 141 185 192
-2.00786 1.71658 13.4263 77 126 98
-0.473324 0.739065 5.76836 113 134 119
1.33188 -0.536154 -3.65178 87 90 74
-0.452749 0.731228 5.67153 97 125 105
1.269 -0.507309 -3.3478 104 130 124
-1.75164 1.59392 12.2688 142 207 186
0.182907 0.294412 2.34278 62 73 70
1.21528 -0.487379 -3.07625 153 239 209
1.39224 -0.590951 -3.9201 119 167 155
4.93855 -2.94002 -21.469 104 180 146
0.153525 0.329518 2.4898 143 199 176
-1.09656 1.25167 8.91808 152 211 197
-0.340351 0.728709 5.08515 124 163 165
-1.27039 1.41643 9.85461 146 200 187
5.72747 -3.70942 -25.3225 70 147 109
-3.93768 3.36574 23.2445 141 226 182
1.21612 -0.514768 -3.06176 122 170 152
0.172653 0.337594 2.40099 93 124 121
-0.406312 0.803019 5.41293 125 175 175
1.18344 -0.508056 -2.90581 138 195 164
-5.50326 4.70892 31.2281 71 95 77
-0.461917 0.864721 5.73558 64 92 69
-0.318779 0.752617 4.99138 111 130 138
1.44499 -0.682927 -4.15015 173 225 225
-0.703933 1.06581 6.96226 78 101 93
1.36284 -0.636569 -3.75642 134 185 165
1.47451 -0.711855 -4.30926 162 219 220
-0.406396 0.838792 5.45346 128 181 178
1.15416 -0.498946 -2.76642 148 202 235
-1.28556 1.53847 9.95866 134 185 171
-0.427225 0.860787 5.54841 135 187 187
1.43607 -0.693361 -4.12048 78 124 111
0.133969 0.395057 2.59232 160 185 201
0.160802 0.371561 2.45646 113 139 145
1.3663 -0.652593 -3.79067 72 100 77
0 0 0 90 139 117
-0.628959 1.0301 6.55383 163 209 240
0.176408 0.356562 2.36118 187 219 224
1.43505 -0.701461 -4.10596 146 218 198
-0.663217 1.08114 6.75328 83 111 112
-1.65437 1.9004 11.8207 92 148 137
0.208129 0.325322 2.14595 184 237 217
-0.886341 1.28173 7.89849 87 105 98
1.33957 -0.647024 -3.62009 130 176 200
1.14964 -0.515198 -2.72182 76 126 102
0 0 0 108 151 140
-1.01413 1.40575 8.55313 90 118 112
-0.60264 1.06889 6.44285 148 209 213
1.49719 -0.780489 -4.42062 136 191 222
1.26014 -0.601924 -3.24272 109 137 138
0.214369 0.335054 2.10945 188 235 219
0.122884 0.437455 2.63146 122 163 158
0.132061 0.43037 2.59108 97 132 128
0.229047 0.320671 2.02739 122 179 170
1.25993 -0.609482 -3.23258 149 213 208
1.59927 -0.878677 -4.8928 189 220 245
0.17602 0.386712 2.3411 123 153 158
1.19119 -0.560655 -2.89748 153 215 203
1.60018 -0.893031 -4.9388 99 148 158
-0.419473 0.952904 5.49553 121 153 148
4.41683 -3.41675 -19.2316 110 169 154
0 0 0 73 152 125
0 0 0 65 151 121
0.223656 0.339175 2.04862 76 113 111
0.198045 0.375062 2.19683 103 128 138
2.54059 -1.79864 -9.75148 128 170 183
-0.412135 0.996033 5.4481 91 114 106
-0.724444 1.30139 7.07002 133 176 167
0.185067 0.39135 2.25016 103 144 147
1.49396 -0.844718 -4.3796 130 203 177
-0.445878 1.03737 5.62353 111 157 145
0 0 0 121 169 157
1.48355 -0.845091 -4.31774 72 116 93
1.50947 -0.864102 -4.44431 94 146 122
-0.582201 1.18655 6.33164 82 116 105
1.19768 -0.612953 -2.93047 106 150 143
-0.827073 1.50499 7.5986 161 207 214
-1.33795 2.04469 10.2509 146 186 205
1.19466 -0.629421 -2.90819 151 220 209
1.56882 -0.976616 -4.71593 102 177 139
-1.42047 2.1744 10.6842 96 120 120
-1.43833 2.2221 10.8448 85 112 108
1.30511 -0.743711 -3.42867 123 182 167
0.024787 0.643485 3.13187 124 172 178
-0.717311 1.47743 7.04973 108 154 155
1.35654 -0.81747 -3.63887 85 136 109
0 0 0 96 152 139
1.40612 -0.884287 -3.87986 64 133 100
0 0 0 88 151 131
-1.14392 2.04705 9.25814 89 142 122
1.09132 -0.585404 -2.38797 88 144 121
1.74105 -1.2891 -5.50642 82 132 114
1.2554 -0.764645 -3.13961 161 241 204
-0.872087 1.85097 7.86688 63 105 88
1.69916 -1.26099 -5.24069 83 135 111
1.25059 -0.772677 -3.1129 154 245 206
1.46837 -1.01729 -4.16932 139 218 179
1.47438 -1.01715 -4.1769 107 174 142
1.24506 -0.785453 -3.07102 90 139 107
-0.721141 1.7432 7.06268 70 110 98
-0.408965 1.35032 5.44509 113 167 150
-0.64978 1.67402 6.69404 103 155 145
-0.370621 1.30293 5.19781 111 152 137
-3.29406 5.16347 20.3572 91 162 136
-0.44971 1.43612 5.64751 148 207 186
1.20212 -0.752653 -2.85009 73 146 114
1.22205 -0.78242 -2.95915 152 226 192
-1.07784 2.31563 8.93773 164 226 214
1.66627 -1.30908 -5.03963 121 194 168
1.14205 -0.702083 -2.57339 160 235 203
-0.841015 2.02088 7.67055 84 125 118
1.24277 -0.825112 -3.0625 68 113 80
-0.448345 1.49441 5.64972 164 229 213
-0.423704 1.46176 5.5056 144 219 197
-0.506768 1.59038 5.93366 101 160 145
1.30837 -0.911833 -3.35911 113 190 152
-0.402243 1.45362 5.40359 106 161 144
1.172 -0.756761 -2.70941 92 144 104
-0.206771 1.1798 4.35702 108 159 145
-0.223469 1.21126 4.44828 82 120 114
-0.16278 1.11132 4.10144 172 222 212
-0.721558 1.95399 7.09398 102 158 153
1.27201 -0.887335 -3.17743 58 74 63
1.42425 -1.07485 -3.87653 68 107 75
2.17111 -2.12369 -7.71835 141 205 175
-0.272554 1.30513 4.72002 85 126 121
1.15121 -0.744486 -2.58908 145 222 188
1.66689 -1.40796 -5.06346 110 147 127
-0.13087 1.09763 3.92873 79 105 89
-0.451764 1.58729 5.64992 85 144 123
1.58113 -1.29876 -4.62501 138 198 168
1.77594 -1.57972 -5.64326 84 127 100
-0.247523 1.29104 4.5724 177 221 214
0.0257325 0.850651 3.05275 121 177 166
-0.0874905 1.05812 3.68534 81 112 105
-0.173333 1.21388 4.15769 96 130 120
1.11177 -0.727042 -2.40951 152 227 189
1.14654 -0.774725 -2.56607 96 137 109
1.09234 -0.71112 -2.32076 97 181 152
1.09274 -0.710969 -2.32231 94 178 149
1.55057 -1.32406 -4.47455 87 117 92
1.58972 -1.3735 -4.65221 60 79 70
-0.180124 1.25684 4.18913 84 131 122
-0.142096 1.19161 3.97403 90 141 127
1.53848 -1.31718 -4.40592 166 225 194
1.14662 -0.786225 -2.56115 99 164 138
1.36122 -1.08501 -3.60316 94 170 136
-0.166712 1.2598 4.10781 97 147 145
1.18473 -0.854849 -2.74575 70 99 74
2.1735 -2.34323 -7.645 129 135 104
-0.105025 1.1665 3.76772 157 207 195
1.20091 -0.881899 -2.81093 64 79 58
-0.0927017 1.15424 3.70092 165 228 218
1.5009 -1.3208 -4.20955 85 135 111
1.87918 -1.93482 -6.16186 93 141 99
-0.0404716 1.07312 3.39854 91 142 134
0.0369351 0.926285 2.96584 129 172 163
-1.06434 2.87736 8.93544 95 143 131
1.31577 -1.08122 -3.37536 109 196 163
1.18266 -0.882701 -2.71245 67 123 94
1.47137 -1.30163 -4.03294 85 113 90
1.46734 -1.30554 -4.00764 106 150 127
1.43794 -1.26613 -3.86686 81 102 87
-2.19655 4.99958 14.8778 110 155 152
1.24679 -1.00021 -3.00704 117 217 169
2.45973 -3.14063 -9.37262 90 175 153
-0.970232 2.87312 8.4028 107 172 156
-0.0451257 1.18132 3.43373 83 157 139
1.48108 -1.41382 -4.13111 95 153 124
-0.921417 2.90888 8.16077 84 126 115
-0.311938 1.78196 4.9234 151 214 204
4.13611 -6.74514 -18.3028 99 174 153
1.36532 -1.28527 -3.51643 150 213 187
-0.344568 1.91353 5.07142 186 239 226
-0.294486 1.82749 4.82032 162 222 211
0 0 0 97 148 141
-0.265128 1.78589 4.65211 95 109 98
1.10438 -0.870007 -2.31508 108 170 148
-0.862175 3.15104 7.95849 89 160 144
-0.496623 2.3644 5.97111 138 171 174
-0.435413 2.23145 5.61327 120 161 156
-0.410586 2.23063 5.50754 102 139 135
-0.196524 1.73163 4.29691 109 158 136
-0.371413 2.15919 5.30665 87 121 110
5.34352 -9.97553 -24.8365 94 147 127
3.88946 -6.98345 -17.2087 139 213 183
-0.454235 2.3715 5.76166 78 135 114
-3.02276 8.15642 19.6719 103 152 138
-0.536814 2.61631 6.26528 107 159 149
4.90799 -9.30947 -22.6464 93 139 127
1.29228 -1.30995 -3.25558 133 203 166
1.29574 -1.32298 -3.27469 96 127 106
-2.22807 6.62918 15.4929 101 155 148
1.63191 -2.15516 -5.139 97 176 157
2.77497 -4.86107 -11.3723 45 89 60
2.59193 -4.48783 -10.4377 141 194 174
-0.645179 3.07226 6.90528 125 181 162
2.50384 -4.31909 -9.94388 102 140 122
3.86376 -7.60165 -17.2815 100 136 122
-1.50011 5.24828 11.6369 125 202 174
-0.306185 2.26613 5.04172 112 159 151
-5.4007 14.8491 33.0252 107 173 162
-1.45089 5.18256 11.4314 77 151 115
2.48899 -4.42315 -9.92785 82 107 93
-1.77929 6.06961 13.287 60 112 89
-4.5489 13.0767 28.5644 95 131 119
2.44126 -4.40773 -9.73773 50 86 70
-6.48759 18.3719 39.4297 101 159 148
1.14205 -1.05729 -2.40703 73 110 90
-2.10505 7.1152 15.1443 146 198 180
-4.18928 12.6256 26.8402 135 198 178
-5.86901 17.05 36.1985 149 211 195
0 0 0 91 142 122
0 0 0 145 210 185
-5.46662 16.3106 34.0601 136 181 162
-4.4279 13.4726 28.0883 106 151 135
-1.75373 6.46501 13.3396 81 106 96
-2.82571 9.42247 19.4241 74 96 77
5.09477 -12.6008 -25.1926 164 213 211
-5.10497 16.7911 32.9049 108 158 148
1.05824 -0.941555 -1.93709 85 131 89
1.08576 -1.009 -2.068 157 224 192
0 0 0 149 207 179
3.86388 -10.6127 -19.2754 101 153 135
0 0 0 96 143 140
2.70701 -7.24085 -12.6202 88 125 115
2.49452 -6.65795 -11.4235 107 165 147
1.61596 -3.37964 -5.82556 89 147 129
1.6758 -3.6752 -6.25265 78 124 105
1.39833 -2.70375 -4.53536 86 131 112
1.37299 -2.62812 -4.3934 150 222 200
2.3159 -7.06524 -11.173 112 147 137
1.46048 -3.21133 -5.15629 85 141 122
1.60391 -3.93875 -6.23592 114 172 161
1.27395 -2.46254 -3.88844 78 123 106
1.26893 -2.49149 -3.92275 154 213 185
1.28715 -2.5381 -3.99792 161 223 193
1.27007 -2.54581 -3.95281 109 133 121
1.34255 -3.00042 -4.57659 91 161 144
1.41222 -3.46658 -5.22247 91 149 121
1.18851 -2.14502 -3.33822 112 166 153
1.25123 -2.54951 -3.89633 113 165 148
1.18828 -2.30412 -3.48868 86 136 124
1.19692 -2.51434 -3.70678 83 125 108
1.20918 -2.60277 -3.81206 98 163 138
1.17594 -2.57922 -3.70258 96 155 135
0.393832 -0.365917 1.16706 78 90 62
0.313901 -0.465085 1.41619 60 45 36
0.404903 -0.343436 1.11758 99 153 124
0.315973 -0.456595 1.41288 179 224 197
-0.0974062 -0.969853 2.31256 213 245 240
-0.0199982 -0.881707 2.19739 91 137 90
-0.0653304 -0.928145 2.25637 85 130 97
-0.0972854 -0.970563 2.32835 205 233 227
0.312762 -0.455215 1.42978 138 136 112
0.334681 -0.421485 1.36376 93 111 98
0.339014 -0.417151 1.35848 243 251 240
-0.106116 -0.973852 2.38777 87 84 86
-0.277643 -1.1519 2.70773 123 169 163
-0.102883 -0.958742 2.38138 122 194 147
-0.132483 -0.98971 2.48264 191 207 206
-0.0772683 -0.915957 2.36824 55 68 46
0.304052 -0.449819 1.47849 216 160 111
0.376779 -0.361229 1.2554 57 148 103
0.395553 -0.3308 1.16488 87 114 81
0.339533 -0.401341 1.37784 255 255 251
0.403163 -0.31112 1.11352 48 80 56
0.404248 -0.310946 1.11387 54 98 75
0.0292059 -0.790012 2.22102 114 153 131
0.205267 -0.56796 1.77801 193 237 208
0.399089 -0.312668 1.12607 54 95 64
0.335284 -0.401293 1.39695 198 148 120
0.371252 -0.356608 1.27375 50 97 75
0.392314 -0.32089 1.158 95 198 147
-0.0630768 -0.884654 2.41313 63 79 48
-0.202361 -1.04238 2.72462 153 206 186
-0.157955 -0.990504 2.64058 191 195 223
0.355143 -0.365113 1.31378 46 116 69
0.352227 -0.368114 1.33028 132 224 173
0.389293 -0.320497 1.17799 126 207 162
0.336412 -0.390726 1.39902 223 212 190
0.337551 -0.390311 1.40031 241 223 194
-0.213132 -1.04335 2.77698 147 150 148
0.368356 -0.350353 1.2889 28 99 59
0.393796 -0.310733 1.15231 67 105 87
-0.271047 -1.10213 2.92665 249 251 251
-0.298031 -1.12072 3.04499 155 186 189
-0.149563 -0.959568 2.70601 114 118 137
0.00475743 -0.78869 2.36212 111 157 135
-0.117644 -0.908788 2.6318 55 68 44
-0.0434037 -0.838293 2.47978 122 112 105
-0.0540373 -0.843574 2.51432 75 66 56
-0.19897 -0.998043 2.8659 152 151 171
0.371695 -0.335791 1.28862 159 219 178
0.376238 -0.332194 1.27802 113 192 151
0.374526 -0.33255 1.28202 27 61 37
-0.42709 -1.24778 3.44735 138 183 180
-0.288429 -1.09228 3.13829 198 200 200
0.245818 -0.487368 1.75054 127 108 100
0.396983 -0.287854 1.14902 53 79 56
-0.0922178 -0.868772 2.63926 46 58 38
-0.383341 -1.18471 3.40405 152 140 136
-0.102069 -0.877183 2.67087 92 153 119
0.397493 -0.283316 1.14366 122 199 155
-0.203402 -0.985736 2.95272 242 247 248
0.371436 -0.325816 1.2946 150 210 170
0.386474 -0.296552 1.19327 35 65 46
-0.0552227 -0.827145 2.60246 126 137 141
0.23638 -0.488895 1.79889 195 207 217
-0.387124 -1.16915 3.46413 142 167 169
0.392716 -0.284282 1.1699 87 159 123
-0.718369 -1.52355 4.37554 91 180 147
-0.286647 -1.05771 3.23365 228 240 246
0.387504 -0.287671 1.19817 89 142 102
-0.0868722 -0.833949 2.72849 89 123 99
-0.0670984 -0.817829 2.684 147 171 161
0.391245 -0.281374 1.17466 102 184 141
-0.262274 -1.01769 3.21633 137 135 164
0.387813 -0.282062 1.19511 46 78 47
-0.366707 -1.1172 3.52507 144 183 175
0.254066 -0.449863 1.77423 139 109 84
0.336842 -0.333388 1.40889 138 201 157
0.359597 -0.310955 1.32938 175 235 205
0.39527 -0.270717 1.16939 88 126 96
-0.237321 -0.978883 3.20562 249 249 249
-0.143255 -0.875455 2.95003 115 144 118
0.390161 -0.272571 1.18716 125 178 145
0.34504 -0.318686 1.37687 142 212 175
0.386231 -0.275311 1.2061 99 174 123
0.395686 -0.266122 1.17156 132 179 141
0.0336842 -0.688359 2.48197 156 220 174
-0.167401 -0.888531 3.04869 103 149 106
0.389579 -0.2686 1.19562 44 58 34
0.391112 -0.26864 1.1882 84 128 91
0.393165 -0.265563 1.17742 56 62 51
-0.464729 -1.18307 3.9867 131 192 166
-0.359684 -1.0709 3.64028 154 181 172
0.34557 -0.30834 1.38162 37 57 38
-0.564276 -1.26775 4.29168 68 142 112
-0.234523 -0.934178 3.33058 220 222 210
-0.316897 -1.01126 3.57394 220 237 246
0.331738 -0.316667 1.44442 47 60 36
0.343656 -0.305265 1.39794 37 49 31
0.21367 -0.451892 1.93932 118 112 137
0.230562 -0.438349 1.90131 255 255 255
0.351696 -0.293113 1.37308 123 156 129
0.364259 -0.283845 1.33206 108 152 123
0.389067 -0.253331 1.20727 102 165 126
0.24043 -0.421149 1.86631 172 132 103
0.331828 -0.309347 1.45408 132 182 150
0.31425 -0.330336 1.54744 255 254 253
0.327746 -0.31057 1.47219 112 176 140
0.348572 -0.291338 1.38857 156 225 188
-0.0961887 -0.757898 2.94614 61 102 65
0.366044 -0.275823 1.3309 58 67 54
-0.418773 -1.07622 3.98291 220 255 250
0.343155 -0.291823 1.41141 54 68 50
0.365782 -0.273912 1.32995 36 49 33
0.390835 -0.243649 1.19894 67 112 79
-0.624453 -1.26994 4.69968 255 255 255
0.337003 -0.294452 1.43579 156 218 172
0.344924 -0.28776 1.40743 103 172 129
0.367233 -0.268521 1.32379 102 184 141
0.330156 -0.29817 1.46963 145 199 162
0.310962 -0.321108 1.56238 216 192 170
0.368701 -0.262797 1.31486 144 219 181
0.331429 -0.29528 1.46433 46 73 47
0.0145685 -0.629894 2.69311 47 70 56
0.352725 -0.270216 1.37933 116 192 150
0.327663 -0.28882 1.47898 125 182 144
0.337496 -0.27746 1.4406 113 178 146
0.341798 -0.2766 1.43111 17 56 35
0.369922 -0.252184 1.32255 134 217 178
0.329297 -0.277244 1.47372 140 190 158
0.352081 -0.258781 1.38523 134 202 167
0.337518 -0.266944 1.44941 78 129 95
-1.44857 -1.8783 7.93578 59 120 84
0.334878 -0.269098 1.45815 141 212 172
0.30464 -0.298001 1.60107 221 190 167
0.194305 -0.407487 2.08737 92 82 98
0.370396 -0.236255 1.33213 98 139 118
-0.951957 -1.41216 6.2705 185 240 231
0.348595 -0.246989 1.40923 66 98 73
0.368108 -0.234581 1.33676 120 195 157
0.192183 -0.397847 2.1125 255 255 255
0.32955 -0.260808 1.49349 148 202 167
0.366172 -0.232677 1.34645 44 90 61
-0.982099 -1.3902 6.43831 100 149 129
-1.17509 -1.55785 7.19926 111 178 149
0.303136 -0.278817 1.62622 202 160 131
0.303762 -0.273674 1.62754 246 240 227
0.324756 -0.253025 1.52954 110 159 131
-0.676129 -1.09522 5.38722 138 222 193
-0.620202 -1.03672 5.18947 94 163 126
-0.84703 -1.21275 6.10317 100 147 139
0.325272 -0.242734 1.53163 46 65 46
-0.713661 -1.10146 5.56163 91 156 130
0.0973665 -0.416984 2.41008 123 184 148
0.329641 -0.239467 1.52251 121 163 132
-0.648194 -1.02363 5.38212 215 212 198
0.306499 -0.244374 1.63663 152 136 119
0.305348 -0.243594 1.64543 255 255 254
0.104036 -0.389211 2.42543 50 84 53
0.365015 -0.184774 1.32419 129 187 152
-0.761535 -1.01163 6.0458 191 194 192
-0.377234 -0.717934 4.48128 200 232 255
-0.517335 -0.81178 5.07834 126 115 117
-1.23741 -1.20898 8.1587 176 178 179
-0.405343 -0.687751 4.70497 146 137 140
-0.185118 -0.423928 3.93497 160 157 153
-0.175483 -0.410937 3.90501 186 192 191
-0.0193149 -0.274232 3.29799 200 208 207
0.143421 -0.20164 2.55589 176 219 236
0.00319468 -0.243026 3.19588 143 140 149
0.131132 -0.15124 2.64951 195 200 199
0.136667 -0.149542 2.6251 152 145 142
-6.91274 -2.01651 36.0154 94 125 110
0 0 0 93 140 137
-1.00049 -0.328074 7.99946 123 183 173
0.0325725 -0.11792 3.13578 144 132 130
1.24209 -0.0334092 -3.3633 64 74 62
0.180434 -0.0743776 2.40791 140 132 132
0.230004 -0.062112 2.17805 145 134 126
0.230533 -0.0532398 2.17661 177 174 166
0.270423 -0.0505756 1.97518 171 164 161
-0.992718 -0.23519 8.01626 91 158 137
0.26387 -0.0382067 2.00551 186 192 191
-0.906228 -0.0904088 7.71897 91 146 121
-1.17422 -0.0635246 8.99824 193 222 219
0.328171 -0.010059 1.64363 137 138 136
0.325219 -0.00821726 1.65932 202 210 210
0 0 0 95 135 110
-1.74544 0.037135 11.5433 113 191 167
-0.134037 0.0169066 4.01447 137 184 192
-0.226307 0.0272864 4.46266 114 163 161
-3.15681 0.144643 18.3658 114 204 161
-0.132365 0.0352343 3.99912 180 209 223
-3.50715 0.195497 20.0385 72 89 75
-0.776895 0.0663455 7.18799 156 182 199
0 0 0 141 228 200
-0.0365252 0.0734239 3.55175 143 186 195
-2.38646 0.387351 14.7243 108 194 152
-2.94784 0.475932 17.2485 61 107 84
1.35675 -0.225648 -3.83083 86 125 99
-3.41662 0.706039 19.7321 26 60 36
-1.02389 0.337463 8.17523 75 131 96
1.29614 -0.262824 -3.55577 120 185 159
0 0 0 133 184 147
-6.66972 1.51712 35.8221 47 74 48
-0.830352 0.319688 7.2836 105 191 157
-0.501433 0.258638 5.71408 114 186 164
-0.577775 0.291346 6.09646 77 138 112
-0.482891 0.271409 5.63645 157 235 211
-0.685977 0.357285 6.65336 126 197 170
1.37775 -0.315872 -3.91851 143 228 190
-0.231042 0.263429 4.56485 163 204 227
1.27183 -0.305729 -3.41079 103 170 138
1.48639 -0.351708 -4.44129 159 225 184
-4.84264 1.73671 27.2046 99 180 141
-0.845479 0.495918 7.44006 125 191 162
1.44265 -0.394534 -4.18282 139 209 178
-0.321366 0.356523 4.90673 46 63 50
-1.04956 0.617423 8.43321 83 126 105
-0.214704 0.329227 4.41467 78 107 82
0 0 0 136 198 174
1.32033 -0.374195 -3.63623 95 135 110
1.41377 -0.407306 -4.108 185 237 214
-0.432235 0.428002 5.48961 133 193 169
-5.27524 2.41273 29.5096 129 205 163
-0.898345 0.638629 7.77915 72 111 96
1.3155 -0.389738 -3.61809 138 223 191
-3.20455 1.57197 19.0502 71 100 75
-1.62616 0.950351 11.3136 107 157 123
-1.62604 0.950623 11.3152 129 180 146
-0.980271 0.700374 8.21574 120 195 173
1.40408 -0.433115 -4.02327 136 195 174
-8.11682 3.81131 43.6111 43 65 46
-4.80789 2.3797 27.2034 113 177 142
0.206518 0.190971 2.27396 160 207 215
1.29536 -0.399232 -3.51527 72 121 93
-1.76587 1.06593 12.1585 63 80 59
-0.780698 0.64775 7.25428 80 115 101
-3.89023 2.08258 22.6322 44 66 47
0.279553 0.150024 1.8411 119 154 174
1.37282 -0.440052 -3.8691 75 129 100
1.21662 -0.385258 -3.13262 108 146 128
0.260743 0.168537 1.96539 252 254 255
0.283825 0.149647 1.80805 162 212 218
0 0 0 145 233 193
0 0 0 68 145 107
1.31547 -0.42761 -3.60653 89 105 88
1.37551 -0.457144 -3.88651 123 203 172
0.284144 0.154549 1.80702 101 158 155
1.33124 -0.453382 -3.67415 79 110 89
0 0 0 181 232 224
1.25689 -0.426118 -3.30737 140 208 177
1.31779 -0.449552 -3.59844 117 177 147
-0.670503 0.686766 6.73067 67 83 66
1.26934 -0.437351 -3.36302 80 98 67
-1.47548 1.1442 10.7463 147 225 194
-3.77459 2.3847 22.2056 143 223 188
0.273851 0.180508 1.85462 220 241 242
-1.21557 1.04575 9.46676 135 207 184
-5.23215 3.23511 29.4384 114 171 156
-0.871511 0.858576 7.73303 136 150 126
1.26161 -0.453248 -3.31495 145 210 194
0.2702 0.188673 1.87138 114 184 171
-1.18018 1.06148 9.35302 136 198 168
0.256323 0.207782 1.95788 118 165 173
1.19705 -0.431581 -3.00794 162 216 216
0 0 0 86 130 113
0 0 0 176 228 221
-0.878601 0.92571 7.80421 130 164 153
-0.578902 0.749173 6.31054 117 150 135
0.116927 0.316448 2.71545 141 156 135
1.18849 -0.44126 -2.97083 109 146 138
0 0 0 100 163 137
0 0 0 138 179 171
1.44126 -0.584997 -4.15798 106 128 104
-0.559668 0.777061 6.21027 142 192 180
-1.35565 1.27922 10.2158 74 106 81
1.23798 -0.481902 -3.18947 152 209 194
1.33084 -0.537156 -3.64919 93 93 79
0 0 0 181 242 214
-0.459581 0.720802 5.65516 98 124 110
1.2679 -0.498953 -3.31389 168 222 222
1.144 -0.442805 -2.75405 96 137 110
-4.68342 3.57943 26.8321 117 172 157
0.198919 0.281604 2.25388 159 225 206
1.287 -0.531401 -3.42709 134 196 182
4.17235 -2.4105 -17.6376 58 87 61
1.15662 -0.461862 -2.79348 88 133 114
0 0 0 174 230 211
-0.416411 0.76628 5.50159 126 189 173
0.182054 0.314715 2.35258 160 204 197
0.20644 0.289982 2.19967 62 69 66
0.15641 0.344754 2.49619 115 133 134
-0.545902 0.884111 6.14176 112 140 140
0.20641 0.30133 2.20891 128 164 150
1.27866 -0.552229 -3.37557 118 181 149
-0.726399 1.02766 7.08022 118 140 145
-0.691847 1.01116 6.91273 84 98 87
-0.460412 0.829156 5.69047 123 183 159
1.48535 -0.698149 -4.36838 133 184 177
4.41821 -2.80151 -18.8685 78 87 66
0.218734 0.293601 2.11213 86 114 95
1.32245 -0.596282 -3.56388 120 160 142
0.169634 0.346069 2.40941 82 122 117
1.38824 -0.641046 -3.88002 108 139 124
1.46632 -0.694659 -4.26305 81 92 82
1.52899 -0.739409 -4.57826 150 190 189
-0.462378 0.864757 5.73572 64 92 69
-0.704241 1.06836 6.97086 84 107 102
1.36755 -0.641641 -3.75883 129 181 171
-0.581957 0.986719 6.32436 121 170 172
0.17576 0.350695 2.3643 119 150 147
1.39172 -0.662106 -3.89516 138 178 166
1.17251 -0.516319 -2.84295 189 218 239
1.19235 -0.529193 -2.93484 140 184 213
0.176649 0.356785 2.36151 188 217 222
1.46582 -0.73788 -4.25782 96 130 120
-1.64531 1.88482 11.7572 116 170 157
0.208465 0.325892 2.14681 186 234 210
0.220918 0.311479 2.06064 155 216 188
1.53507 -0.796333 -4.61184 154 210 221
-1.80918 2.06916 12.6037 147 231 207
-0.976871 1.38801 8.41652 147 191 185
-0.492784 0.96032 5.86513 154 211 210
1.31359 -0.637246 -3.50379 170 216 255
0.208938 0.335189 2.15397 112 132 137
1.15516 -0.527246 -2.74332 137 220 195
1.2271 -0.576354 -3.08814 154 221 206
1.34693 -0.66756 -3.6629 154 193 232
5.64214 -4.30965 -25.3271 70 87 66
1.38778 -0.705358 -3.86476 95 103 110
1.57647 -0.848562 -4.78217 110 123 145
0.215071 0.336948 2.11085 170 213 198
1.38486 -0.706324 -3.84524 104 129 131
-0.829678 1.30997 7.61893 96 128 109
-0.688317 1.1848 6.89352 113 140 136
0.132045 0.428715 2.588 98 129 122
1.18803 -0.561861 -2.88834 147 216 203
1.52144 -0.82848 -4.52559 77 104 95
-0.506565 1.03104 5.93485 110 126 125
1.3576 -0.703811 -3.70167 74 139 123
-1.11707 1.62584 9.11991 90 115 105
1.20129 -0.58583 -2.95112 111 148 144
7.04923 -5.84821 -32.5854 72 125 105
-0.492301 1.05149 5.87965 127 164 162
-0.46886 1.02921 5.75801 83 111 105
0.198122 0.375139 2.19693 103 128 138
-0.383827 0.966303 5.31824 141 190 188
0.0986983 0.492051 2.75462 116 166 164
1.5116 -0.862908 -4.4495 98 151 124
-0.43113 1.02562 5.54684 96 121 111
0.109505 0.482695 2.68519 109 153 147
1.20823 -0.606046 -2.98528 116 159 146
1.43494 -0.794996 -4.05919 120 176 157
1.62434 -0.956583 -5.00377 83 137 120
0 0 0 95 149 132
-0.648255 1.25071 6.68536 128 178 166
-1.13221 1.73045 9.18709 138 188 194
-0.874699 1.48372 7.8616 126 161 157
-0.565754 1.18021 6.25197 144 198 199
-0.80922 1.43185 7.5124 124 171 168
-0.63563 1.25813 6.61293 134 177 174
-0.409693 1.03551 5.44269 99 133 133
-0.685437 1.31404 6.86892 83 106 98
-0.447515 1.07766 5.63445 92 126 125
-2.13837 2.78471 14.3461 95 118 120
-0.79815 1.44554 7.46224 76 90 84
-0.706333 1.36554 6.98571 154 193 201
-0.373211 1.02968 5.26343 93 153 143
-1.34347 2.0131 10.232 104 130 136
-1.42623 2.18599 10.7125 105 126 124
-1.08254 1.81725 8.92295 118 163 174
-0.846953 1.56569 7.67298 94 119 115
-1.1889 1.95034 9.51543 96 123 119
1.31039 -0.742612 -3.44083 98 166 149
-0.890268 1.64797 7.91166 140 196 221
-0.800855 1.54744 7.46915 81 109 110
2.14564 -1.60269 -7.49381 59 100 79
-0.75821 1.54513 7.22693 167 214 218
-1.04516 1.8739 8.76958 87 107 94
1.40045 -0.867192 -3.87295 90 151 115
-7.46292 9.04541 41.839 163 206 193
-1.82038 2.73508 12.7428 148 220 208
1.32011 -0.798202 -3.47647 109 172 146
1.70903 -1.19929 -5.30448 142 209 182
1.79682 -1.30164 -5.77071 65 93 73
1.44477 -0.932458 -4.04462 131 227 180
-1.03439 1.99711 8.6656 111 160 144
1.29152 -0.793379 -3.31298 101 160 129
1.22721 -0.738232 -3.01933 130 190 159
1.40923 -0.926088 -3.88402 68 95 75
-0.87045 1.84147 7.83247 77 119 102
-0.69184 1.64872 6.91882 77 123 104
-1.25048 2.33388 9.806 67 123 102
-0.822861 1.82438 7.60457 86 122 106
-0.66397 1.62913 6.7171 87 123 107
-0.961093 2.01816 8.32104 82 137 122
2.64237 -2.46989 -10.1629 107 181 155
-0.659124 1.6412 6.74718 75 112 96
1.35121 -0.897569 -3.59316 89 127 115
2.28272 -2.02612 -8.31507 97 140 131
-0.724534 1.73709 7.04743 63 110 94
-0.479797 1.44819 5.83018 98 147 125
1.1792 -0.720573 -2.74968 89 151 121
1.59541 -1.20503 -4.71801 152 204 174
-0.411549 1.38761 5.41775 79 99 86
-0.626913 1.6972 6.57869 111 173 151
-0.364699 1.32965 5.17877 100 141 120
1.66604 -1.30909 -5.03961 121 194 168
-0.293054 1.25408 4.80596 88 141 131
-0.271897 1.2251 4.70558 148 212 200
-0.223297 1.1591 4.43903 107 166 152
1.27773 -0.867462 -3.21138 123 212 168
-0.446902 1.50122 5.65338 178 233 218
-0.190067 1.12286 4.24378 134 174 169
1.16012 -0.734269 -2.65122 87 147 113
1.50629 -1.1486 -4.26458 89 115 91
-0.266928 1.2538 4.66842 88 123 109
-0.146191 1.07438 4.02113 104 165 151
1.26184 -0.862749 -3.13532 145 205 175
1.30695 -0.918382 -3.34343 56 90 66
1.49829 -1.14778 -4.2418 94 119 99
-0.161367 1.11228 4.10984 158 212 199
1.30516 -0.91849 -3.34082 62 93 66
1.11455 -0.692534 -2.4362 169 230 216
3.0774 -3.38087 -12.4776 119 168 152
-0.315471 1.36217 4.93362 63 112 96
1.28048 -0.905509 -3.21869 62 89 73
1.53546 -1.23265 -4.41552 65 107 72
1.28807 -0.922346 -3.24764 131 187 168
-0.249865 1.29923 4.58931 162 213 206
1.57899 -1.29692 -4.60789 133 193 159
1.62918 -1.36419 -4.8234 133 198 176
1.67712 -1.43894 -5.08858 89 128 112
-0.128768 1.11139 3.91833 83 117 106
1.40482 -1.08025 -3.7897 72 113 75
1.45643 -1.15114 -4.03674 72 108 91
1.50062 -1.21002 -4.23541 121 176 151
-0.0888978 1.05774 3.70458 81 116 106
1.18553 -0.80021 -2.73547 67 107 82
1.36821 -1.04541 -3.62324 138 186 144
2.05167 -2.04184 -7.06562 148 196 170
-0.142282 1.16683 3.97705 71 111 99
1.13865 -0.763108 -2.52597 99 161 125
1.12293 -0.745871 -2.44809 102 147 121
1.17622 -0.817229 -2.69567 76 111 91
-0.00159526 0.949042 3.18708 97 134 132
1.48675 -1.23633 -4.1332 75 106 85
1.34089 -1.07181 -3.51593 107 172 133
1.35463 -1.09051 -3.56761 140 228 188
-0.135092 1.19465 3.92172 75 111 99
1.43437 -1.20413 -3.88699 118 158 133
0.0551642 0.878928 2.86573 108 145 135
-0.0930986 1.15679 3.7055 151 214 204
-0.10792 1.19061 3.79362 73 124 116
1.87834 -1.93477 -6.16157 103 151 109
1.20474 -0.901031 -2.80896 127 216 173
-0.0313511 1.06951 3.36377 150 216 205
1.25369 -0.981667 -3.0518 142 237 192
-0.612499 2.1349 6.52889 102 154 137
1.30895 -1.08723 -3.32668 58 82 50
1.25932 -1.01584 -3.08546 91 142 114
-3.65965 7.49214 22.4558 84 153 140
-0.814169 2.55329 7.59784 167 221 214
-0.777665 2.51122 7.44546 88 150 136
1.39328 -1.20384 -3.63503 166 223 202
1.48025 -1.36986 -4.12718 99 153 118
1.51139 -1.41183 -4.24655 138 219 180
1.90865 -2.15749 -6.42157 93 135 118
1.55733 -1.52599 -4.52537 156 229 189
-1.13856 3.29698 9.30928 93 154 134
2.38558 -3.21104 -9.03214 91 168 134
-0.311829 1.78465 4.92818 149 212 203
1.3038 -1.14591 -3.17741 126 168 151
4.80641 -8.0359 -21.8121 104 166 126
2.3533 -3.2557 -8.86485 86 151 129
1.10569 -0.869866 -2.31742 104 169 144
-0.380108 2.04107 5.2973 181 232 225
1.12878 -0.918283 -2.39878 89 133 102
1.60127 -1.8752 -4.90257 99 161 139
-3.72708 9.21475 23.3918 93 158 137
2.02794 -2.78159 -7.13711 92 154 132
5.19974 -9.63154 -24.2276 80 135 120
1.16709 -0.989714 -2.53933 62 94 63
4.27151 -7.73854 -19.1935 122 209 173
-0.363594 2.12914 5.23659 80 111 96
3.74119 -6.6214 -16.4055 69 112 101
-0.421849 2.30111 5.59912 172 222 210
1.6584 -2.10286 -5.23767 104 175 159
-6.53156 15.9138 38.5491 110 156 143
6.88198 -13.8575 -33.2421 99 131 126
-2.45622 7.10058 16.8337 91 144 134
-0.232937 1.92218 4.54829 99 148 128
-1.59261 5.10883 11.9994 95 148 139
1.20778 -1.12661 -2.77483 54 83 58
1.29956 -1.32997 -3.27679 103 151 125
-0.641939 2.93636 6.85327 93 168 154
-1.99713 6.14311 14.2817 107 177 160
3.81405 -7.2743 -16.9411 139 213 183
1.25723 -1.28567 -3.07762 50 81 72
2.5541 -4.43789 -10.2759 86 108 83
1.1455 -1.02742 -2.45571 98 137 115
2.52055 -4.35779 -10.055 73 100 74
2.69533 -4.75832 -10.9609 68 94 71
2.42705 -4.21549 -9.59432 122 179 164
2.44114 -4.25759 -9.71331 107 160 140
-1.15443 4.5132 9.84057 69 108 83
-4.53232 13.0272 28.4635 94 133 118
-3.96545 11.6381 25.3496 147 218 202
-5.87503 17.0777 36.2541 149 211 197
-4.11378 12.4215 26.3492 143 205 189
1.10214 -0.967006 -2.15783 84 115 86
-4.45468 13.5672 28.2728 104 149 133
-2.95368 9.65727 20.1012 141 204 184
-1.48946 5.68773 11.7851 62 86 62
-3.46281 11.0798 23.0086 123 175 165
1.09836 -0.959038 -2.12224 72 88 70
-3.28344 10.7038 22.0036 76 123 97
1.10801 -0.986069 -2.17201 72 99 79
0 0 0 100 137 127
1.00392 -0.814541 -1.77664 111 128 117
1.09332 -0.973734 -2.11632 86 135 103
1.8773 -3.29626 -6.79494 115 178 169
-3.25519 11.1339 22.1252 79 118 102
1.06294 -0.926506 -1.96285 138 220 177
1.18882 -1.34491 -2.74401 104 148 117
1.0499 -0.946029 -1.90871 129 212 173
1.53531 -2.64858 -4.99805 106 162 149
1.25382 -1.86478 -3.37135 101 150 136
1.74892 -3.95556 -6.74522 109 170 156
1.26231 -1.93893 -3.44002 112 169 154
1.47343 -2.9624 -5.01175 106 161 146
2.33782 -7.11778 -11.268 118 152 141
1.3476 -2.61758 -4.29242 94 142 118
1.39762 -2.91395 -4.7034 74 107 93
1.47369 -3.2808 -5.24907 89 133 116
1.59991 -3.93292 -6.22408 112 167 158
1.42554 -3.27041 -5.09226 95 153 135
1.27399 -2.47495 -3.91174 89 137 119
1.24635 -2.34807 -3.70729 95 150 133
1.76154 -5.3291 -7.94719 112 155 146
1.29081 -2.66266 -4.12588 146 202 181
1.41018 -3.46251 -5.21401 86 144 116
1.24442 -2.46434 -3.8035 93 118 108
1.0448 -1.29429 -2.12199 107 136 127
1.16479 -2.37316 -3.46486 78 133 108
1.10054 -2.04032 -2.95649 116 156 145
0.311586 -0.456472 1.42784 144 126 97
0.368533 -0.385077 1.25433 82 155 115
-0.116711 -0.983998 2.36789 253 255 255
0.32301 -0.437974 1.40169 245 236 222
0.399462 -0.334536 1.12988 45 67 43
0.403122 -0.33265 1.11999 145 189 153
-0.113065 -0.975673 2.41951 86 89 87
-0.0918034 -0.943972 2.37106 133 199 148
-0.0631595 -0.912196 2.29733 141 211 164
0.304063 -0.45914 1.47074 196 143 92
0.309389 -0.452799 1.44972 228 218 200
0.398662 -0.334029 1.14201 110 141 108
0.31946 -0.435247 1.42152 212 179 153
-0.247839 -1.11185 2.6871 77 69 80
-0.149876 -1.00399 2.51696 251 254 255
0.330179 -0.413426 1.385 234 239 238
0.345362 -0.398056 1.35346 75 73 55
0.348822 -0.385957 1.32108 156 229 183
-0.498419 -1.38602 3.22383 115 136 174
-0.129896 -0.976337 2.51563 125 128 143
-0.0753301 -0.901102 2.38802 144 218 166
0.324655 -0.419465 1.41393 196 144 108
0.351573 -0.3788 1.31883 48 85 53
0.204554 -0.571787 1.78567 179 220 192
-0.133845 -0.962731 2.55623 199 223 241
-0.116516 -0.939228 2.54241 67 68 64
-0.13939 -0.965004 2.60522 255 255 254
-0.0885381 -0.89813 2.48943 60 82 57
