ply
format ascii 1.0
element vertex 1251
property float x
property float y
property float z
property uchar blue
property uchar green
property uchar red
end_header
-0.629717 -0.540835 2.95692 97 161 149
-0.742573 -0.538503 2.95296 79 129 119
0.186596 -0.531068 2.91082 209 248 246
-0.910317 -0.538366 2.96286 92 147 132
-1.44124 -0.540064 2.98835 168 228 222
0.908892 -0.517894 2.87557 86 156 125
-0.505387 -0.52763 2.95102 89 160 144
0.893829 -0.516782 2.87483 144 213 176
0.933598 -0.515477 2.87492 113 171 147
-0.922277 -0.526428 2.96317 92 138 115
0.463877 -0.517145 2.90031 106 175 160
0.871514 -0.511602 2.87319 74 115 87
-0.613237 -0.524518 2.95312 173 235 217
-0.950994 -0.517265 2.95844 88 138 136
1.03885 -0.50598 2.87056 112 192 155
0.574161 -0.50571 2.89715 116 182 170
0.967589 -0.50156 2.87388 104 179 165
1.02438 -0.501075 2.87547 231 255 246
-0.72729 -0.511287 2.95064 92 154 138
-1.02101 -0.507707 2.97136 98 160 154
0.597091 -0.494667 2.89353 92 171 150
-0.933405 -0.503653 2.96155 156 223 202
-0.454101 -0.501356 2.95214 104 176 163
-0.576107 -0.496934 2.95416 93 160 145
0.00816161 -0.491458 2.93004 120 173 170
0.291847 -0.492061 2.91281 92 149 141
0.849545 -0.484494 2.86437 116 156 145
-0.732789 -0.495712 2.95664 91 144 131
0.886757 -0.482495 2.86929 136 191 146
-0.89057 -0.495299 2.96604 79 143 131
0.00842035 -0.491287 2.93096 116 169 166
0.757041 -0.482495 2.87317 94 117 119
0.893971 -0.48178 2.8761 74 110 74
1.36133 -0.476851 2.86439 98 155 130
0.60491 -0.478724 2.89428 99 155 142
0.868665 -0.470903 2.85595 181 237 218
-0.457936 -0.480391 2.95825 92 175 160
0.481184 -0.475156 2.90628 97 180 165
0.54937 -0.473401 2.90237 90 160 147
1.13614 -0.469191 2.86872 95 162 135
0.865672 -0.46634 2.86422 85 106 97
1.07865 -0.467812 2.87634 68 129 91
1.53742 -0.465472 2.86166 140 200 169
0.618771 -0.469133 2.89677 92 165 149
0.843708 -0.463558 2.8601 107 142 128
-0.697857 -0.476373 2.96103 88 159 143
0.633837 -0.464685 2.89291 207 255 250
1.05182 -0.459594 2.86762 119 189 158
0.852832 -0.456876 2.84874 83 115 104
-0.915329 -0.469027 2.96077 84 147 131
0.602719 -0.462128 2.90021 110 173 157
0.880298 -0.453449 2.85779 168 233 187
-0.91756 -0.467261 2.97048 96 160 148
1.19744 -0.453274 2.87443 105 156 149
0.649541 -0.453586 2.89719 88 152 133
1.06796 -0.452553 2.87641 88 134 111
1.28665 -0.45016 2.87524 113 174 146
-1.02784 -0.463169 2.97404 90 162 150
0.879457 -0.446006 2.86446 89 105 88
1.07708 -0.448163 2.88021 145 201 172
-0.634335 -0.459089 2.95647 80 158 141
0.199987 -0.445824 2.92246 87 141 128
0.763223 -0.442056 2.89079 158 217 197
-0.0962821 -0.442191 2.93473 127 162 152
0.881956 -0.433423 2.85595 147 200 187
1.09324 -0.434078 2.88346 88 153 131
0.588551 -0.435643 2.90519 89 165 141
1.08762 -0.432439 2.88462 130 225 191
-0.478897 -0.434979 2.96028 87 139 121
0.86125 -0.421176 2.85426 90 135 119
-0.612079 -0.433316 2.96064 90 145 130
1.10026 -0.424282 2.88742 164 248 223
-0.658645 -0.432312 2.95856 77 154 126
1.09461 -0.421651 2.886 97 173 149
1.08564 -0.420809 2.88644 90 160 137
-0.514911 -0.426476 2.95521 86 151 136
0.869218 -0.415878 2.85921 168 222 209
1.13383 -0.415051 2.8794 168 250 215
0.513153 -0.415314 2.91403 105 171 159
0.758917 -0.411074 2.88004 157 214 169
1.15258 -0.410664 2.88384 85 145 115
1.37111 -0.41038 2.8766 107 178 145
-0.765429 -0.418923 2.96372 86 143 128
-0.0782658 -0.414678 2.93789 94 156 142
-1.4122 -0.42145 2.99652 92 139 130
0.929899 -0.406508 2.88833 80 137 112
1.59439 -0.405974 2.87412 102 182 153
-0.884758 -0.413492 2.97154 94 154 144
1.17125 -0.40409 2.88998 113 197 169
-1.30064 -0.41574 2.99 82 148 137
-0.370955 -0.41078 2.95592 88 162 138
-0.608793 -0.410284 2.96361 69 141 118
-0.416939 -0.408543 2.95421 89 168 147
-0.335053 -0.409506 2.94845 95 172 158
0.926897 -0.403298 2.89151 151 219 188
-0.99933 -0.40982 2.97664 139 207 196
0.997352 -0.398476 2.89519 162 248 214
1.70326 -0.396184 2.87527 97 140 127
-0.505329 -0.403664 2.95439 95 150 131
-0.957558 -0.403982 2.97318 152 228 217
0.948319 -0.394025 2.89507 89 145 116
-0.977907 -0.402343 2.97493 82 145 136
0.201146 -0.39648 2.92757 94 159 150
-0.896627 -0.398639 2.97405 89 155 144
0.844526 -0.386604 2.86256 169 227 203
-0.991571 -0.394457 2.97764 166 234 217
-1.00044 -0.391273 2.97598 79 132 122
-0.152777 -0.387644 2.94011 159 220 210
0.887289 -0.380247 2.87312 79 110 77
-0.412776 -0.388452 2.95844 74 142 119
1.34299 -0.380782 2.88758 99 156 141
-1.00405 -0.390447 2.97655 159 229 216
0.9811 -0.380461 2.89817 125 201 170
0.470797 -0.379705 2.91904 103 179 168
1.32802 -0.375096 2.88486 74 137 105
0.408635 -0.378131 2.92686 79 144 135
0.348758 -0.377895 2.92647 99 134 137
-0.627852 -0.380232 2.96152 95 150 135
-0.546728 -0.377322 2.96463 94 161 146
-1.59154 -0.379147 2.99798 79 142 132
0.326552 -0.368799 2.92368 102 169 154
-0.936781 -0.37364 2.97135 121 176 167
1.26745 -0.364363 2.89257 111 180 147
0.164329 -0.365901 2.93339 105 174 161
0.824049 -0.360218 2.86868 177 255 217
0.966609 -0.362496 2.90187 68 118 88
1.31896 -0.36108 2.88947 105 159 136
1.51565 -0.359545 2.88524 110 157 141
-0.010119 -0.364197 2.93971 83 146 136
-0.0154815 -0.360172 2.93842 174 242 225
0.890568 -0.352077 2.88444 77 136 105
-0.879194 -0.360956 2.97093 169 222 213
0.971869 -0.35462 2.90631 92 149 118
-0.193873 -0.353701 2.94657 75 134 119
-0.866919 -0.352829 2.9691 160 212 202
-0.896334 -0.35245 2.97082 174 226 219
0.578552 -0.344724 2.92309 110 173 163
-1.26831 -0.346847 2.98763 97 153 140
-0.36247 -0.34346 2.96005 71 146 130
-0.965471 -0.338823 2.97424 160 232 212
0.533715 -0.334821 2.92374 96 175 156
-0.882894 -0.334916 2.97069 94 154 148
-0.376536 -0.332944 2.95688 78 130 107
0.672714 -0.32329 2.91543 169 243 213
-1.75935 -0.325475 3.00096 83 127 114
0.369607 -0.319706 2.9337 105 165 155
0.39295 -0.316141 2.93588 113 185 172
-0.892336 -0.317968 2.97557 87 154 145
-0.829244 -0.317048 2.97125 84 152 141
-0.208786 -0.315171 2.95112 105 176 156
-0.356164 -0.313563 2.95927 85 131 112
1.26739 -0.306362 2.90984 109 181 158
-0.73902 -0.311455 2.97284 103 153 141
-0.103713 -0.307841 2.9468 92 158 139
0.667398 -0.303432 2.91816 83 161 138
1.17199 -0.304892 2.9107 116 179 163
-1.42084 -0.310348 3.00178 90 144 137
-0.18383 -0.302233 2.95386 72 149 135
-0.379335 -0.301405 2.95509 103 159 138
-0.356109 -0.301978 2.96169 152 230 206
-0.0968349 -0.30129 2.94622 79 131 113
-0.959134 -0.294742 2.98174 96 159 149
-1.67326 -0.295999 3.0038 88 139 132
0.741038 -0.287697 2.9176 117 162 146
-0.340432 -0.285849 2.96213 99 156 148
0.00214538 -0.284685 2.94965 143 186 175
-0.253827 -0.285728 2.95983 85 157 145
0.715567 -0.280126 2.91981 83 150 113
-0.015022 -0.28042 2.94009 149 186 166
0.830609 -0.279008 2.92144 78 168 139
0.58177 -0.278002 2.93181 237 255 254
0.738385 -0.276882 2.92061 84 135 121
-0.255869 -0.279534 2.96032 92 161 150
-0.128855 -0.275655 2.95155 66 113 97
-1.11522 -0.277156 2.99073 108 161 158
0.597303 -0.273182 2.92954 97 149 139
1.19028 -0.269101 2.91477 115 186 169
-0.0435876 -0.265543 2.93856 69 95 82
-0.014571 -0.267004 2.93863 130 177 151
-0.368729 -0.265987 2.96075 118 174 163
-0.359281 -0.265289 2.96282 81 146 121
0.0318904 -0.26207 2.94979 77 143 131
-1.02633 -0.263823 2.98755 92 155 146
-0.128444 -0.258819 2.94232 64 113 97
0.949926 -0.258229 2.92287 118 186 163
-0.0785555 -0.256925 2.9308 74 134 110
-0.74777 -0.257187 2.97019 76 129 109
-0.0122537 -0.256083 2.93827 140 188 159
0.0246157 -0.253468 2.95134 146 204 193
-0.371187 -0.253523 2.96145 80 148 131
0.892455 -0.251031 2.92699 107 185 162
-0.0826234 -0.250116 2.93577 81 141 123
0.459436 -0.250726 2.94288 110 190 173
1.35304 -0.248291 2.91151 74 149 128
-1.36984 -0.252636 2.99646 91 134 123
-0.0518319 -0.246148 2.91684 175 224 204
0.884163 -0.246705 2.92759 104 178 152
-0.106355 -0.244651 2.9331 88 135 119
-0.14004 -0.245545 2.94502 80 119 111
-0.0842402 -0.240052 2.92698 102 165 155
-0.0231337 -0.23736 2.93373 90 118 88
0.0176134 -0.240525 2.95242 126 195 182
1.04927 -0.236948 2.92775 115 187 164
-1.26218 -0.240752 2.99725 95 161 150
-0.834832 -0.235769 2.97756 85 155 138
-0.0112352 -0.230255 2.93026 135 214 175
1.28267 -0.231401 2.92057 116 179 153
-0.381436 -0.234199 2.96408 180 239 224
-0.377219 -0.230396 2.9687 119 163 156
-0.0656986 -0.222946 2.92507 126 187 177
-1.28735 -0.224307 3.00021 85 128 143
-0.0792863 -0.219619 2.92574 95 151 146
-0.0263157 -0.21924 2.91927 146 204 175
0.521271 -0.222255 2.94025 118 186 175
0.0423726 -0.219212 2.95918 87 154 139
0.871525 -0.216698 2.9303 118 177 162
-0.119201 -0.212891 2.93669 169 224 215
0.538148 -0.213441 2.94501 130 185 176
-1.10382 -0.213735 2.99413 109 175 170
1.39005 -0.206235 2.91867 121 187 168
-0.149705 -0.203023 2.94741 88 149 129
0.932958 -0.203364 2.93132 120 199 180
-0.172111 -0.202003 2.95248 92 156 137
-0.0705535 -0.201725 2.92543 112 166 153
-0.0261902 -0.20102 2.93339 166 218 194
0.0716015 -0.201416 2.95353 87 141 134
0.205663 -0.199365 2.96008 110 164 171
0.342025 -0.199937 2.95095 70 119 103
-0.0276701 -0.190441 2.9341 60 93 89
0.0447734 -0.190243 2.95117 172 225 216
-0.00180405 -0.183953 2.94121 158 192 186
-0.758957 -0.183939 2.97652 245 255 254
-0.0139432 -0.181226 2.93958 102 145 134
-0.00242889 -0.182774 2.94556 196 233 223
0.528805 -0.182264 2.94669 126 189 179
-0.759651 -0.183019 2.97986 239 255 254
0.0118604 -0.181609 2.95165 75 122 106
-0.0185407 -0.177811 2.93652 155 207 189
0.0451609 -0.179825 2.95673 165 219 202
-0.281622 -0.175747 2.96942 101 165 153
-0.00189892 -0.17686 2.94737 68 87 84
1.36621 -0.176022 2.93357 115 199 175
-1.69788 -0.17227 3.00943 83 152 141
0.934241 -0.168377 2.93687 80 156 125
0.0109302 -0.163723 2.94255 69 100 91
0.15756 -0.158513 2.96298 110 161 181
-0.2157 -0.156067 2.95995 92 163 143
-0.0302988 -0.157128 2.94427 91 142 128
0.00160168 -0.155823 2.95436 153 194 189
-1.48669 -0.151468 3.01083 98 157 149
-1.40236 -0.150509 3.00509 90 137 145
-1.38725 -0.149821 3.00603 94 163 153
-0.0756602 -0.146858 2.95102 67 136 121
0.83775 -0.145324 2.94111 121 175 168
-0.0657267 -0.143866 2.94408 77 126 112
0.000925132 -0.143787 2.95395 161 200 192
-0.0103143 -0.13979 2.9552 119 164 155
0.015649 -0.141675 2.96115 85 123 111
-0.148161 -0.138726 2.96161 180 238 213
0.463813 -0.139241 2.95441 91 163 163
0.609401 -0.137311 2.95017 96 159 149
-1.13949 -0.134179 2.99677 70 131 121
-0.179105 -0.133899 2.96112 89 137 125
-0.0103376 -0.134565 2.95859 71 92 84
0.813726 -0.13013 2.94644 109 169 151
-0.00136775 -0.128882 2.95108 135 192 167
0.0188546 -0.123594 2.96611 115 170 161
-0.721382 -0.121098 2.98559 99 168 165
-0.0232414 -0.120772 2.94781 172 229 208
0.0159431 -0.121832 2.96604 85 115 110
0.657886 -0.118496 2.95429 110 169 155
0.00766661 -0.117157 2.96111 160 217 196
0.491229 -0.103498 2.96173 108 159 155
-0.763284 -0.10206 2.98755 77 134 109
-1.14507 -0.0988798 2.99765 105 166 156
0.859041 -0.0976226 2.94429 178 255 231
0.618751 -0.0950895 2.95895 181 235 228
-0.208672 -0.0929177 2.96849 95 170 154
0.360873 -0.0941249 2.96832 90 154 149
1.37687 -0.0939467 2.94655 134 199 190
-0.44313 -0.0905612 2.98033 184 227 216
-0.133721 -0.0918406 2.96745 156 212 199
0.39619 -0.0902779 2.96047 98 167 157
0.532266 -0.0903642 2.95998 114 186 180
0.616909 -0.0889142 2.95815 105 165 157
-0.0447939 -0.0868028 2.96144 68 138 121
0.39778 -0.0880681 2.96758 100 167 158
-0.766061 -0.0854897 2.98551 74 155 130
-0.713691 -0.0850799 2.98024 78 120 102
-0.696375 -0.0856145 2.98198 88 140 123
-0.129508 -0.0850679 2.96096 76 117 102
-0.119897 -0.081555 2.96237 142 197 178
0.35755 -0.0819045 2.96773 99 158 150
0.844671 -0.0839263 2.94683 121 177 172
-0.184909 -0.0805591 2.96396 108 167 147
-0.132992 -0.0807388 2.96589 48 91 76
0.424586 -0.0770306 2.96658 74 130 125
-0.39358 -0.0729837 2.97741 105 165 147
0.921877 -0.0738862 2.95235 124 184 173
-0.728066 -0.0704055 2.98333 134 212 181
-0.704549 -0.0674873 2.98077 161 239 208
0.00905195 -0.0678881 2.96937 77 148 132
0.531457 -0.067023 2.96285 97 176 163
-0.480625 -0.0637929 2.98239 75 157 122
-0.00698495 -0.0631064 2.97146 79 130 110
-1.4304 -0.0613463 2.99844 126 174 168
-0.11201 -0.0598695 2.96531 54 103 89
-0.762188 -0.060049 2.98805 91 161 144
-0.701154 -0.0583733 2.98001 74 131 110
-0.375213 -0.0570235 2.98216 102 142 131
0.352164 -0.0582201 2.97361 112 182 175
0.946956 -0.05832 2.95258 119 178 164
-0.847289 -0.0562381 2.98754 100 165 149
-0.0170961 -0.0567632 2.96763 95 149 132
0.454471 -0.0562732 2.97207 99 172 164
0.980999 -0.0555646 2.95676 97 170 148
-1.22277 -0.0543366 2.99914 114 169 154
-0.72111 -0.0552584 2.98644 82 152 129
-0.465443 -0.0545297 2.98194 100 157 136
0.884246 -0.0542057 2.95553 104 176 156
-0.368346 -0.0518609 2.9806 137 199 183
-0.643036 -0.045046 2.97948 92 121 106
-0.396753 -0.0441816 2.98283 88 134 121
-0.114198 -0.0437786 2.96996 93 150 135
0.384394 -0.0422954 2.97239 114 170 151
0.547036 -0.0436729 2.96614 97 166 155
0.368789 -0.0409571 2.96735 82 115 108
-0.360931 -0.0401616 2.97554 129 186 171
-0.4682 -0.0371882 2.98112 69 140 120
-0.122599 -0.0315034 2.9728 72 151 132
-0.75693 -0.0315137 2.98956 76 141 116
0.664127 -0.0292499 2.9594 107 165 154
-0.148145 -0.0204231 2.97649 99 170 153
-0.405908 -0.0188265 2.98844 95 162 141
0.378288 -0.0165521 2.97398 80 145 129
-0.468121 -0.0145786 2.98416 78 127 105
-0.483332 -0.0119659 2.98219 100 168 143
-0.328832 -0.0128857 2.98098 86 163 142
-0.993276 -0.00779961 2.99494 175 226 222
-0.80852 -0.00866663 2.9911 85 169 144
-0.562094 -0.00872585 2.98408 91 157 138
1.53188 -0.00531444 2.96038 112 192 161
0.13772 -0.00295391 2.97825 112 160 161
-0.995462 0.0021673 2.99021 120 177 162
-0.901762 0.00887036 2.99195 91 151 133
-0.462389 0.0065105 2.98644 105 150 124
-0.5994 0.00839613 2.9829 75 125 95
-0.988264 0.0115971 2.98932 50 79 70
-0.592761 0.0195231 2.99204 56 87 66
-0.582693 0.0196579 2.99223 87 135 117
-0.360344 0.0304203 2.98713 191 236 227
-1.43618 0.0337468 3.00959 78 135 126
-0.273959 0.0337928 2.98801 68 147 134
-0.587853 0.0364694 2.99052 136 188 170
-0.600442 0.0364741 2.98269 149 216 184
0.629651 0.0361663 2.97325 76 150 132
1.349 0.0379083 2.96856 128 191 181
0.575796 0.0404211 2.97723 110 173 164
-0.565356 0.0443149 2.99576 80 145 123
-0.378479 0.044329 2.9816 73 139 128
-0.604295 0.0445615 2.97844 66 105 79
-0.472079 0.0484845 2.99379 92 158 146
0.409319 0.0465045 2.97386 106 175 162
1.09072 0.0481797 2.96926 189 244 229
-1.09054 0.0554692 3.00382 86 149 139
-0.581049 0.0545368 2.99182 67 142 121
-0.391772 0.0551786 2.98655 153 230 216
-0.438228 0.0547151 2.98295 80 164 129
-1.09177 0.057059 3.00831 104 167 157
-0.3756 0.0582597 2.98491 155 219 207
1.09118 0.0585832 2.97043 196 255 238
-0.296344 0.0594363 2.98704 82 149 140
-0.38633 0.0645704 2.99105 87 148 138
0.57541 0.0628715 2.97918 112 178 167
-0.930072 0.0668966 2.99624 103 159 146
-0.279447 0.0661384 2.9855 96 168 156
1.1322 0.0682762 2.9725 100 160 149
-0.289303 0.0734031 2.98381 82 156 138
0.434949 0.0742715 2.98678 90 153 143
-0.226299 0.0787527 2.98255 146 212 200
0.62655 0.0803147 2.97958 91 160 140
-0.288081 0.0811337 2.98606 87 158 132
-0.204423 0.0817394 2.98695 116 189 179
-0.241383 0.0841278 2.98543 93 150 141
0.537422 0.083077 2.98072 114 171 163
0.746862 0.0854474 2.97724 93 148 145
-0.942412 0.088931 2.99374 92 155 135
-0.776609 0.0903441 2.99151 166 242 208
-0.474463 0.0983388 2.99714 212 254 247
-0.260427 0.0964053 2.98243 170 224 217
-0.301225 0.0981484 2.98742 84 153 132
-0.269513 0.0999454 2.98848 110 170 159
0.73126 0.0978026 2.97755 113 182 171
0.53835 0.0987039 2.98525 114 185 175
0.785394 0.0995773 2.97749 93 166 158
1.11507 0.102005 2.97729 136 191 182
-0.842742 0.103456 2.99282 64 130 111
0.667659 0.107768 2.98168 116 189 179
-0.229544 0.111896 2.9832 80 148 131
-0.449174 0.116744 2.99334 68 133 118
0.635457 0.11711 2.98193 107 174 165
-0.348837 0.120554 2.98393 101 166 150
-0.196214 0.118522 2.98018 156 224 201
0.758175 0.121706 2.98307 86 136 132
-0.425443 0.123782 2.98621 110 161 157
-0.558127 0.126915 2.99551 83 136 127
-0.301545 0.129721 2.9928 123 177 164
-0.778667 0.128614 2.99409 76 141 109
-0.333793 0.133266 2.99162 88 157 142
0.644326 0.132588 2.98333 96 172 160
1.09371 0.132491 2.9827 128 176 170
-1.43568 0.13683 3.01251 86 136 124
-0.677224 0.135062 2.99676 80 128 116
-0.669047 0.139001 2.99483 110 168 157
-0.183594 0.137306 2.98891 80 151 111
-1.43398 0.14062 3.01211 87 140 130
-0.419216 0.13921 2.9921 73 139 127
-0.703274 0.143875 2.99045 98 168 151
-0.214506 0.145499 2.98845 82 127 111
-0.185495 0.14335 2.98256 147 218 185
-0.280287 0.146929 2.98772 95 157 133
0.777987 0.151183 2.98728 100 164 158
-0.171689 0.155611 2.99199 159 224 203
-1.22688 0.161405 3.00407 97 157 147
-0.197566 0.160959 2.98746 86 149 123
1.04299 0.160101 2.98114 123 175 165
-0.657841 0.16478 2.99471 101 172 162
-0.172011 0.170857 2.98706 62 117 102
0.751283 0.171916 2.98706 102 176 170
1.05321 0.173647 2.98277 109 157 151
-1.3463 0.179005 3.00653 145 214 204
-0.201696 0.180993 2.99014 91 126 112
-0.181477 0.180124 2.98752 90 146 125
-0.17688 0.181846 2.98814 99 156 135
-1.1447 0.183579 3.00253 76 129 115
-0.393069 0.183697 2.99381 93 136 127
-0.413699 0.185817 2.99814 152 218 199
1.05726 0.195062 2.98765 104 170 151
-0.277158 0.200581 2.98459 107 149 131
0.262312 0.199696 2.99264 109 166 163
-0.449037 0.202304 2.9977 101 163 149
-1.49152 0.205149 3.01674 80 137 128
-0.276351 0.202404 2.98899 74 113 97
1.04151 0.201908 2.98072 111 183 160
-0.0503835 0.208791 2.98894 108 161 151
-0.319345 0.210855 2.99731 103 154 147
-0.209113 0.210074 2.98499 51 84 70
-0.00267681 0.212376 2.99168 98 154 143
0.0595733 0.210767 2.98843 97 154 145
-0.129298 0.21197 2.98538 75 133 128
-0.19651 0.216283 2.98778 66 90 78
-0.00182619 0.21367 2.99302 103 157 144
0.593117 0.21921 2.99443 111 188 174
1.09835 0.219772 2.99144 116 181 172
-0.199921 0.222316 2.99173 151 194 183
0.679901 0.222766 2.98979 109 179 172
0.981125 0.221597 2.9828 81 146 125
-0.136369 0.225034 2.99004 100 163 153
-0.193249 0.228074 2.9963 84 140 121
0.0816528 0.230186 2.9938 169 228 220
0.0536497 0.237521 2.99127 107 162 153
0.0937274 0.237869 2.99359 172 229 220
0.974164 0.236853 2.98917 96 183 150
0.979665 0.236301 2.99055 61 141 112
1.0999 0.238146 2.99254 106 185 171
-1.57226 0.242846 3.01212 75 102 99
0.633809 0.244308 2.99715 97 169 156
0.0377359 0.248565 2.99551 91 154 144
-0.242544 0.250364 2.9874 85 144 129
0.730876 0.257676 2.99231 98 150 132
-1.73515 0.259804 3.01115 174 230 217
1.26228 0.259052 3.00013 115 184 174
1.30336 0.259018 2.99749 115 177 171
-1.47111 0.265516 3.00655 91 130 122
-0.16971 0.26449 2.99633 116 176 168
-0.330501 0.272193 2.9936 75 133 122
-0.343301 0.273395 2.9996 95 157 145
-0.264373 0.273103 2.99901 94 161 156
-0.104363 0.272859 2.9957 89 146 147
0.0504128 0.274888 2.99608 94 145 137
-1.33952 0.279608 3.01243 74 139 130
-0.330162 0.279141 2.9997 81 130 122
-1.14975 0.282064 3.00428 81 151 145
-0.393769 0.283204 2.99893 89 152 142
1.50735 0.285903 2.99852 90 150 126
-0.153953 0.286293 2.99354 157 220 204
0.622993 0.291226 3.00175 112 171 157
-1.72328 0.293544 3.00633 50 66 78
-0.156608 0.292485 2.99569 80 124 118
-0.767914 0.294302 2.9974 118 176 165
-0.337932 0.30037 2.99819 182 239 231
-0.233003 0.300247 2.99752 69 141 129
0.0180556 0.302552 2.99459 94 163 152
-1.08238 0.305027 3.00444 77 146 136
-1.29268 0.306943 3.00842 80 156 144
1.10512 0.307692 2.99854 90 150 126
-0.754206 0.308192 2.99632 80 141 131
-0.976063 0.311078 3.00006 108 162 155
0.953629 0.311827 2.99889 105 176 160
-0.160478 0.311358 2.99343 90 155 140
1.437 0.314028 3.00429 103 165 151
1.46869 0.313754 2.99893 77 135 111
1.55807 0.316946 3.00665 201 253 236
-1.35333 0.31999 3.0092 156 232 228
-1.18666 0.320127 3.0061 73 121 109
0.0101836 0.320957 3.00152 87 154 145
1.53371 0.320349 2.99786 97 160 134
0.0709532 0.3268 2.99937 117 183 172
-1.05197 0.334086 2.99995 246 255 254
0.0781312 0.337683 2.99797 96 150 145
1.35952 0.341608 3.00468 88 179 146
-1.72309 0.343943 3.00986 180 216 234
-1.16418 0.34389 3.00287 67 140 124
-0.994262 0.347148 2.99892 166 228 214
1.55273 0.348681 3.0088 96 173 136
-0.377918 0.350707 2.99891 186 229 226
-0.752948 0.350603 3.00015 168 223 214
-0.377785 0.351813 3.00132 196 237 232
0.0945089 0.353266 3.00718 89 154 145
1.4259 0.353443 3.00556 92 159 138
1.44129 0.358455 3.00434 97 156 128
-1.0125 0.358193 3.00249 68 136 113
1.19221 0.365188 3.00501 110 164 147
1.52736 0.365897 3.00504 163 239 197
-0.768725 0.367877 3.00143 110 167 159
-0.371979 0.370452 3.00121 77 133 128
0.0453695 0.370136 3.004 105 159 152
-0.357498 0.372764 3.00023 110 149 158
-0.751938 0.378988 3.00004 178 234 229
-0.341917 0.380787 3.0012 94 157 148
-0.419172 0.380204 3.00064 92 140 141
-0.305117 0.38089 2.99561 94 132 126
1.35762 0.382562 3.00939 109 182 160
-1.01041 0.382185 2.99971 100 155 140
-1.15217 0.38859 3.00039 66 111 102
0.145299 0.391969 3.00321 105 162 153
-1.31115 0.395915 3.00597 89 151 145
-0.408833 0.395833 2.99828 114 162 150
1.36112 0.398577 3.00649 114 166 148
1.40168 0.399506 3.01295 94 166 144
-1.0248 0.398952 3.00006 87 145 134
-0.401307 0.398501 3.00486 152 215 205
-0.0961009 0.398157 3.00105 107 166 145
-0.494275 0.40351 3.00761 180 223 220
1.36399 0.40137 3.01249 109 174 149
-1.49498 0.403795 3.0107 69 140 124
0.636892 0.403895 3.00604 82 124 117
-0.917395 0.403679 2.99453 142 206 187
0.636834 0.405094 3.00867 119 171 161
-0.353879 0.407478 2.99926 114 167 157
0.942493 0.408111 3.0048 111 181 168
-0.189253 0.408132 2.99769 103 151 152
-0.144389 0.407854 2.99966 101 161 151
-0.521745 0.409912 2.99179 83 142 122
-0.539713 0.413344 2.99474 97 179 156
-0.454915 0.414782 3.00305 104 167 158
-0.288808 0.414809 2.99995 193 233 231
0.957659 0.414457 3.00535 93 142 134
1.18569 0.417442 3.0129 82 147 122
1.36025 0.423359 3.01405 105 180 164
-1.14805 0.422292 2.99394 143 224 209
-0.458317 0.42398 2.99979 82 139 136
0.622901 0.424977 3.00716 83 150 135
0.90187 0.427506 3.00636 103 167 148
-1.73816 0.428437 3.00015 248 254 253
0.940725 0.429963 3.00936 93 172 145
-1.0361 0.431671 3.00051 66 105 83
-0.268587 0.432832 3.00225 107 179 166
-0.0988097 0.432845 2.99865 69 131 115
-1.11642 0.433882 2.99576 55 102 93
-0.566596 0.43321 3.00628 95 150 141
0.263531 0.436871 3.00729 75 145 132
1.26691 0.436475 3.01117 112 177 161
-0.543194 0.436213 3.0012 88 133 124
0.735428 0.437131 3.00748 114 181 178
1.26888 0.437635 3.01352 103 173 156
-1.381 0.438824 3.00622 90 144 144
0.963316 0.439744 3.0096 85 147 131
-1.02387 0.440787 2.99523 66 121 104
-0.212914 0.442033 2.99757 78 133 118
0.851628 0.443443 3.00612 90 172 154
-1.09749 0.445222 2.99731 77 120 111
-1.05269 0.443458 2.9976 88 158 145
-0.330049 0.44459 3.00201 96 143 135
-0.424242 0.446835 3.0044 88 150 138
-0.14059 0.44828 3.00282 108 163 154
1.54378 0.450963 3.02067 100 177 140
-0.575361 0.449497 3.00391 95 160 158
-0.0941315 0.452011 3.00577 81 150 137
-0.552917 0.453374 3.00134 99 155 150
0.891546 0.454745 3.01618 85 143 119
0.9342 0.451856 3.0036 72 129 98
-0.119203 0.455023 3.00205 94 162 151
-0.104186 0.456748 2.99948 109 167 156
-0.96951 0.458335 2.99734 156 218 200
-0.743336 0.458897 3.00249 80 149 139
-0.545697 0.457688 2.99388 161 234 224
-0.258212 0.459417 3.00145 69 133 121
-0.100231 0.461979 3.00257 84 161 147
0.893882 0.463266 3.00799 98 169 142
-0.294375 0.463366 2.995 179 225 212
-0.551119 0.466567 3.00064 73 132 118
0.972702 0.468271 3.01017 87 131 114
-0.284526 0.4677 2.99931 99 154 145
-0.19019 0.467502 2.99555 158 231 215
-1.18181 0.474405 3.0065 61 121 113
-0.173446 0.471116 2.99698 78 142 120
-1.43169 0.475311 3.0054 172 238 219
-0.33077 0.474788 3.00207 86 139 129
-0.0401484 0.47559 3.00353 108 173 158
-0.00701928 0.472978 2.99933 88 141 131
0.0326875 0.475591 3.00381 157 235 218
0.934152 0.474631 3.00416 80 115 89
0.0419756 0.477421 3.00671 102 156 156
1.40376 0.477777 3.01384 108 166 137
-1.0653 0.478761 2.99947 58 133 119
-0.0540848 0.479412 3.00475 90 152 140
-0.476683 0.482013 3.00226 79 144 135
-0.907308 0.483087 2.99965 148 205 184
-0.40983 0.4827 3.00569 77 147 134
0.855576 0.486293 3.01441 91 146 131
-0.264476 0.482934 2.99236 87 143 124
0.954902 0.485171 3.00801 82 137 118
1.45191 0.489967 3.02587 87 143 114
-0.263646 0.487109 3.00065 64 139 118
1.06364 0.491789 3.01102 101 169 134
-0.936282 0.4916 2.99388 78 120 103
0.874346 0.493386 3.00989 86 145 114
-0.424995 0.494886 2.99906 87 140 131
-1.61094 0.496082 3.00973 107 153 160
-0.982699 0.494437 2.99171 95 153 142
-1.75972 0.502661 3.00302 78 90 96
0.724713 0.505309 3.01624 88 131 120
0.724632 0.50514 3.01591 88 131 120
0.474601 0.508535 3.01662 87 158 142
-0.436449 0.509201 3.00152 102 160 159
-1.12662 0.514189 3.00729 94 164 151
0.463236 0.516229 3.01663 95 152 143
0.871842 0.520796 3.02038 85 135 117
-0.291504 0.517043 3.00287 118 180 164
-0.283332 0.519248 2.99965 179 232 219
0.478125 0.522057 3.01362 185 239 226
-1.64682 0.523524 3.00761 82 107 109
-1.13174 0.522619 3.00616 156 220 208
0.917884 0.525766 3.0152 68 125 110
-0.588266 0.525013 3.00496 163 226 216
0.0428087 0.524292 3.00562 99 152 143
0.66868 0.527432 3.01583 126 169 202
-0.577391 0.526217 3.00144 162 224 210
-0.384909 0.526837 3.00222 77 130 127
-0.28467 0.525483 3.00029 107 151 138
-0.593609 0.528271 3.00472 92 158 146
-1.72082 0.526719 2.98224 87 91 119
-1.73475 0.530184 2.98779 179 230 232
-1.71502 0.530351 2.98736 142 178 208
-1.07861 0.531629 2.99573 70 144 132
-0.996399 0.533038 2.98919 82 146 134
-0.343114 0.535829 2.99903 98 152 147
-0.0448043 0.536447 3.00628 88 131 122
1.31047 0.538317 3.02129 93 181 158
-1.09902 0.540751 3.0064 53 115 103
0.511118 0.540635 3.02135 83 147 125
-1.54225 0.540737 3.00939 220 255 251
-1.08702 0.544276 3.00115 74 150 139
-0.746104 0.544751 3.0045 87 151 132
-1.5368 0.54748 3.00877 211 245 238
-1.06404 0.545763 3.00138 78 150 137
-0.89549 0.544594 2.99159 57 89 72
0.818202 0.550972 3.02059 124 177 174
-0.183538 0.547698 3.00011 100 162 148
0.42259 0.553636 3.01927 105 170 161
-1.52408 0.553888 3.00909 177 231 226
-1.72207 0.551594 2.97756 176 219 238
-0.673168 0.557052 3.00438 97 162 141
0.878717 0.561162 3.01979 97 169 149
1.09986 0.560669 3.02375 166 231 209
1.03214 0.560577 3.01763 92 158 129
-0.14413 0.558976 3.00188 93 166 150
-0.100739 0.560098 3.00084 100 157 149
-0.319645 0.565174 3.00978 106 175 165
1.20646 0.570561 3.02909 117 174 166
0.834205 0.571859 3.02437 113 173 162
1.18108 0.570316 3.02213 106 157 137
-0.891646 0.569403 2.99693 50 96 90
1.23608 0.574237 3.02636 70 139 119
1.30983 0.575495 3.0273 155 222 193
-0.894284 0.568207 2.98978 118 187 176
0.940731 0.57541 3.01864 89 162 130
-0.900387 0.573444 2.98919 128 184 173
0.263141 0.57835 3.01695 100 171 155
-0.444159 0.581176 3.0093 97 148 144
-0.341662 0.575245 2.99895 87 162 146
0.903272 0.580988 3.01767 104 169 153
0.987808 0.580068 3.01344 99 150 136
-1.02797 0.578967 2.99016 192 234 233
-0.936964 0.574093 2.97047 138 154 143
-0.881977 0.579565 2.99218 71 102 87
-0.76677 0.58249 3.00113 73 150 136
-0.729337 0.578963 2.9973 83 152 141
-0.0351064 0.582703 3.0095 94 160 148
0.404731 0.589754 3.01943 97 168 158
1.31006 0.590999 3.03505 125 180 155
1.32856 0.593065 3.03519 106 166 148
-1.73235 0.583616 2.9859 167 191 211
-1.07587 0.583087 2.98854 169 224 221
-0.99779 0.584642 2.98485 173 229 218
-0.297132 0.586594 3.00022 100 163 154
0.915485 0.591212 3.01716 98 164 135
1.10957 0.591584 3.02047 78 136 108
-0.87098 0.588997 2.99389 134 209 193
0.970437 0.593368 3.01662 168 233 194
1.05222 0.593211 3.02112 84 144 110
-0.911914 0.589544 2.99356 68 124 113
-0.633712 0.592411 3.00294 111 176 160
-0.284597 0.592767 3.00477 78 109 102
0.945185 0.596066 3.02153 169 239 203
0.976525 0.595206 3.01742 64 123 92
-0.951093 0.585495 2.96859 88 119 112
-0.876224 0.591512 2.99373 61 115 102
-0.0214268 0.59423 3.00614 110 157 148
0.0614071 0.596431 3.00681 86 156 143
0.938248 0.59928 3.02146 114 168 145
1.1782 0.600255 3.02045 166 238 218
-0.90885 0.594006 2.98771 120 178 167
-0.885292 0.597664 2.99255 170 238 227
-0.267588 0.599132 3.00526 95 142 126
0.904257 0.60099 3.01918 163 230 198
0.909663 0.602292 3.01655 98 150 126
1.19259 0.602576 3.02311 81 113 102
0.285193 0.602557 3.01582 89 155 143
-0.0484223 0.602929 3.00335 126 180 173
-0.0384075 0.604479 3.00325 185 237 227
0.175507 0.60786 3.01408 149 219 202
-1.07629 0.605824 2.99479 156 213 204
-0.105422 0.609142 3.0007 174 222 216
0.191695 0.609594 3.01319 83 154 144
1.19938 0.612096 3.02978 118 186 161
1.26313 0.611325 3.02214 93 146 136
-1.70766 0.60682 2.98405 161 198 232
-0.831194 0.609942 2.99897 81 158 144
-0.718138 0.610377 3.00011 77 146 133
0.863686 0.618558 3.02744 79 105 91
0.884947 0.617239 3.03098 73 119 100
-0.254912 0.612387 3.00202 170 231 221
-0.105071 0.613167 2.9995 96 146 144
-0.0999045 0.613649 2.99802 97 148 141
-1.05746 0.615471 2.99533 104 140 124
0.904573 0.619936 3.0191 37 92 65
-0.708909 0.617364 3.00163 75 142 127
1.26135 0.620405 3.0152 162 237 209
-0.0948392 0.621037 2.99936 94 125 116
-0.0819878 0.620238 3.00247 91 124 120
-0.0891151 0.621698 3.00579 161 201 196
-0.0803942 0.624287 3.00781 107 135 129
-1.10926 0.622378 2.99362 166 219 209
-1.07651 0.62321 2.99851 186 233 224
-0.0667811 0.623766 3.00458 176 220 219
-0.111325 0.624857 2.99709 102 139 137
-1.41121 0.629179 2.99801 131 201 184
-0.0562891 0.631248 3.00748 98 153 144
0.386623 0.634109 3.01871 90 166 148
1.11549 0.639355 3.02781 82 146 127
-0.306519 0.633586 3.00105 92 159 154
-0.0294399 0.635154 3.00027 166 216 204
0.837628 0.642838 3.02343 162 244 222
0.97587 0.643739 3.02378 57 101 88
0.121883 0.642742 3.00973 76 146 133
1.34809 0.64882 3.04173 147 204 183
-0.108939 0.643315 3.00075 88 145 136
0.0108974 0.647302 3.00461 169 222 195
-1.67836 -1.21785 2.93934 92 132 121
-0.918621 -1.19574 2.88171 168 237 200
-1.15935 -1.20394 2.90661 138 172 166
0.316276 -1.14493 2.77094 150 187 185
-0.506016 -1.17502 2.87313 167 219 225
-0.552806 -1.15713 2.86631 159 232 210
-0.609122 -1.15248 2.86808 88 136 124
-1.16521 -1.16681 2.91776 106 170 158
-0.56471 -1.14641 2.85917 154 221 206
0.682303 -1.10823 2.76595 134 182 164
0.597186 -1.10978 2.7705 98 132 125
-1.77123 -1.17553 2.94481 52 95 82
-0.514635 -1.14438 2.87225 137 199 187
0.985195 -1.08799 2.74428 106 158 140
-0.998946 -1.14035 2.90334 91 150 142
-0.593107 -1.13132 2.87755 167 229 213
0.482634 -1.09423 2.7862 191 223 218
-1.0219 -1.13658 2.90597 70 136 107
1.00232 -1.07281 2.74132 128 178 160
-0.596062 -1.12072 2.87179 97 145 133
-0.942315 -1.12726 2.89954 110 171 161
0.993358 -1.06701 2.743 162 247 203
-0.404337 -1.11411 2.86924 111 158 156
-1.08427 -1.12582 2.91197 82 135 125
0.47692 -1.08015 2.7878 96 114 113
0.495284 -1.07835 2.78589 167 220 211
-1.79468 -1.13632 2.94809 131 197 185
0.206629 -1.08849 2.81999 171 233 215
1.05413 -1.06089 2.74522 116 187 170
0.588882 -1.07374 2.78341 111 166 149
-0.585386 -1.09783 2.87493 141 203 191
0.547814 -1.06754 2.79148 122 189 168
0.534599 -1.05634 2.78974 198 243 227
-0.462053 -1.08477 2.87984 83 127 120
0.722361 -1.04584 2.77433 121 170 162
-0.130154 -1.06872 2.84896 177 228 230
0.779979 -1.04147 2.76315 80 111 104
0.294214 -1.05856 2.81795 194 236 229
-0.538858 -1.07477 2.87466 142 201 187
0.76874 -1.03813 2.76549 127 163 151
-0.0961616 -1.05996 2.84846 201 247 234
0.247133 -1.05063 2.8221 125 175 165
-0.129185 -1.05312 2.86096 81 110 117
0.322077 -1.0322 2.809 205 246 238
-1.09363 -1.06711 2.92307 98 165 150
0.464828 -1.02016 2.80037 92 129 103
0.462687 -1.01165 2.8036 121 188 161
0.585707 -1.0084 2.80121 89 141 123
-0.533177 -1.03595 2.88932 137 207 194
-0.513672 -1.03665 2.8823 131 200 189
-0.523575 -1.03362 2.88716 69 122 112
-0.12798 -1.01897 2.86702 154 232 208
1.05534 -0.984556 2.76397 97 163 144
0.252417 -1.00843 2.84201 112 172 161
0.112817 -1.00017 2.84013 156 228 206
0.782804 -0.981617 2.79285 195 242 233
-1.20726 -1.02451 2.92879 73 127 114
0.26451 -0.992496 2.83522 93 146 137
0.649952 -0.977076 2.78567 170 246 205
-0.84608 -1.01719 2.91113 98 153 144
-1.19354 -1.02053 2.93178 79 143 131
-0.436856 -1.0029 2.88687 93 148 131
0.152024 -0.98144 2.84995 108 145 129
0.580862 -0.962858 2.80182 137 180 169
0.12132 -0.97378 2.85376 178 246 229
0.593113 -0.959348 2.80734 127 171 164
0.13385 -0.970853 2.85071 160 231 211
0.157773 -0.958824 2.84805 89 129 118
-1.35389 -0.98863 2.94925 101 153 146
-0.415021 -0.950653 2.89638 143 214 197
-0.448658 -0.949326 2.898 161 227 216
-0.91092 -0.950226 2.92193 107 163 152
0.694369 -0.911426 2.80877 102 141 120
-0.91957 -0.927887 2.92473 106 167 153
0.00158432 -0.907915 2.86642 96 148 131
-0.993672 -0.915749 2.93098 93 157 145
0.563047 -0.880831 2.81902 102 154 144
0.656094 -0.882436 2.82119 128 184 161
0.915706 -0.874115 2.79537 122 180 162
0.715777 -0.87296 2.81172 114 176 160
0.677392 -0.874781 2.81461 119 165 152
0.224678 -0.882287 2.86249 109 164 155
0.326504 -0.875595 2.85618 101 161 155
0.0455116 -0.876654 2.87557 155 217 199
0.490387 -0.861946 2.83569 125 175 173
-0.952896 -0.887627 2.93692 71 124 110
0.0311541 -0.871154 2.87204 166 224 213
0.181811 -0.86471 2.86731 99 158 144
-0.174978 -0.867493 2.8918 89 143 138
-1.73799 -0.881589 2.96683 132 179 153
0.0274426 -0.857814 2.87296 155 216 202
-1.72281 -0.880027 2.97355 112 159 137
0.0289167 -0.847045 2.87378 80 118 106
0.046033 -0.847266 2.87596 167 224 215
0.34065 -0.841449 2.85699 96 163 148
0.323933 -0.83584 2.86061 88 144 131
-0.467379 -0.849474 2.91305 72 132 121
0.0401319 -0.83243 2.87753 191 244 234
0.224142 -0.826579 2.85812 140 173 176
1.10678 -0.81211 2.80829 140 185 189
-0.690357 -0.83488 2.92026 105 147 130
-1.61412 -0.842084 2.97228 81 128 120
0.795272 -0.803534 2.82584 195 236 228
1.1096 -0.799404 2.81099 128 188 180
-1.28854 -0.832708 2.95941 109 160 146
-0.972578 -0.8298 2.937 93 149 136
0.55789 -0.798609 2.84755 91 144 130
-1.21298 -0.817339 2.96386 96 162 151
-0.523704 -0.808323 2.92617 174 237 227
-1.32311 -0.816309 2.96037 107 160 151
0.357843 -0.790422 2.86351 101 152 144
-1.38403 -0.813798 2.96643 204 238 237
-1.39215 -0.811104 2.97109 101 153 146
-0.844271 -0.802799 2.93983 117 177 167
0.211955 -0.782377 2.8681 126 176 166
-0.810601 -0.783328 2.93639 73 134 124
0.129314 -0.764466 2.88471 70 139 126
-1.21426 -0.781779 2.96293 86 147 137
-0.963287 -0.772497 2.94692 102 146 145
-0.826446 -0.769783 2.93867 87 152 143
-0.137554 -0.761522 2.90451 96 160 155
0.0982504 -0.756253 2.88218 107 154 145
-1.50658 -0.775294 2.96813 69 102 95
0.896508 -0.73937 2.82853 128 184 171
0.0293132 -0.748319 2.88956 93 137 144
-0.732419 -0.742774 2.92949 99 143 142
0.877505 -0.717962 2.84002 117 181 162
-1.73662 -0.746719 2.98602 87 134 125
-0.519488 -0.732234 2.93199 85 151 140
-0.794871 -0.734941 2.94408 92 151 143
-1.39286 -0.735225 2.97272 85 142 134
0.611925 -0.699356 2.85309 122 167 150
0.938785 -0.69887 2.83632 108 177 150
-0.810112 -0.71677 2.94477 79 150 140
-0.43802 -0.710864 2.92424 88 141 132
0.0842457 -0.703685 2.89408 170 238 221
0.102381 -0.703493 2.88862 159 239 210
0.566203 -0.696519 2.86278 82 135 122
-0.565747 -0.700015 2.94164 153 213 203
0.488846 -0.683812 2.86753 100 150 140
0.125283 -0.687826 2.89489 111 177 166
-0.603072 -0.694063 2.93837 181 236 227
0.582324 -0.675462 2.85883 102 148 136
0.978228 -0.666663 2.8448 130 182 165
0.371791 -0.673929 2.8801 105 165 155
-0.106965 -0.671748 2.91458 102 172 159
0.434158 -0.666255 2.88593 108 168 157
0.553707 -0.663536 2.86979 102 148 135
1.13881 -0.657756 2.84059 108 185 171
0.0272507 -0.669065 2.90028 80 123 108
-0.665628 -0.670597 2.93684 162 222 212
0.624648 -0.65515 2.8679 88 143 124
0.961267 -0.6518 2.84784 88 165 127
1.55122 -0.643508 2.82247 103 180 152
-0.579314 -0.667557 2.94386 163 213 201
-0.56705 -0.662232 2.9294 49 82 75
0.706931 -0.641754 2.86312 110 169 154
-1.21175 -0.66223 2.97102 88 148 138
0.176826 -0.638765 2.89892 180 231 224
0.083662 -0.633676 2.89956 86 143 128
-0.122129 -0.634105 2.91711 113 155 144
0.088992 -0.627555 2.89824 73 134 114
1.08485 -0.617817 2.85044 89 141 118
0.0524534 -0.626545 2.90785 73 113 95
0.554307 -0.617462 2.87152 130 175 156
0.609615 -0.615176 2.87385 115 152 144
0.254799 -0.616331 2.89646 108 149 142
-0.902282 -0.625083 2.95572 82 143 129
1.37103 -0.602466 2.84187 115 161 149
0.156878 -0.611986 2.9061 112 147 137
0.542255 -0.603563 2.8644 174 220 198
-1.32541 -0.62419 2.97682 147 205 194
-0.0116629 -0.608141 2.9125 174 235 221
0.0151143 -0.607377 2.90905 84 139 124
-0.686693 -0.60916 2.94873 168 230 216
0.708775 -0.593786 2.87281 100 151 143
0.823934 -0.593138 2.85787 124 190 171
-1.20703 -0.612686 2.97665 84 131 123
0.457709 -0.590481 2.87631 182 247 222
0.553878 -0.590821 2.87247 116 145 136
-0.643772 -0.601652 2.94663 83 132 118
0.142166 -0.59307 2.90366 116 164 158
-0.388283 -0.599011 2.94183 87 171 147
-1.34687 -0.603959 2.97866 82 131 123
0.536204 -0.57609 2.86536 88 112 102
0.594747 -0.569291 2.86672 187 234 225
1.12994 -0.566926 2.85362 111 199 169
-0.434403 -0.580531 2.94159 109 171 159
0.00537383 -0.573927 2.91273 84 124 113
0.715198 -0.565276 2.87482 161 221 210
1.08654 -0.558982 2.86571 86 165 144
-0.607565 -0.57026 2.94998 85 145 137
0.0502961 -0.564175 2.91244 112 165 156
-1.13924 -0.56771 2.9764 100 166 155
0.846697 -0.548141 2.87044 140 216 175
-1.15565 -0.564441 2.97649 89 144 135
0.151498 -0.551871 2.90864 93 148 139
0.31249 -0.553628 2.91077 113 179 167
1.06234 -0.541214 2.86279 92 193 155
-0.531182 -0.556415 2.95203 84 133 117
0.940203 -0.540448 2.8669 76 147 121
1.28949 -0.536308 2.85689 82 136 113
1.36419 -0.535613 2.84674 178 254 213
-0.856035 -0.550815 2.95551 93 146 137
-0.858817 -0.549785 2.96249 104 155 151
0.476166 -0.535526 2.89561 105 173 150
0.692847 -0.532077 2.8745 129 160 161
1.04073 -0.528688 2.8659 93 144 117
-0.910848 -0.538317 2.96327 85 142 127
0.234618 -0.530155 2.90991 106 157 150
0.0323129 -0.529941 2.92383 90 153 144
-0.864854 -0.532082 2.95922 91 156 141
0.907932 -0.518609 2.87728 101 169 138
0.654134 -0.51593 2.8821 115 158 147
0.683667 -0.517048 2.88418 88 142 125
-0.924653 -0.52555 2.96882 83 129 107
0.871934 -0.51174 2.87218 68 107 81
-0.252531 -0.519467 2.94104 151 203 185
0.490634 -0.50818 2.89677 109 165 152
-0.952385 -0.516579 2.96266 90 138 139
-0.729491 -0.504941 2.95479 158 211 201
-0.783765 -0.502496 2.9573 106 157 143
-0.682768 -0.502549 2.95703 91 150 129
0.275072 -0.493807 2.90549 199 235 235
-0.574465 -0.496621 2.95379 90 157 142
0.85659 -0.481947 2.85969 171 217 204
0.866601 -0.474476 2.85578 181 224 211
-1.08007 -0.489931 2.98086 88 144 139
0.924957 -0.472955 2.88061 103 148 121
0.863568 -0.466866 2.86141 107 132 122
0.843708 -0.463559 2.8601 107 142 128
1.0782 -0.467996 2.87536 78 134 99
-1.21265 -0.47412 2.98356 173 229 218
1.32251 -0.457294 2.86947 101 150 130
-0.038728 -0.464214 2.94122 204 240 255
0.847079 -0.453077 2.85134 181 221 210
0.880269 -0.453345 2.85838 168 233 187
1.19861 -0.452836 2.87669 103 157 150
1.06881 -0.45212 2.87869 85 127 109
1.28638 -0.449888 2.87457 120 177 156
0.475772 -0.449073 2.91106 85 157 137
0.867693 -0.444812 2.85865 204 235 226
0.930802 -0.448371 2.88912 89 121 96
-1.20311 -0.450188 2.98906 99 156 148
0.928006 -0.438276 2.88949 132 207 169
0.915359 -0.434849 2.88153 68 83 56
-0.530168 -0.441551 2.95424 96 165 144
-0.233534 -0.439748 2.93621 151 201 189
1.34904 -0.429098 2.87845 112 179 150
1.15494 -0.428572 2.87914 118 190 160
-0.479692 -0.434025 2.95932 77 122 105
-0.61173 -0.433821 2.95803 87 141 124
0.801492 -0.41823 2.87038 152 230 193
0.868255 -0.416594 2.85568 168 229 215
0.68251 -0.420191 2.89617 106 144 138
1.0387 -0.419762 2.88833 112 173 147
-0.522126 -0.42549 2.95343 166 233 218
0.72509 -0.413418 2.89172 75 118 97
1.69619 -0.412277 2.86647 93 152 137
0.928783 -0.407996 2.88561 101 153 123
1.15537 -0.409385 2.89005 70 117 95
1.69568 -0.403422 2.87067 160 235 203
1.70015 -0.403124 2.87353 160 222 192
-0.88433 -0.413851 2.96974 101 161 151
0.800637 -0.400621 2.86842 133 209 175
0.336965 -0.406145 2.9237 101 165 160
1.70326 -0.396204 2.87516 97 140 127
-0.453601 -0.399186 2.96597 95 151 138
1.35244 -0.390122 2.87861 114 194 171
-0.134004 -0.394872 2.93718 73 128 119
-0.613791 -0.395024 2.96298 79 121 114
0.886935 -0.380263 2.87312 80 115 81
-0.836073 -0.389275 2.96968 99 152 138
1.34267 -0.380861 2.88725 103 163 145
-0.458865 -0.385746 2.95944 72 143 123
0.896249 -0.37779 2.87515 145 212 161
1.66924 -0.377286 2.87596 98 163 137
1.32766 -0.375188 2.88447 78 136 107
-0.273805 -0.379143 2.95383 150 226 208
0.817005 -0.365399 2.87166 92 151 120
0.823831 -0.360294 2.86837 170 253 214
0.686627 -0.362545 2.89571 108 146 146
-0.273757 -0.368213 2.95751 87 123 109
0.378691 -0.364362 2.93001 82 136 119
0.934429 -0.36127 2.90367 82 143 105
0.586165 -0.355268 2.91918 82 159 145
1.49034 -0.355956 2.89006 94 147 127
-0.738212 -0.354659 2.96643 99 168 153
0.517956 -0.338512 2.91818 100 166 155
0.729694 -0.337854 2.90524 115 185 162
-0.385287 -0.334245 2.95185 145 232 198
-0.477817 -0.296916 2.66655 99 140 103
0.591822 -0.324828 2.92579 96 172 148
0.933811 -0.32007 2.90548 51 85 68
0.369659 -0.319676 2.93382 105 165 155
0.813473 -0.319518 2.90557 86 157 124
0.71293 -0.308297 2.91343 101 150 122
1.20559 -0.30744 2.9048 116 166 148
-0.364811 -0.304865 2.96204 91 116 96
-0.183841 -0.302341 2.95406 72 149 135
-0.0597207 -0.302025 2.9445 88 136 124
0.454026 -0.297522 2.93626 71 131 113
0.425834 -0.293709 2.93457 97 158 148
-1.25459 -0.294259 2.99612 108 169 165
0.860123 -0.280631 2.91748 88 151 125
-0.7143 -0.280012 2.97385 101 154 144
0.0164644 -0.279226 2.9485 111 158 155
0.767452 -0.270744 2.92227 105 169 139
-1.0349 -0.27578 2.98645 90 162 150
-0.761868 -0.271172 2.97068 99 152 142
-0.0593657 -0.267596 2.92655 122 184 160
0.0228037 -0.270178 2.95442 153 220 211
-0.0666553 -0.26421 2.92989 64 125 99
-0.0427864 -0.261907 2.92728 49 69 56
-0.034163 -0.26497 2.93427 96 144 118
-0.147438 -0.261148 2.94811 107 143 129
0.470026 -0.25227 2.94326 116 171 162
1.1223 -0.250609 2.92337 125 184 170
1.35052 -0.249366 2.90854 103 172 145
-0.0520906 -0.246076 2.91716 160 210 192
-0.084169 -0.239877 2.92764 102 165 155
1.0491 -0.237144 2.92698 115 187 164
-0.83481 -0.23577 2.97755 85 155 138
1.40644 -0.234012 2.91319 79 161 139
-0.0110464 -0.230399 2.92968 135 214 175
1.32609 -0.230868 2.92023 89 156 129
-0.423868 -0.230609 2.96892 84 156 133
-0.0291163 -0.22044 2.91852 129 192 160
0.523478 -0.220343 2.94365 107 175 168
-0.00594282 -0.217416 2.93177 43 67 49
-0.340735 -0.21862 2.96721 98 167 152
0.193772 -0.215636 2.95963 100 152 159
0.0717358 -0.200932 2.95531 78 137 129
0.342342 -0.199707 2.95177 70 119 103
0.925199 -0.195645 2.93528 111 173 155
0.366461 -0.19004 2.95595 118 179 175
1.41226 -0.189289 2.93073 98 173 157
1.35856 -0.186488 2.92497 92 165 143
-0.00326532 -0.183298 2.94493 188 225 215
-0.759607 -0.183551 2.97487 238 255 252
-0.0139454 -0.181094 2.94005 102 145 134
-0.724614 -0.18047 2.98181 94 159 150
-0.0196887 -0.177718 2.93704 131 186 167
-0.28581 -0.165242 2.96856 103 152 138
-0.215289 -0.153612 2.96842 81 152 132
-1.40299 -0.150171 3.0063 90 137 145
0.609814 -0.137035 2.95108 96 159 149
-1.41621 -0.139986 3.00432 98 161 159
-0.102162 -0.133184 2.9612 58 119 105
0.336506 -0.129241 2.96291 120 176 171
0.515303 -0.128139 2.95568 93 160 151
0.0106401 -0.123852 2.96173 72 91 82
0.888731 -0.114774 2.94478 121 175 158
-0.0804743 -0.108983 2.95972 97 176 143
0.489745 -0.104596 2.95823 117 183 171
-1.04513 -0.0882762 2.99518 97 161 149
0.0196311 -0.0795337 2.97492 95 150 147
-0.753681 -0.0800356 2.97908 85 153 130
-0.109291 -0.0746481 2.96817 146 205 191
-1.51285 -0.0716645 3.00588 72 131 123
-0.129886 -0.0684562 2.96116 141 200 172
-0.704477 -0.067474 2.9808 161 239 208
-0.860115 -0.0656298 2.9878 100 173 151
-1.49834 -0.0601032 2.99862 175 254 241
-0.785378 -0.0570685 2.98817 125 167 166
-0.020286 -0.0574122 2.96765 102 150 132
0.561103 -0.054442 2.96416 116 187 171
1.50213 -0.0497542 2.95248 93 158 132
0.369263 -0.0399302 2.97052 96 132 120
-0.784409 -0.0391147 2.98636 86 156 126
-0.468356 -0.0366675 2.98272 69 140 120
-0.158581 -0.0363536 2.97295 127 188 174
0.559915 -0.0326259 2.96513 82 126 120
0.598806 -0.0330369 2.96718 96 161 139
-1.3747 -0.0296352 3.0112 102 156 143
-0.957233 -0.0280592 2.99008 107 160 146
0.362276 -0.0213568 2.97547 92 151 131
0.350079 -0.00928016 2.97551 96 163 154
0.405289 0.00277034 2.97665 89 163 151
1.04495 0.000651126 2.9658 122 175 161
-0.458714 0.00589406 2.98695 79 127 98
0.369828 0.00588865 2.97629 112 164 147
-0.988017 0.0114054 2.98875 50 79 70
1.22992 0.0135321 2.95873 88 155 146
0.404348 0.0173215 2.98045 91 153 141
1.01258 0.0199682 2.96667 108 177 156
-1.49374 0.025686 3.01342 95 153 142
-0.507152 0.0241364 2.98913 70 125 100
-0.519482 0.025716 2.99395 174 230 217
-0.360688 0.0302501 2.98669 189 233 226
-1.00192 0.0362939 2.99904 107 169 157
-0.592243 0.0421701 2.98331 60 105 79
0.575125 0.0407171 2.97751 112 172 164
-1.42473 0.0469538 3.00741 82 135 122
1.1021 0.0587758 2.97159 91 153 141
-0.930675 0.0657293 2.99317 96 155 141
-0.207525 0.0735844 2.97779 83 148 139
-0.288772 0.0801436 2.99019 88 159 133
-0.428771 0.0856095 2.98917 146 208 186
-0.834244 0.0913115 2.99742 54 126 106
-0.558664 0.098755 2.99504 86 153 138
-0.261513 0.0973204 2.98504 173 234 224
-1.44916 0.104435 3.02468 93 143 133
-0.950349 0.103883 2.99419 85 155 132
-0.915425 0.103047 2.99395 83 148 133
-0.904387 0.104796 2.98904 192 238 226
0.574909 0.113206 2.98382 89 158 143
-0.337949 0.114266 2.99195 106 175 154
-0.945155 0.124175 2.99861 77 142 126
-0.348306 0.121106 2.98532 75 134 120
-0.40822 0.129572 2.99167 60 99 91
0.931142 0.130463 2.977 97 144 135
-0.704229 0.145254 2.99742 109 179 162
-0.180073 0.140379 2.98295 88 142 112
0.747567 0.143689 2.98173 110 173 163
0.739177 0.144799 2.98248 88 161 145
-0.431366 0.158314 2.99393 89 149 125
-0.185387 0.157769 2.98679 63 115 91
-0.171844 0.171311 2.98819 62 117 102
-0.171635 0.171077 2.98925 123 178 161
-0.236551 0.176229 2.97777 167 229 213
-0.40971 0.178164 2.99014 95 157 133
-0.262699 0.178757 2.98302 172 228 217
-0.422795 0.184863 3.00596 110 168 150
0.621222 0.18676 2.98737 113 174 160
-0.263525 0.189594 2.98613 177 234 219
-0.323297 0.193307 2.99559 94 158 146
-0.194924 0.193201 2.98645 80 123 102
-0.0504205 0.208906 2.98923 108 161 151
0.967395 0.207847 2.98789 115 180 164
0.0623296 0.213298 2.98778 76 132 127
-0.195553 0.216001 2.98698 75 105 92
0.610218 0.217267 2.99521 102 173 157
0.593117 0.21921 2.99443 111 188 174
0.833472 0.228707 2.99076 94 161 152
0.656213 0.237799 2.99583 118 181 172
1.08029 0.238586 2.99352 113 162 146
-0.0327321 0.261973 2.99696 82 151 148
-0.313815 0.265062 2.99816 84 156 144
-0.264494 0.273258 2.99938 97 164 159
-0.33113 0.274285 2.99854 78 131 121
-0.765147 0.277386 3.00174 81 142 122
-0.159173 0.287261 2.98837 100 145 136
0.0252034 0.291635 2.99672 207 244 242
1.33526 0.298264 3.00327 113 174 160
-1.38362 0.302094 3.01201 73 131 113
0.0182099 0.303618 2.99703 101 172 162
-0.273291 0.305919 2.99734 162 231 221
1.10019 0.308242 2.99795 111 177 148
0.953221 0.310573 2.99597 120 193 177
-1.69762 0.316317 3.00368 92 103 117
-1.65708 0.318976 3.00383 73 96 104
-1.44904 0.326579 3.00504 96 141 125
0.094745 0.333547 2.9982 90 132 121
-1.05111 0.333779 2.9992 246 255 255
1.59376 0.337596 3.00547 101 143 132
-1.0285 0.338983 3.00015 253 255 255
0.0778331 0.338432 2.99754 111 161 159
0.336829 0.346272 3.00422 91 146 131
1.19173 0.345361 3.00342 117 161 148
-0.95266 0.348322 2.99541 156 220 208
1.55449 0.349278 3.01003 86 154 123
-0.3109 0.352435 2.99973 193 229 229
-1.74171 0.353823 3.00727 162 186 206
1.43849 0.357094 3.00147 92 148 119
1.60947 0.35803 3.01431 95 166 149
-1.0871 0.358619 2.99733 90 159 146
-0.342218 0.356386 2.98916 82 110 97
-0.789716 0.363372 3.00365 73 124 117
1.48794 0.362875 3.00597 106 145 124
0.0447486 0.367816 2.99953 107 161 154
1.39118 0.367948 2.99994 81 160 133
1.52578 0.365872 3.00514 171 245 203
1.10752 0.370433 3.00703 125 176 168
1.40389 0.367135 3.00638 159 227 202
1.42534 0.380362 3.00385 154 226 196
-1.72224 0.387094 3.0105 182 174 181
-0.997066 0.393929 2.99311 71 145 117
-0.408403 0.396106 2.99882 101 149 137
1.3986 0.397931 3.01104 81 156 135
-1.04265 0.399458 3.00167 66 142 130
