ply
format ascii 1.0
element vertex 1289
property float x
property float y
property float z
property uchar blue
property uchar green
property uchar red
end_header
0.70125 -1.78667 4.68626 162 201 169
0.774048 -1.78525 4.69213 158 193 167
0.492196 -1.78756 4.72146 144 191 158
0.956873 -1.77099 4.69908 90 121 92
0.972177 -1.77518 4.70235 119 178 140
0.76883 -1.77444 4.71832 67 93 80
0.388942 -1.78009 4.75872 71 80 60
0.81319 -1.76655 4.72856 157 205 177
1.13372 -1.75883 4.70556 142 181 155
-0.350605 -1.88364 5.05248 134 187 200
0.365316 -1.77251 4.75069 136 165 142
0.662152 -1.73264 4.67901 61 77 54
0.808348 -1.75358 4.74524 74 107 93
1.10162 -1.75087 4.72904 60 83 61
1.15153 -1.74929 4.71853 145 186 149
1.80315 -1.71831 4.63745 107 175 150
0.102142 -1.75608 4.76595 64 83 62
0.977256 -1.74455 4.72264 130 195 156
-0.795044 -1.87584 5.10284 125 178 199
0.401398 -1.76309 4.78687 99 110 90
0.624997 -1.73105 4.70983 140 189 145
0.948985 -1.72302 4.74161 87 106 85
1.49869 -1.69824 4.67002 100 168 133
1.14799 -1.71732 4.72553 131 186 161
1.99885 -1.66856 4.58711 78 146 115
0.869456 -1.71412 4.72932 55 87 63
0.957357 -1.71068 4.73675 131 169 141
1.23325 -1.70052 4.71261 58 99 78
0.374133 -1.73257 4.80969 98 136 130
1.59572 -1.67409 4.6487 100 164 135
1.45129 -1.68957 4.7052 53 109 80
-0.0739981 -1.72073 4.80856 76 110 80
1.09797 -1.67528 4.68669 160 222 186
1.95001 -1.643 4.58689 89 166 152
-0.129386 -1.70433 4.80993 142 206 176
0.902913 -1.69046 4.75443 52 94 71
1.47007 -1.65429 4.66875 139 231 180
-0.283944 -1.70471 4.84446 99 161 137
1.91506 -1.62653 4.61196 89 153 134
-0.215913 -1.69106 4.82856 137 218 179
1.01228 -1.65876 4.7319 63 118 91
0.256098 -1.68852 4.85042 113 181 146
0.583163 -1.66317 4.76854 40 62 38
0.490794 -1.66958 4.81531 87 133 87
1.16344 -1.63225 4.71662 141 208 163
0.405857 -1.67033 4.83121 55 85 50
0.42682 -1.67202 4.83999 111 154 121
-0.184011 -1.66869 4.84093 151 198 159
-0.183013 -1.67496 4.8864 143 183 148
0.97687 -1.62082 4.74147 85 157 114
1.23359 -1.60001 4.70323 147 226 205
-0.456354 -1.64936 4.88502 56 110 93
-0.335173 -1.64366 4.85519 120 202 160
0.528435 -1.63452 4.84306 53 94 63
-0.455683 -1.64891 4.88163 62 111 95
0.12 -1.64796 4.87476 127 194 157
-0.376319 -1.63929 4.86742 57 95 73
0.084873 -1.63795 4.8793 135 180 153
-0.190996 -1.63832 4.88513 118 157 136
1.47606 -1.5669 4.65946 96 163 136
0.0862427 -1.64195 4.9099 146 194 165
0.507556 -1.6174 4.84709 47 88 57
1.62142 -1.5481 4.62789 164 239 195
-0.5014 -1.64352 4.92448 143 189 177
-0.20605 -1.63127 4.88636 146 227 188
0.0709819 -1.63878 4.90058 43 77 60
1.57429 -1.55135 4.65424 80 136 107
-0.127556 -1.61393 4.86672 102 147 130
-0.0471027 -1.63144 4.91769 78 124 95
0.507302 -1.61958 4.86419 60 94 63
0.537194 -1.61229 4.84331 77 119 88
1.46172 -1.54853 4.67466 165 240 208
0.0133213 -1.61502 4.8961 104 164 130
0.549832 -1.59103 4.81949 119 194 162
1.44727 -1.5372 4.67199 102 171 144
1.50633 -1.53848 4.66753 69 134 108
0.289017 -1.58113 4.82613 47 80 53
0.417664 -1.58497 4.83585 132 202 161
1.46928 -1.52819 4.67541 79 129 111
1.11701 -1.52744 4.71583 96 158 128
0.693029 -1.55245 4.79172 76 124 96
-0.524507 -1.59706 4.94991 150 192 185
0.623252 -1.54878 4.79766 61 109 73
1.36299 -1.51218 4.68789 89 151 137
-0.775633 -1.57086 4.89315 176 230 207
0.512242 -1.54459 4.80967 97 152 113
-0.758696 -1.56996 4.90842 75 110 83
-0.758077 -1.57177 4.92405 69 97 77
-0.00582803 -1.5698 4.90695 63 108 81
1.93798 -1.47145 4.59565 107 170 154
-0.525742 -1.56612 4.95142 58 88 77
0.188093 -1.55058 4.88631 72 132 102
0.223859 -1.54505 4.87725 137 229 186
1.05852 -1.49774 4.72172 95 146 118
2.06629 -1.43891 4.58441 60 101 80
-0.298932 -1.54545 4.93648 73 131 96
-0.664959 -1.54176 4.93414 102 133 124
-0.62999 -1.53136 4.89838 133 210 183
1.71174 -1.44834 4.6427 109 166 151
2.07526 -1.41493 4.53542 114 190 156
2.1165 -1.41798 4.54852 73 136 110
-0.404128 -1.53946 4.96648 125 226 175
-0.0454156 -1.53438 4.93601 58 99 78
-1.10652 -1.53151 4.94839 73 117 81
-0.436707 -1.53719 4.9742 152 222 185
2.08681 -1.40645 4.55411 90 145 128
-0.186686 -1.51573 4.95456 83 144 130
-0.396216 -1.51171 4.9424 82 152 112
-0.209257 -1.50344 4.92149 72 114 97
-0.033396 -1.48971 4.88766 134 212 165
0.68923 -1.46859 4.81619 93 150 135
-1.05328 -1.50065 4.92466 160 208 184
-0.59854 -1.50452 4.949 136 203 176
-1.12248 -1.50489 4.98155 46 76 51
-1.10526 -1.50595 4.97059 130 198 163
1.41785 -1.41277 4.66878 103 173 156
1.60607 -1.40232 4.63457 84 145 117
2.32963 -1.36499 4.50847 79 142 110
-0.624977 -1.49863 4.96158 54 93 71
-0.48814 -1.49613 4.97297 100 179 146
-0.278235 -1.47852 4.90232 159 229 192
-3.05165 -1.63923 5.43918 137 135 134
-3.18094 -1.63321 5.44345 132 118 120
-1.24118 -1.48343 4.95363 52 114 84
-1.01472 -1.48222 4.94658 162 217 198
1.57481 -1.39245 4.63716 78 131 141
-0.516969 -1.48482 4.9789 98 156 121
2.35359 -1.32964 4.50418 138 209 166
-0.395092 -1.45293 4.94146 38 77 55
-1.21567 -1.4665 5.00516 163 213 173
-1.13625 -1.46683 4.992 108 151 118
-0.837639 -1.46194 4.99696 100 189 150
-1.03583 -1.44268 4.97102 115 167 150
0.676024 -1.3877 4.784 98 171 145
0.734874 -1.38694 4.77507 88 161 139
1.52541 -1.34678 4.65715 84 131 109
1.67653 -1.3363 4.62303 81 147 122
-0.828912 -1.43177 4.97315 151 214 188
1.32516 -1.33939 4.66859 81 151 121
2.13144 -1.30846 4.54813 99 161 137
-1.03424 -1.42909 4.995 60 95 75
-0.265868 -1.40128 4.89519 163 237 207
2.10586 -1.30329 4.56637 99 144 127
0.265086 -1.37755 4.83682 81 160 121
1.18034 -1.33787 4.70763 95 157 143
-1.20829 -1.43203 5.03749 86 120 96
0.874097 -1.3455 4.74967 109 162 159
1.2934 -1.32472 4.68517 84 151 136
1.66258 -1.31424 4.64228 89 132 121
-1.17523 -1.41574 5.02659 151 205 168
0.0901668 -1.37267 4.8577 91 151 121
1.16485 -1.324 4.6944 158 232 214
-0.235278 -1.37334 4.88573 122 195 169
-1.21406 -1.40908 5.02136 39 67 44
-0.983195 -1.40782 5.02029 77 111 74
0.904887 -1.32925 4.75408 94 144 126
-1.41192 -1.40145 5.02085 115 175 145
-0.524164 -1.38424 4.94402 90 122 91
-0.270029 -1.35994 4.87567 127 202 174
-1.02112 -1.3897 5.00323 74 131 100
-1.19286 -1.40284 5.05658 65 84 59
1.28141 -1.29726 4.68132 86 158 138
2.33019 -1.24646 4.50253 133 219 179
-1.13961 -1.38751 5.03595 123 173 141
-0.139258 -1.3465 4.8923 146 206 165
-0.612012 -1.35776 4.97269 41 91 67
-0.41535 -1.35618 4.96185 86 152 117
-2.13761 -1.32547 4.86443 99 178 151
-1.01467 -1.36328 5.0142 93 155 115
-1.2699 -1.37313 5.0855 72 120 84
-1.46756 -1.3651 5.09136 166 230 195
-0.652936 -1.33884 4.96785 80 136 113
-0.225213 -1.31613 4.90394 51 105 75
0.158279 -1.30858 4.85757 83 153 113
-1.31663 -1.36465 5.10838 127 190 148
0.36137 -1.29325 4.82428 94 145 117
-1.20107 -1.34682 5.04163 165 239 191
-0.750709 -1.33207 4.99 68 138 101
-0.431978 -1.32787 4.96581 107 165 140
-2.2172 -1.29043 4.85724 126 201 173
-0.227533 -1.30209 4.89737 168 238 202
-1.15984 -1.33622 5.04684 159 236 209
-1.05517 -1.33235 5.04134 53 92 71
-0.52837 -1.30847 4.9865 54 99 60
-1.36027 -1.33154 5.11831 88 147 119
-0.157841 -1.27845 4.88955 149 223 181
0.67239 -1.24498 4.75668 91 155 119
0.911412 -1.2354 4.72783 105 156 148
-0.171269 -1.27697 4.90897 73 129 100
0.888394 -1.22802 4.73711 104 157 148
1.95756 -1.18149 4.56613 78 116 98
-0.848782 -1.28577 5.01783 95 147 129
-0.11197 -1.25063 4.90219 159 221 199
-2.05016 -1.23676 4.89177 129 190 152
-1.03945 -1.27421 5.05207 123 212 169
-1.27639 -1.2824 5.09751 69 126 87
-0.797786 -1.2484 4.9824 133 206 168
-1.06684 -1.24887 5.01256 137 235 191
-0.909371 -1.24934 5.01147 53 124 81
-0.890874 -1.25763 5.02895 56 123 91
0.459194 -1.2025 4.82635 140 216 174
-2.07405 -1.21345 4.90552 116 192 168
-2.01906 -1.21288 4.92164 54 77 62
-1.55982 -1.25426 5.11229 82 165 113
-0.719963 -1.23059 4.9931 81 140 102
-1.63348 -1.2634 5.15567 96 183 147
1.04109 -1.15155 4.70235 110 160 142
-0.236118 -1.19934 4.90929 96 163 132
1.17823 -1.14296 4.70121 55 80 54
-2.56807 -1.1797 4.93723 108 152 165
-2.10648 -1.17711 4.91623 112 209 183
-0.265638 -1.18304 4.94897 95 179 137
0.453931 -1.14759 4.8136 65 115 85
1.13195 -1.11926 4.70364 143 218 186
-0.158493 -1.17368 4.93496 89 154 115
0.0727258 -1.12797 4.83597 117 219 172
-0.753098 -1.16023 5.0114 161 237 206
-0.483257 -1.14468 4.97657 102 177 149
-0.0937434 -1.11898 4.91139 132 209 175
-1.03332 -1.14171 5.02542 60 126 97
-0.0161263 -1.1015 4.86523 101 150 118
-1.22877 -1.13839 5.09028 74 133 102
-0.0340007 -1.09329 4.8893 59 111 87
-1.70455 -1.14566 5.14837 242 255 255
-0.417391 -1.10061 4.97184 130 219 175
0.275459 -1.06404 4.80864 75 127 97
-0.82664 -1.10049 4.99519 134 225 186
0.102974 -1.07303 4.86818 72 162 116
-2.37808 -1.10347 5.02244 165 203 255
-0.811385 -1.09793 5.00932 44 116 86
0.118367 -1.05955 4.8579 161 240 199
-2.30023 -1.08637 5.02491 128 141 185
-2.28002 -1.08387 5.01278 116 130 166
-2.26832 -1.06182 4.97704 140 155 201
0.989313 -1.01461 4.74455 78 120 97
0.289859 -1.02986 4.8468 142 222 179
-1.29547 -1.05435 5.085 157 245 209
-0.466625 -1.02853 4.98919 90 152 146
0.933838 -0.978629 4.73865 104 170 145
0.737476 -0.981627 4.76931 49 100 63
0.794197 -0.967806 4.75706 96 152 117
-1.17111 -1.00986 5.07769 83 147 128
0.269501 -0.951922 4.82106 86 150 128
0.271912 -0.951642 4.84895 95 161 142
0.56972 -0.936016 4.79838 102 170 129
-2.48996 -0.942106 4.85901 92 127 117
0.721665 -0.925445 4.77513 71 137 108
0.808802 -0.907456 4.73671 82 139 130
-3.27668 -1.0285 5.40235 94 127 106
-2.50923 -0.922329 4.86755 131 190 162
-2.15324 -0.920748 4.94906 118 224 171
0.555591 -0.884274 4.77792 70 131 97
-0.158354 -0.900345 4.89928 94 178 150
-2.10685 -0.900916 4.94329 43 115 95
-0.918844 -0.895065 5.00195 80 127 105
-1.25535 -0.794639 4.5442 185 248 206
-0.517617 -0.865717 4.96292 88 151 135
-0.227233 -0.855796 4.91952 82 150 115
0.471837 -0.837054 4.80163 64 118 89
-0.101302 -0.852915 4.90634 96 181 159
-2.13288 -0.856567 4.98335 64 139 111
-2.02966 -0.844806 4.95576 165 220 255
-2.20825 -0.834276 4.98272 171 233 251
0.765376 -0.7867 4.76507 158 240 198
-2.18881 -0.817835 5.01144 120 146 170
-2.3802 -0.816022 5.03527 56 111 84
-2.31651 -0.811061 5.0376 58 89 82
0.646367 -0.765749 4.76248 171 240 197
-2.15929 -0.798117 4.99893 89 110 161
2.1258 -0.715323 4.51482 156 244 191
0.283033 -0.757629 4.83166 112 181 154
0.586365 -0.745264 4.77119 90 140 122
0.833095 -0.742496 4.74979 81 120 122
-2.3702 -0.786701 5.04222 54 88 71
-2.32309 -0.7791 5.01785 112 195 170
0.541907 -0.741085 4.78534 50 92 75
0.532025 -0.731758 4.78924 44 108 86
0.636878 -0.733474 4.78197 137 224 174
0.0768334 -0.737772 4.85376 106 190 156
-2.30844 -0.760687 5.04635 149 201 242
-2.14565 -0.752042 5.06258 149 166 169
0.647205 -0.708933 4.77686 84 130 141
-3.01752 -0.801886 5.41491 208 230 242
-2.21803 -0.748569 5.05092 91 117 134
-0.928571 -0.698132 4.71842 186 227 196
0.614402 -0.703779 4.78294 56 102 96
-1.57041 -0.667951 4.59813 181 227 191
0.75085 -0.679395 4.74502 137 220 182
-3.00312 -0.76309 5.39094 151 161 179
-1.96175 -0.73789 5.22156 72 84 112
-0.409663 -0.697291 4.95186 102 186 157
0.351783 -0.683024 4.82477 108 173 157
-2.13963 -0.708138 5.08304 118 144 151
-2.99348 -0.741824 5.38452 197 217 235
0.460324 -0.657829 4.79931 108 180 160
0.722406 -0.651529 4.75682 138 217 174
-2.0521 -0.712545 5.21939 112 121 155
-1.92599 -0.698687 5.17426 196 240 247
0.686101 -0.633283 4.762 133 209 168
2.11432 -0.597858 4.51929 117 177 159
-0.574125 -0.65339 4.97579 91 181 151
-1.96624 -0.676373 5.20144 87 88 102
-1.9469 -0.67787 5.18565 160 193 208
-0.173175 -0.634988 4.90184 115 178 168
-0.00489016 -0.624356 4.85436 101 166 150
0.705889 -0.601509 4.74929 51 87 51
-0.0950476 -0.612648 4.87503 78 153 125
2.18424 -0.561863 4.51807 83 135 105
2.58172 -0.558876 4.45807 148 225 188
2.61424 -0.559623 4.44959 71 116 99
2.19573 -0.559593 4.54147 95 159 130
0.449845 -0.583641 4.80893 124 177 157
0.689719 -0.579381 4.73569 98 134 98
2.16962 -0.554129 4.51426 43 92 76
-0.69035 -0.607332 4.9994 86 152 123
0.511464 -0.581157 4.78655 92 153 119
2.66399 -0.521514 4.44413 92 159 120
-0.736161 -0.555093 4.98729 82 171 132
-0.243593 -0.544795 4.90886 87 156 143
0.341342 -0.531066 4.80353 102 191 152
0.447498 -0.525546 4.79509 59 129 93
-2.74266 -0.566183 5.32535 149 165 172
0.364385 -0.511133 4.80901 88 167 128
-2.93971 -0.565486 5.36597 161 179 208
-2.14235 -0.534181 5.06529 124 213 193
0.515155 -0.496515 4.76662 154 239 195
0.554021 -0.50231 4.78787 74 136 100
-2.85811 -0.540804 5.32903 166 169 174
0.552008 -0.485584 4.80468 136 205 168
-0.700794 -0.496958 4.98694 107 179 156
2.59726 -0.438349 4.43819 168 237 194
2.56877 -0.429397 4.4654 128 191 151
2.58359 -0.414593 4.44555 152 208 185
2.07623 -0.421489 4.54745 157 218 190
2.56159 -0.413039 4.46439 87 132 105
0.62276 -0.442933 4.78233 106 150 113
0.697379 -0.436724 4.76208 38 64 41
0.284276 -0.434657 4.80838 76 143 111
0.472983 -0.426688 4.78751 53 128 84
0.216194 -0.430327 4.81382 59 123 88
2.4778 -0.39542 4.46778 99 140 125
2.114 -0.393598 4.52032 68 132 110
2.19917 -0.385964 4.52781 81 132 112
-0.552517 -0.420416 4.97926 88 165 127
0.0658666 -0.401178 4.76068 80 153 107
2.4427 -0.37917 4.48188 158 234 202
-0.62181 -0.41098 4.9313 125 213 167
-0.616972 -0.411613 4.93256 127 212 167
0.0771246 -0.384244 4.75828 138 244 197
2.09836 -0.364667 4.52494 68 133 111
2.54143 -0.354338 4.47656 92 151 136
-0.0565526 -0.373623 4.79402 61 127 85
2.72577 -0.338578 4.44219 121 170 156
-0.690236 -0.376603 4.97515 82 155 129
2.07185 -0.330678 4.5379 129 200 160
2.10041 -0.335159 4.51402 72 127 100
-0.623481 -0.359077 4.95231 106 170 170
0.137495 -0.350665 4.8318 130 223 172
2.23334 -0.329015 4.51857 65 124 109
-0.115067 -0.344384 4.80044 145 224 183
0.392332 -0.346259 4.79751 60 104 73
-0.794441 -0.349175 4.99511 78 133 106
-0.0593537 -0.330575 4.76333 155 234 183
-0.0909194 -0.330927 4.78282 178 243 198
-1.99829 -0.3301 4.8519 146 245 205
-0.801485 -0.337333 4.99992 140 219 205
0.20336 -0.322058 4.82017 55 100 81
0.301338 -0.3232 4.80841 149 234 202
-2.03754 -0.319796 4.8503 148 214 185
2.30571 -0.291376 4.52189 83 133 115
0.287958 -0.297276 4.8038 142 233 194
-1.95841 -0.302437 4.86303 136 225 182
0.461973 -0.29779 4.78445 101 155 112
2.20159 -0.276242 4.49897 96 133 107
2.40406 -0.27682 4.50946 78 126 127
-0.169608 -0.274121 4.85796 134 202 155
-0.111458 -0.276547 4.83384 51 82 51
-1.89302 -0.268969 4.87811 162 234 198
0.304053 -0.260004 4.80278 83 149 124
-2.06436 -0.260545 4.88093 127 193 151
-0.415661 -0.258104 4.93356 77 154 116
-0.211566 -0.255326 4.86397 69 123 88
0.159707 -0.245562 4.81766 83 145 121
0.214132 -0.248272 4.81934 76 123 101
-2.62732 -0.264284 5.30533 147 195 213
0.237297 -0.23604 4.81395 48 93 76
-0.190899 -0.233343 4.88862 54 101 68
0.31795 -0.228182 4.8175 76 150 114
2.10135 -0.221261 4.56311 68 114 95
-0.351799 -0.232717 4.91409 83 141 113
-0.263855 -0.230257 4.90726 86 143 105
-0.169339 -0.229334 4.87425 111 173 127
0.317859 -0.226082 4.83063 79 145 116
0.365352 -0.227341 4.79447 140 196 161
2.21203 -0.209001 4.53945 88 159 126
-0.124159 -0.220746 4.83491 88 141 114
-0.445858 -0.223101 4.9294 99 169 129
0.36745 -0.214825 4.80717 56 104 68
-2.85129 -0.234039 5.37264 136 137 147
2.16568 -0.192267 4.56098 90 157 120
-0.516024 -0.192992 4.94642 73 122 94
0.426887 -0.186032 4.80807 55 87 63
-0.0877723 -0.18127 4.87015 150 220 180
-0.658701 -0.175796 4.98034 94 180 146
2.19497 -0.166361 4.55017 105 169 157
-1.83212 -0.173628 4.92851 132 209 181
-1.97029 -0.16606 4.84331 89 143 106
0.214064 -0.164134 4.79629 55 110 91
0.0977249 -0.153757 4.82387 144 207 165
0.320882 -0.155453 4.8254 71 141 104
-2.02043 -0.15147 4.925 57 74 53
0.341686 -0.137782 4.80209 58 98 70
2.09242 -0.130363 4.55987 103 168 143
-2.44907 -0.129792 5.28128 126 179 166
0.352485 -0.0993315 4.79543 138 219 180
0.438061 -0.101065 4.78879 124 183 152
0.315595 -0.0938752 4.80848 71 146 108
-0.0323326 -0.0914251 4.85902 166 241 197
-0.302249 -0.0831913 4.91726 62 134 88
-2.02631 -0.0771104 4.93422 57 88 81
-1.51413 -0.079013 5.13709 151 209 221
0.337775 -0.0738499 4.82547 89 169 134
-2.01891 -0.0800408 4.91855 58 85 75
-1.41826 -0.0784655 5.11326 93 141 135
-1.38343 -0.0785092 5.12948 76 103 93
-0.0459356 -0.0712376 4.86865 59 128 85
-0.489632 -0.0642984 4.97163 57 139 110
-0.394657 -0.0638651 4.91444 142 226 178
-0.154687 -0.0482886 4.90631 130 211 172
-0.13722 -0.0508123 4.87122 62 112 78
-0.0174371 -0.0481226 4.85503 171 241 211
0.00144206 -0.0513409 4.88029 164 231 216
1.80901 -0.0521447 4.60211 74 114 86
1.81075 -0.037289 4.6079 137 216 177
-1.54842 -0.0389992 5.14422 78 102 102
-0.457395 -0.0333298 4.99703 84 152 129
-0.101532 -0.0274109 4.89301 135 210 182
0.363861 -0.0318689 4.79664 151 224 186
0.3325 -0.027797 4.83832 157 227 196
-1.59198 -0.0233363 5.16482 152 217 218
-1.53924 -0.0177362 5.17051 109 161 178
0.34314 -0.0152154 4.81567 64 99 73
0.157278 -0.0113049 4.85182 82 157 119
0.484669 -0.0121724 4.7836 104 146 105
-1.72682 -4.09607e-05 5.19031 163 209 226
-1.01567 0.000219484 5.05928 253 255 255
1.95446 -0.00144294 4.5894 62 142 119
-1.61074 0.00377192 5.15654 154 208 215
-1.6206 0.00959452 5.18645 147 210 218
0.208502 0.0118583 4.83291 47 92 65
0.360228 0.0163944 4.84657 73 100 90
2.10226 0.0172007 4.5655 57 89 65
0.395625 0.0192098 4.81297 40 56 39
0.31854 0.026531 4.84964 78 137 116
-0.171024 0.032306 4.90628 107 170 154
-2.4369 0.0600972 5.30901 136 178 221
2.07877 0.0511772 4.57761 122 199 161
-0.118829 0.0594921 4.88914 81 148 117
-0.153704 0.0699348 4.9142 81 130 108
0.343438 0.0682949 4.83947 106 143 105
0.243256 0.0794195 4.84539 125 205 168
-2.51741 0.0979298 5.3271 112 136 160
-0.13371 0.0911908 4.91081 108 183 167
0.263929 0.0956415 4.83373 55 105 73
1.97392 0.0885824 4.5919 62 140 103
2.23447 0.0931534 4.58194 99 167 150
-2.10229 0.109024 5.25143 170 209 255
0.0902807 0.110822 4.8715 81 143 125
-2.40762 0.154683 5.31724 100 121 122
0.575134 0.153867 4.81219 88 115 81
0.224439 0.159789 4.86111 78 116 98
-2.33471 0.175933 5.29427 102 106 125
-2.22744 0.175159 5.27913 140 180 239
0.20572 0.163623 4.86433 100 146 133
1.48042 0.166223 4.65585 93 120 116
-1.08061 0.188977 5.11344 100 174 146
2.81093 0.172945 4.47108 83 156 130
1.34 0.184593 4.67639 99 99 111
2.7488 0.177872 4.47582 82 128 105
0.199338 0.194441 4.88126 144 175 198
1.6713 0.182995 4.64893 85 140 147
-0.208829 0.201363 4.92787 97 162 137
0.232957 0.203558 4.87743 158 203 237
1.5187 0.192102 4.66401 82 118 136
-2.54021 0.23873 5.28764 144 222 181
1.49842 0.217557 4.67754 90 150 116
1.42265 0.228891 4.65902 132 192 161
1.44291 0.228702 4.65507 145 230 186
-1.34628 0.272777 5.11582 91 166 138
-0.350777 0.268173 4.95639 89 172 134
0.0365444 0.266018 4.89822 92 159 128
1.38875 0.252492 4.65186 109 157 128
0.144064 0.26879 4.87634 77 165 125
0.2418 0.26864 4.87248 101 166 150
-1.1826 0.301508 5.07996 92 171 128
1.41911 0.277579 4.67738 111 183 140
-0.311118 0.302801 4.94264 159 228 208
0.00716497 0.309248 4.93571 120 190 167
0.960502 0.30831 4.74623 89 135 99
-0.966558 0.337481 5.06252 98 168 138
1.19429 0.327865 4.70523 162 244 201
0.250289 0.361209 4.88331 84 157 141
0.220816 0.376297 4.88943 98 167 152
-1.60279 0.417366 5.18022 129 170 162
2.52691 0.365356 4.53492 92 162 145
0.571557 0.400654 4.86337 119 184 163
1.85988 0.394397 4.6485 78 143 127
-1.11564 0.438291 5.08623 84 151 130
0.346846 0.424276 4.92168 98 155 147
1.82085 0.427079 4.66446 80 144 114
1.61066 0.436952 4.6813 95 174 153
-0.930818 0.493776 5.05767 97 164 149
1.69087 0.455618 4.68161 147 228 195
0.245 0.487481 4.89692 79 163 138
1.6939 0.45849 4.6684 90 165 127
-0.628266 0.516088 5.02328 78 158 123
0.21723 0.496835 4.88373 101 175 145
-0.945231 0.530629 5.08732 108 176 153
1.66425 0.492859 4.70908 75 135 105
0.210832 0.515906 4.89797 52 112 82
-1.22684 0.55935 5.09908 90 149 104
-0.348405 0.547383 5.00756 91 171 148
0.954841 0.52319 4.78359 114 182 165
-1.64244 0.587978 5.19575 93 161 138
0.440742 0.555451 4.89558 109 181 158
2.63658 0.514325 4.52086 105 143 131
-1.30695 0.593278 5.15543 88 166 143
0.45594 0.564754 4.88221 245 255 254
0.899933 0.558475 4.81322 97 168 152
1.11968 0.554803 4.74528 95 163 140
-1.4677 0.606974 5.17952 83 128 111
0.839526 0.569705 4.84305 76 144 133
2.77807 0.534009 4.52761 104 148 131
-0.908401 0.607685 5.10526 103 168 123
0.599725 0.575694 4.86786 93 170 156
2.68571 0.542007 4.52985 88 146 118
1.1064 0.577485 4.75757 90 152 134
1.13656 0.574715 4.76173 90 163 131
-1.11332 0.634997 5.10032 101 168 139
-1.24757 0.633781 5.1276 70 141 108
1.91857 0.59161 4.6705 81 143 131
2.81126 0.574421 4.4942 61 106 80
-0.54783 0.660062 5.03206 69 141 111
1.30551 0.631296 4.72482 68 116 88
2.79288 0.598738 4.49843 145 204 173
-1.48748 0.712406 5.19298 108 160 150
1.15019 0.657954 4.76032 168 238 202
0.933514 0.67562 4.82064 145 225 194
2.67408 0.636367 4.53833 134 181 149
1.27193 0.68135 4.76145 95 172 144
1.30741 0.686927 4.75353 142 218 176
1.58176 0.680122 4.71491 96 175 142
2.73423 0.655561 4.52291 141 211 164
1.27902 0.688655 4.73833 78 153 109
1.27754 0.706435 4.76378 63 134 107
2.73336 0.671949 4.53263 66 109 76
2.79457 0.674647 4.52048 82 156 128
1.52244 0.716504 4.72984 86 149 117
1.9959 0.706641 4.67142 97 176 157
2.50292 0.692587 4.59007 81 140 125
1.21136 0.724349 4.75912 68 133 107
0.758613 0.745452 4.86549 92 158 133
-0.627541 0.776964 5.03358 93 135 110
0.855918 0.743351 4.81223 61 103 80
-0.369274 0.799015 5.02461 105 189 161
0.852088 0.767058 4.82976 80 138 113
1.35118 0.7521 4.72863 54 102 74
0.765281 0.777837 4.87796 58 105 83
-0.635253 0.823937 5.04972 91 142 128
1.49638 0.772275 4.74273 78 152 126
-0.636955 0.830598 5.06815 89 142 128
2.82372 0.735289 4.50222 63 92 76
0.98009 0.809422 4.80506 125 223 169
0.707462 0.828639 4.89209 103 174 141
2.77789 0.796526 4.54975 162 218 199
-0.483184 0.905297 5.09111 112 188 156
1.71576 0.838717 4.71163 66 130 111
1.0451 0.860571 4.81998 136 216 173
1.14343 0.864416 4.81473 74 150 118
1.39307 0.847204 4.75695 73 149 108
-1.04559 0.920231 5.1166 144 232 192
-0.853699 0.914297 5.07573 94 178 130
2.76617 0.818024 4.54947 110 144 127
1.31955 0.864321 4.77071 98 169 149
2.38495 0.843892 4.64135 96 157 147
1.57518 0.862901 4.7483 138 233 196
1.86403 0.857681 4.72269 102 171 156
-0.660865 0.928361 5.07093 78 149 99
2.77083 0.836355 4.55749 140 214 178
-0.83737 0.939406 5.06613 85 158 102
1.14397 0.894337 4.81971 80 147 108
-0.844172 0.951821 5.09042 92 165 109
-0.824937 0.962151 5.063 68 162 105
1.4136 0.908463 4.78135 101 154 134
1.0379 0.940677 4.86101 93 152 131
2.83438 0.892149 4.57816 87 122 108
2.85723 0.89279 4.55403 109 165 136
-1.13726 1.0281 5.17052 149 227 196
2.33484 0.919376 4.63609 95 150 123
2.20681 0.945203 4.68657 102 159 150
-0.641037 1.0298 5.05438 34 117 72
-0.493086 1.03945 5.01701 44 131 75
2.36347 0.968658 4.64505 100 149 133
1.53442 1.0068 4.77855 91 157 138
-0.55047 1.06459 5.04563 131 220 170
-0.117905 1.07612 5.03568 100 157 136
0.42293 1.06002 4.94985 54 113 85
2.30868 0.998052 4.65892 76 141 125
0.328518 1.07955 5.00099 73 148 120
0.609383 1.07826 4.94894 110 166 143
-0.466153 1.09839 4.9959 70 171 120
2.64492 1.01326 4.61016 69 107 101
-0.557832 1.11851 5.06937 59 113 70
2.72935 1.01909 4.58226 78 145 114
-1.01389 1.16646 5.19143 82 142 102
-0.940679 1.16161 5.14215 147 220 174
-0.00690678 1.14973 5.03627 80 136 115
-0.424741 1.15314 5.01279 101 182 127
0.446636 1.15025 4.99185 78 126 100
1.74679 1.09399 4.77173 105 167 153
1.32061 1.11497 4.83809 93 155 141
1.89865 1.09727 4.73968 99 151 133
-2.71248 1.26518 5.46479 129 198 178
1.0394 1.13005 4.88288 51 125 83
1.92864 1.09449 4.73488 76 163 130
1.84834 1.11235 4.76627 109 155 133
-0.439579 1.17302 5.01736 162 233 183
0.448169 1.16806 5.00914 80 142 112
-0.252403 1.18854 5.04119 68 139 106
0.989209 1.17031 4.89588 78 126 100
-0.840434 1.23325 5.13524 95 145 103
-0.635501 1.22973 5.08861 129 230 175
1.18606 1.17735 4.87455 155 235 200
-0.384865 1.2343 5.0645 86 144 96
1.15874 1.20071 4.87265 81 149 118
-1.01449 1.29006 5.20362 93 168 136
-0.713295 1.27223 5.11281 134 229 184
-0.948131 1.29357 5.16336 79 137 96
1.49468 1.20188 4.80647 105 165 155
-0.741961 1.30029 5.12876 73 156 111
2.84549 1.16993 4.61134 159 210 196
1.81337 1.21247 4.77533 100 163 153
1.79999 1.2283 4.81695 105 170 161
2.68423 1.19018 4.63577 68 148 119
0.649022 1.27737 4.9703 120 183 167
2.70037 1.20261 4.66404 71 155 121
-0.760941 1.33374 5.14779 84 139 106
-2.72941 1.42635 5.46187 86 139 112
-0.840984 1.34306 5.17503 70 117 84
0.00010593 1.32388 5.05477 135 224 191
-0.878285 1.36348 5.18153 99 155 134
1.27715 1.28613 4.84876 62 118 89
-0.424958 1.34972 5.06633 120 207 157
0.991305 1.30552 4.91051 155 235 212
2.79539 1.24311 4.65864 145 220 199
0.0808395 1.36085 5.05844 94 160 135
1.04254 1.32737 4.91242 141 220 176
-3.39373 1.50916 5.53653 83 146 102
1.5049 1.32372 4.85218 112 165 155
2.41425 1.29196 4.71365 97 157 146
1.10759 1.36727 4.89499 64 124 93
-0.658036 1.44747 5.14859 129 208 159
-0.11034 1.40985 5.01825 99 171 125
1.15932 1.38277 4.91352 71 113 82
-0.692497 1.46597 5.16526 136 223 195
1.24671 1.39533 4.89823 91 150 129
-0.227684 1.46375 5.06847 67 132 83
-0.681341 1.50417 5.1784 134 221 185
-0.257594 1.48615 5.08215 132 233 181
0.104084 1.49227 5.0812 122 189 157
0.52728 1.4854 5.0371 110 170 160
-0.802479 1.55703 5.19477 83 163 116
-0.666998 1.55803 5.1934 68 112 83
-0.328708 1.53048 5.09536 136 236 188
0.621725 1.50332 5.01029 89 158 137
-2.76762 1.65024 5.48527 87 140 120
-0.986549 1.57396 5.20999 112 167 152
-0.925731 1.57828 5.21783 155 236 211
0.667246 1.52369 5.02991 84 137 110
-0.662889 1.57791 5.19632 98 166 143
-0.401601 1.56088 5.12151 99 187 133
-0.959575 1.5965 5.23244 98 146 134
1.74039 1.47569 4.85177 96 168 148
-0.197117 1.56652 5.11982 69 138 105
-0.826636 1.59504 5.1863 171 235 200
1.60888 1.5034 4.86787 96 167 150
-0.203656 1.58542 5.12852 197 255 225
1.15911 1.54246 4.94971 96 167 141
0.765806 1.58234 4.99436 135 207 184
-0.519944 1.64232 5.1577 160 239 195
-2.63676 1.76171 5.51345 128 181 161
0.369804 1.62843 5.07627 102 175 143
1.00761 1.60523 4.99418 121 190 169
-0.769191 1.67778 5.2113 80 115 89
0.723931 1.61896 5.01747 90 160 130
-2.79559 1.80591 5.55288 130 183 169
0.779143 1.64203 5.02533 150 225 204
1.1881 1.62994 4.97798 94 161 132
1.21727 1.62412 4.96915 90 155 133
-0.765309 1.72924 5.23131 105 148 127
1.30876 1.63 4.92023 146 233 189
-0.746476 1.75204 5.23613 160 221 201
-0.733172 1.75536 5.22942 83 115 91
-0.583196 1.75698 5.22081 159 228 208
1.20373 1.66529 4.9362 98 161 122
1.1927 1.6693 4.91924 137 205 158
1.15486 1.69401 4.96726 62 104 69
0.641637 1.72673 5.04331 108 179 163
-0.703134 1.79933 5.21531 112 175 155
-0.352526 1.77785 5.16018 140 229 185
-0.900366 1.83321 5.27799 120 185 164
-0.589046 1.82318 5.22018 83 138 111
-0.425227 1.81776 5.20004 104 172 141
0.464281 1.79941 5.10599 106 167 139
-2.24801 1.9437 5.48308 135 194 173
1.38936 -1.88384 4.65643 43 61 48
0.762133 -1.86942 4.65327 172 244 202
1.5834 -1.85485 4.63575 170 221 201
0.798403 -1.86829 4.67255 169 212 185
1.23893 -1.85584 4.64034 135 170 143
1.38749 -1.8649 4.65541 134 208 172
1.13035 -1.86064 4.673 135 166 145
1.15091 -1.85988 4.66768 52 59 52
1.41157 -1.85416 4.65655 53 74 52
1.53125 -1.83906 4.62302 57 82 56
0.71579 -1.84174 4.65307 185 223 205
1.1706 -1.85634 4.66745 152 180 160
1.49103 -1.84062 4.64795 61 79 56
1.68937 -1.84517 4.638 147 202 177
1.9462 -1.83872 4.62642 135 197 157
1.97797 -1.82408 4.59909 140 208 177
2.03155 -1.838 4.61988 70 112 81
0.807869 -1.85037 4.68112 69 85 68
0.91238 -1.85213 4.68699 149 197 168
1.02885 -1.8583 4.69443 50 74 62
0.741108 -1.8418 4.66893 93 111 98
1.7506 -1.82922 4.63061 60 100 72
0.600736 -1.82385 4.65455 53 67 49
1.53647 -1.82177 4.64708 55 68 54
1.17058 -1.82655 4.65658 132 175 138
1.24189 -1.80786 4.61673 165 219 189
1.43074 -1.82829 4.67567 115 174 146
0.643833 -1.82061 4.64822 157 206 174
-2.49485 -2.09963 5.39031 120 114 133
0.716046 -1.81499 4.66953 86 113 93
0.743698 -1.82876 4.69198 141 210 177
0.959512 -1.82638 4.71221 52 80 57
1.01045 -1.82524 4.6961 74 97 75
1.01928 -1.81661 4.67318 81 103 85
0.538959 -1.82314 4.73169 104 133 108
0.795238 -1.82682 4.71684 167 200 165
0.752474 -1.80896 4.69532 52 59 44
1.54213 -1.80193 4.68207 67 109 86
0.863746 -1.81278 4.72147 41 48 41
0.789954 -1.80494 4.71546 35 39 33
0.423322 -1.80625 4.73933 67 76 63
0.485278 -1.79843 4.73336 163 212 180
0.656192 -1.78392 4.68463 65 81 64
1.81628 -1.75873 4.61429 163 236 204
0.593883 -1.76796 4.65205 66 109 72
1.11167 -1.7873 4.71435 122 158 128
1.73422 -1.76324 4.63921 93 154 128
0.493164 -1.787 4.71812 167 224 186
1.8278 -1.74789 4.63081 81 145 123
0.399334 -1.78465 4.76548 68 81 55
0.422711 -1.79083 4.77248 151 190 158
0.366377 -1.77323 4.75513 130 159 136
0.554848 -1.75361 4.70018 47 55 38
1.26225 -1.732 4.64083 67 102 76
1.47709 -1.75031 4.67861 110 159 137
0.41471 -1.77184 4.75896 44 47 31
0.646921 -1.73265 4.67403 60 74 56
0.806006 -1.75233 4.73733 82 108 94
1.1508 -1.74753 4.70746 126 165 133
0.885984 -1.74909 4.74076 52 66 48
0.102081 -1.75617 4.76652 64 83 62
0.626856 -1.73177 4.71448 145 188 143
0.831488 -1.74527 4.72496 175 230 205
0.941504 -1.74099 4.72986 70 99 74
1.09285 -1.72955 4.69524 135 188 148
0.212934 -1.75669 4.79398 55 63 46
0.671978 -1.73155 4.74603 53 51 43
1.12247 -1.71074 4.69618 157 214 181
1.26364 -1.7188 4.72512 100 154 124
1.82256 -1.68232 4.61944 102 158 139
1.0916 -1.72039 4.7331 63 88 68
1.60287 -1.68301 4.66375 101 168 139
-0.588025 -1.83185 5.10028 100 154 171
-0.937601 -1.84105 5.1281 87 145 144
-0.985081 -1.83066 5.13143 116 174 179
1.92688 -1.63742 4.6046 89 155 150
0.944182 -1.68095 4.75124 66 92 79
-0.237934 -1.71924 4.84639 103 142 121
-0.0550726 -1.69723 4.81222 113 179 144
0.91962 -1.66516 4.71815 139 218 185
0.412786 -1.69779 4.81735 104 152 126
1.52482 -1.64388 4.65009 64 114 90
0.255969 -1.68944 4.85692 128 196 161
0.377226 -1.67704 4.8092 81 130 110
1.59228 -1.61123 4.62954 154 222 181
-0.269458 -1.67941 4.84967 85 126 99
0.211167 -1.69152 4.87474 47 90 77
1.26219 -1.64089 4.73602 139 210 184
0.331507 -1.66761 4.83636 90 122 103
0.845977 -1.65371 4.79442 60 107 75
1.20435 -1.62959 4.71537 149 229 192
0.194105 -1.68467 4.88438 134 218 183
0.423648 -1.66212 4.82623 102 146 110
0.0129175 -1.65455 4.83806 81 148 111
0.148641 -1.66044 4.84976 43 62 47
1.26515 -1.61543 4.72211 103 164 144
0.333563 -1.64066 4.82421 151 237 189
-0.233648 -1.6651 4.89454 39 58 39
0.429749 -1.63806 4.84464 56 80 50
1.1701 -1.59613 4.71172 70 106 76
0.526199 -1.62618 4.81107 66 108 77
0.848293 -1.60796 4.76539 128 207 168
1.67893 -1.5712 4.65701 89 156 124
0.361055 -1.61131 4.80414 55 81 58
0.485648 -1.62397 4.82592 143 219 177
1.60547 -1.56783 4.65568 78 126 97
1.1291 -1.58423 4.71233 73 114 83
-0.414224 -1.62814 4.88112 57 86 63
-0.205547 -1.63207 4.89257 141 219 178
0.0500727 -1.63004 4.89192 132 185 152
0.45316 -1.6185 4.83858 59 90 61
0.61569 -1.59721 4.78609 122 191 148
1.56015 -1.54717 4.64931 92 142 118
0.363431 -1.60123 4.81149 43 93 59
0.399976 -1.60764 4.83819 68 115 82
0.736491 -1.58988 4.78536 121 191 178
0.850172 -1.58401 4.76731 93 137 114
1.57682 -1.55166 4.65695 91 152 118
1.6609 -1.53915 4.64023 102 165 139
-0.0532216 -1.61237 4.88525 112 174 138
0.3064 -1.59292 4.81924 115 202 158
1.10771 -1.56303 4.73079 143 213 177
2.08892 -1.50354 4.5575 95 163 140
-0.625281 -1.59525 4.87733 51 95 72
-0.331234 -1.60546 4.8843 121 188 151
0.569493 -1.58315 4.825 60 104 67
0.646454 -1.56869 4.79365 117 201 153
0.675449 -1.56492 4.7877 138 210 167
0.795978 -1.55628 4.75323 107 164 155
1.05216 -1.5404 4.72359 81 127 104
-0.627346 -1.59752 4.89594 41 83 65
-0.00704833 -1.59383 4.89321 101 198 148
0.694583 -1.55338 4.79974 65 113 85
1.96381 -1.49231 4.60584 100 174 156
-0.665727 -1.58179 4.9144 57 68 52
0.00163235 -1.58191 4.89246 134 224 181
0.108883 -1.57551 4.8898 100 164 128
0.603204 -1.55661 4.81858 100 160 126
0.717301 -1.5518 4.79389 155 230 202
0.936635 -1.5231 4.73337 100 158 147
-0.757448 -1.56948 4.90431 80 113 86
-0.283191 -1.57631 4.93518 61 122 94
-0.173116 -1.5887 4.9371 47 76 53
-0.132334 -1.57789 4.92019 149 211 175
0.208415 -1.55907 4.85282 92 153 115
-0.248522 -1.56432 4.91329 59 116 83
0.708416 -1.52843 4.78816 93 150 119
-3.03855 -1.7318 5.45024 190 201 198
-1.04284 -1.56442 4.9429 79 130 103
1.05944 -1.49806 4.72449 86 142 113
1.02787 -1.49956 4.7578 116 183 154
-0.518877 -1.56377 4.95303 61 78 64
0.0889297 -1.53729 4.87751 43 104 68
0.479291 -1.52154 4.82661 94 153 122
-0.494754 -1.55232 4.95786 44 53 40
-0.165017 -1.55283 4.95192 89 134 118
-0.469952 -1.54548 4.96216 108 202 155
2.09656 -1.41628 4.53968 131 207 183
-0.503809 -1.53924 4.94874 155 200 173
0.51856 -1.48779 4.77934 163 237 203
0.626726 -1.4932 4.80828 92 164 121
-0.945499 -1.52034 4.93091 78 120 89
-0.481068 -1.53021 4.96687 51 99 71
0.90444 -1.46887 4.75735 103 156 142
-0.436804 -1.52919 4.98624 133 216 171
0.0571828 -1.49908 4.87239 147 230 185
0.507689 -1.488 4.84553 68 112 89
1.93568 -1.40954 4.58798 108 171 155
2.47124 -1.37981 4.50026 75 145 114
-1.13708 -1.51937 4.96682 228 255 237
-0.186361 -1.51463 4.94403 75 132 117
0.265808 -1.47576 4.84643 99 182 137
2.41403 -1.36949 4.50539 79 139 109
2.74657 -1.34882 4.43702 102 172 142
-1.23693 -1.50313 4.95673 189 236 210
0.232346 -1.47561 4.85461 72 147 103
1.64257 -1.40572 4.63637 84 133 113
-0.528907 -1.48283 4.92386 170 243 205
-1.18983 -1.49593 4.98209 79 113 89
-1.11787 -1.49637 4.97133 40 70 45
-0.0275663 -1.47782 4.90133 101 169 138
1.58189 -1.39389 4.65425 76 137 139
-0.724099 -1.4849 4.97399 52 91 76
-0.255325 -1.47155 4.92426 101 154 144
-0.205028 -1.4689 4.91428 176 244 219
1.56924 -1.38319 4.64856 156 230 188
-0.179063 -1.47209 4.94001 131 194 174
-3.06009 -1.60783 5.44378 142 135 140
-1.30838 -1.48041 5.01211 57 76 59
-1.10469 -1.47691 4.99819 129 161 144
-0.473694 -1.45425 4.93744 161 234 194
0.0444669 -1.44422 4.88022 150 225 181
-0.20928 -1.44116 4.90779 73 130 115
-1.12579 -1.47293 5.02476 40 52 40
-1.27292 -1.4516 4.98199 121 152 125
-1.23634 -1.45106 4.98653 84 130 101
-0.775684 -1.45116 4.96947 146 231 187
1.14893 -1.36946 4.70515 94 175 150
-1.36974 -1.45042 4.98842 58 76 59
-1.31952 -1.45548 5.01333 124 182 147
-1.15221 -1.45021 5.00753 41 55 53
-0.819317 -1.44795 5.00634 57 85 65
1.30307 -1.3603 4.6881 95 156 146
-0.870628 -1.44003 5.0092 147 236 192
2.12839 -1.30819 4.54414 98 153 128
2.49992 -1.28784 4.47309 68 121 101
-3.08814 -1.55553 5.42936 191 205 204
-0.975569 -1.42665 4.98893 138 207 162
-0.203341 -1.40324 4.91209 75 138 106
-1.04984 -1.42208 4.9858 124 190 155
1.21687 -1.33705 4.69699 98 170 150
-0.698213 -1.40397 4.96464 56 107 69
-2.03174 -1.36139 4.81794 54 102 74
-0.936044 -1.41196 5.01671 156 242 200
-0.679934 -1.40226 4.97094 144 232 186
-0.381349 -1.39176 4.92168 156 207 179
1.30212 -1.3274 4.69543 100 165 150
-1.06321 -1.40941 5.01863 39 49 43
-0.440642 -1.39238 4.96195 129 201 181
2.34674 -1.25808 4.50615 75 141 112
-1.41457 -1.40239 5.03263 121 180 149
-0.464284 -1.36886 4.94454 143 205 187
-1.0991 -1.38695 5.03093 81 112 85
-0.0323123 -1.34317 4.84812 139 212 172
-1.24466 -1.38955 5.04809 164 223 192
-1.14142 -1.38838 5.04738 132 181 149
2.13189 -1.23732 4.50605 69 133 98
-1.04454 -1.36756 5.01813 62 121 83
0.328606 -1.32341 4.84715 78 141 102
2.30438 -1.22886 4.49576 75 128 108
0.92004 -1.28805 4.74253 92 153 117
2.15372 -1.23991 4.55509 61 120 105
2.24652 -1.22525 4.52081 88 139 119
-2.12263 -1.31917 4.87076 58 128 111
-0.279851 -1.32787 4.92283 107 170 138
-0.679096 -1.33762 4.96833 142 225 186
-0.564939 -1.34305 5.00336 67 107 82
1.13562 -1.25654 4.6762 116 190 164
-0.577973 -1.32274 4.9453 167 234 197
0.928973 -1.26523 4.72849 81 143 119
-2.19292 -1.2834 4.84746 77 152 124
-2.16245 -1.28764 4.86442 54 108 95
-1.11947 -1.33647 5.04041 162 242 195
-1.05478 -1.33264 5.04568 50 87 67
-1.01281 -1.32739 5.01435 67 113 94
-0.74416 -1.31137 4.96056 151 226 182
2.07964 -1.20158 4.53074 93 169 145
-2.24527 -1.278 4.84688 207 255 237
-1.33144 -1.34485 5.11249 40 72 48
-0.553312 -1.30985 4.97134 161 225 195
1.16895 -1.22772 4.66452 100 161 147
-0.528074 -1.30861 4.98883 55 102 63
-0.353504 -1.29515 4.9626 78 146 121
-0.622917 -1.29489 4.95945 150 225 181
-1.51747 -1.33366 5.12432 157 218 190
-1.33179 -1.32894 5.11479 139 229 183
-0.0424277 -1.25804 4.84159 146 212 171
-1.38936 -1.32122 5.10782 78 147 104
-0.511129 -1.28133 4.96852 76 146 116
-0.476929 -1.27807 4.95196 184 249 223
1.35303 -1.20667 4.68202 114 179 153
-0.0900545 -1.26201 4.90321 60 88 75
1.93299 -1.17696 4.58558 99 171 135
-2.45757 -1.26996 4.95316 208 253 236
-0.834569 -1.26873 4.97529 88 145 124
-0.240408 -1.25729 4.91525 77 133 104
-1.26259 -1.26456 5.04341 72 124 87
-0.652795 -1.25647 4.98789 68 145 107
0.012684 -1.22313 4.8467 147 220 174
-1.12223 -1.2683 5.08438 66 108 77
-0.512816 -1.239 4.96256 90 159 126
-0.771085 -1.23853 4.98083 57 113 84
-0.6877 -1.23483 4.9829 73 135 99
-2.16691 -1.19929 4.86906 86 130 113
0.0691286 -1.18597 4.81473 173 245 203
0.43293 -1.18737 4.844 137 246 198
-1.08872 -1.22827 5.05046 72 133 107
1.04273 -1.1518 4.71008 104 153 137
-0.809821 -1.20632 4.98853 139 216 172
1.14383 -1.12164 4.67666 59 98 76
-1.20372 -1.20652 5.06653 74 136 96
-0.744333 -1.19531 5.03313 91 156 135
-0.938997 -1.1905 5.00613 159 232 192
0.31731 -1.1373 4.8052 81 130 102
0.385883 -1.14232 4.8103 76 122 79
0.534489 -1.12832 4.82175 79 120 99
-1.69761 -1.20303 5.15563 79 156 112
-1.64489 -1.2027 5.14579 95 180 136
-1.55813 -1.19823 5.10881 87 161 113
-1.0628 -1.17223 5.04813 48 116 81
0.0734747 -1.12808 4.84031 127 224 180
0.410612 -1.12365 4.84736 57 137 90
-2.45193 -1.14032 4.98844 62 99 83
-0.653823 -1.14507 4.98735 78 145 114
-0.629294 -1.14174 4.99546 96 171 139
-2.12392 -1.13582 4.99036 78 107 128
-0.749995 -1.14322 5.01464 106 171 145
-0.0940118 -1.11904 4.91377 132 209 175
0.88369 -1.07549 4.72207 89 149 119
-0.999637 -1.13324 5.04331 85 152 121
-2.43603 -1.11892 4.98644 92 167 146
-1.36205 -1.13912 5.08365 52 109 78
-0.699437 -1.12058 5.01132 74 142 111
0.24391 -1.08295 4.83316 66 136 100
-1.70073 -1.14776 5.15561 251 255 255
-0.475867 -1.10162 4.96186 81 136 109
0.285926 -1.07546 4.81479 164 230 188
0.652758 -1.06088 4.76599 108 170 148
0.804509 -1.0541 4.73464 145 234 190
-0.415206 -1.10027 4.95476 157 243 201
-2.35634 -1.10721 5.03924 159 191 234
0.795846 -1.04739 4.75843 72 130 106
-2.46228 -1.08385 4.97292 49 127 96
-0.860735 -1.09335 5.04894 62 122 98
0.704445 -1.03808 4.7713 87 141 111
0.977987 -1.01544 4.69711 94 145 111
-1.09082 -1.0934 5.06308 75 134 106
-0.481567 -1.0763 4.96853 74 133 95
0.108018 -1.04441 4.87565 78 169 130
0.962396 -1.01517 4.72006 49 96 70
0.985325 -1.01554 4.7289 79 127 98
-2.48367 -1.07276 5.01017 38 111 89
-1.25941 -1.08124 5.09848 82 127 100
-0.744927 -1.06731 5.00603 79 143 114
2.76328 -0.937137 4.42777 95 144 122
-0.76384 -1.05621 5.01588 85 152 125
0.0572299 -1.0224 4.86665 85 148 138
0.298211 -1.01675 4.82254 76 142 101
-1.23248 -1.06246 5.06447 57 109 85
-0.358897 -1.0389 4.9492 85 160 128
-2.30979 -1.04199 5.00356 63 68 101
0.110627 -0.992381 4.85196 97 173 139
-0.278411 -1.00172 4.94549 78 160 125
0.0821146 -0.984999 4.86747 86 150 115
0.947675 -0.954456 4.73049 150 219 234
0.572118 -0.961491 4.77805 91 156 124
0.730753 -0.96675 4.7823 80 130 106
0.423969 -0.964996 4.82299 88 164 133
-1.17208 -1.00987 5.08361 81 147 128
-0.338853 -0.977909 4.94484 83 174 135
0.868953 -0.93397 4.73896 99 130 115
-2.20167 -0.970192 4.94102 69 149 114
-2.21865 -0.956727 4.93658 116 221 178
-2.4377 -0.938827 4.88988 85 158 136
0.809829 -0.918986 4.78137 106 163 148
-1.07182 -0.953011 5.03318 186 254 237
-2.12288 -0.9187 4.91742 60 149 105
-1.42831 -0.861191 4.59967 189 235 199
0.453868 -0.895036 4.82132 78 144 109
0.489728 -0.890423 4.79653 162 234 198
-2.38066 -0.918126 4.98495 60 103 82
-0.756833 -0.92325 4.99442 86 149 117
-2.1114 -0.90066 4.95602 43 114 97
-0.904792 -0.903481 5.03459 169 222 209
0.643721 -0.847019 4.77597 83 152 119
2.15587 -0.801168 4.51209 95 155 131
-0.166486 -0.846891 4.91521 70 157 119
-2.97153 -0.919414 5.40625 127 124 150
0.759745 -0.812003 4.7794 153 231 200
-0.211999 -0.823468 4.91592 78 157 118
0.255653 -0.804061 4.84918 119 204 176
0.38142 -0.81075 4.84223 88 166 125
0.290209 -0.802965 4.83663 88 157 124
-2.97117 -0.894075 5.40011 201 217 234
-0.231026 -0.81146 4.91586 177 225 219
-2.31245 -0.811063 5.03558 58 89 82
-2.17215 -0.804168 5.00886 199 218 251
-0.483846 -0.793081 4.95917 87 169 140
0.664199 -0.765882 4.75969 84 135 108
-2.16539 -0.797551 5.01294 129 154 198
0.600351 -0.755673 4.82662 56 101 82
-0.701276 -0.787 5.00045 79 146 119
0.640282 -0.737103 4.78365 161 241 198
0.716008 -0.733959 4.77526 75 139 117
-1.98696 -0.805063 5.23183 146 177 202
-0.613502 -0.746394 4.9833 70 151 118
0.534121 -0.716867 4.7891 131 217 187
2.71113 -0.662948 4.43458 78 145 118
0.877896 -0.709937 4.74708 79 108 75
2.71975 -0.650289 4.42869 95 160 139
0.5671 -0.696776 4.80337 59 81 79
-1.28213 -0.645824 4.47251 150 216 167
0.53143 -0.691615 4.79536 93 141 143
0.74938 -0.679294 4.74659 135 218 179
-3.01368 -0.77128 5.40448 169 188 209
2.11407 -0.64235 4.54112 145 210 194
2.14341 -0.649976 4.55943 58 107 91
-2.22462 -0.707619 5.06548 73 82 85
-0.450393 -0.692745 4.98341 104 175 155
0.458075 -0.659074 4.78187 108 177 162
0.57937 -0.642458 4.76119 175 241 212
0.804607 -0.646527 4.7587 48 70 41
-2.87864 -0.721713 5.36893 139 139 139
0.410277 -0.635233 4.79501 104 164 153
0.739038 -0.631362 4.76471 52 93 61
-0.0173924 -0.641716 4.85768 104 178 152
-1.3776 -0.581545 4.45949 98 154 101
2.12752 -0.588192 4.50661 110 155 128
0.48685 -0.618576 4.79986 79 141 119
-0.00527526 -0.623768 4.86196 92 157 141
-1.34829 -0.546213 4.47037 112 149 111
0.754014 -0.585408 4.72817 84 118 87
2.14601 -0.550119 4.49987 127 197 160
-2.97471 -0.651283 5.36969 217 240 255
-1.43114 -0.523043 4.53508 189 236 203
0.193 -0.549574 4.86171 71 146 108
0.548504 -0.539159 4.80797 75 117 92
2.16339 -0.50503 4.52233 83 139 110
2.64393 -0.493282 4.44412 74 129 104
0.449764 -0.52635 4.79162 72 140 105
2.52455 -0.476753 4.47224 83 135 117
2.09552 -0.470106 4.52739 128 201 163
0.449363 -0.494049 4.8103 75 155 108
0.599977 -0.47982 4.7487 83 109 85
0.541765 -0.478524 4.79854 161 231 190
0.765682 -0.478868 4.75222 75 119 96
0.603054 -0.479133 4.7549 79 105 82
0.462354 -0.474991 4.76303 129 235 188
0.495438 -0.472804 4.78412 43 86 59
0.52705 -0.476784 4.78364 122 196 160
-2.79647 -0.503638 5.30699 143 143 155
-0.340443 -0.470676 4.9125 81 143 121
0.250339 -0.450713 4.78593 147 233 193
2.46743 -0.404166 4.47425 180 230 218
0.711888 -0.425723 4.75882 54 102 66
-0.789113 -0.439118 5.0087 96 158 142
0.492288 -0.410233 4.77698 115 191 150
2.5821 -0.388841 4.46008 99 164 143
-1.91233 -0.419428 4.91967 161 228 196
-0.552079 -0.42191 4.96644 68 147 104
0.105861 -0.407627 4.78523 72 149 105
-0.841737 -0.416787 5.00147 83 133 121
0.292527 -0.399758 4.7626 103 173 136
-0.623632 -0.408583 4.94175 128 217 168
2.1247 -0.376215 4.54391 165 237 201
2.49898 -0.370363 4.4716 107 167 157
-1.36416 -0.37097 4.63989 150 192 161
2.54481 -0.353456 4.48267 86 147 133
0.407505 -0.363731 4.77371 85 133 107
-0.628366 -0.36864 4.99849 118 185 180
2.0911 -0.340533 4.54328 55 96 69
2.51149 -0.328365 4.48684 97 166 151
-0.093972 -0.347242 4.79271 62 123 79
2.6772 -0.308757 4.45174 110 172 156
-0.802844 -0.350396 4.99666 77 116 95
-0.135645 -0.333015 4.80632 61 106 73
-1.38546 -0.321743 4.72641 145 157 151
-0.859057 -0.32879 5.00799 88 162 126
2.47 -0.299617 4.5063 111 178 169
0.373533 -0.30583 4.80285 156 231 187
2.30269 -0.290207 4.51375 76 128 110
-0.252907 -0.310745 4.91163 88 136 107
-0.224523 -0.306812 4.87529 136 198 152
2.4071 -0.280113 4.51444 88 130 129
-1.88348 -0.295075 4.86927 41 80 48
0.459995 -0.298369 4.78054 120 177 132
2.20795 -0.273958 4.51319 82 123 95
2.50408 -0.266793 4.50314 105 170 154
-0.228495 -0.255157 4.868 141 219 172
-0.139807 -0.255691 4.80682 52 76 44
1.16859 -0.21134 4.01699 46 77 56
2.08001 -0.247229 4.55359 62 104 79
-0.080023 -0.250485 4.8443 135 215 168
1.20409 -0.206027 4.03308 91 141 123
-1.83826 -0.252424 4.88484 67 114 88
-0.228568 -0.254129 4.87472 138 221 169
-0.199501 -0.247634 4.87184 151 222 179
-1.82264 -0.240688 4.90447 134 212 211
0.201599 -0.222637 4.80226 154 220 208
0.372786 -0.218306 4.80294 54 91 59
2.21241 -0.208589 4.54184 88 159 126
2.7239 -0.204045 4.45104 101 160 140
-0.0934001 -0.198621 4.8675 66 97 68
-1.22398 -0.199361 5.10195 137 212 198
-0.203335 -0.196808 4.87765 75 155 112
0.357915 -0.188372 4.78865 100 164 128
-0.804505 -0.19345 5.01839 117 181 182
2.1787 -0.161622 4.55274 80 136 115
-1.98757 -0.167628 4.88355 89 143 106
-1.95517 -0.171672 4.88694 151 228 194
-1.24126 -0.175118 5.07635 64 108 107
2.2525 -0.159682 4.54884 122 179 171
0.189619 -0.161529 4.78492 86 125 109
-2.44254 -0.153839 5.2659 71 90 71
-2.0242 -0.141944 4.89435 182 237 204
0.19432 -0.140558 4.81276 145 220 199
2.69822 -0.127405 4.45759 84 153 133
-1.88335 -0.127466 4.90089 158 243 205
-1.2978 -0.138292 5.09991 90 112 118
-2.03725 -0.128281 4.9155 156 217 189
-2.45032 -0.129032 5.2859 126 179 166
0.28934 -0.115174 4.82504 82 155 115
-1.34868 -0.0939044 5.1008 66 83 74
-0.526741 -0.0999622 4.95296 107 165 147
-1.42937 -0.0939594 5.11217 148 208 214
0.30329 -0.0911217 4.79382 149 238 199
0.43914 -0.079717 4.77166 87 124 104
-2.4909 -0.0897258 5.28322 104 117 161
0.4444 -0.0771646 4.78482 59 86 60
-2.02894 -0.0762129 4.93901 58 92 86
2.69673 -0.0656004 4.46736 91 167 135
-1.52567 -0.0573704 5.14886 99 139 134
-0.0999092 -0.0464263 4.89004 81 143 103
0.19241 -0.0452521 4.83251 98 137 115
0.124137 -0.03464 4.86302 49 116 85
0.515897 -0.0351769 4.77452 107 132 98
-1.96484 -0.028484 4.98099 143 225 213
0.32965 -0.0335326 4.80979 163 228 206
-2.49333 -0.00483986 5.33614 98 98 138
-1.66166 -0.00823797 5.18169 103 136 139
2.09951 -0.00427946 4.57015 72 118 89
2.10989 -0.00457835 4.54626 93 144 117
-1.69827 0.00449215 5.15717 96 125 130
-1.65392 0.0063936 5.16591 147 202 217
-1.62067 0.00668066 5.12982 106 147 149
-1.0165 0.0017872 5.0672 255 254 254
-0.417329 0.00431846 4.95918 73 116 89
-1.84902 0.0153037 5.18012 146 187 189
0.36354 0.0166214 4.8476 75 101 87
0.398193 0.00987158 4.79427 48 67 46
-0.39549 0.0267142 4.91738 74 128 105
0.278256 0.0188044 4.818 74 135 101
-2.47956 0.0291761 5.30209 178 216 250
-1.78473 0.0317417 5.20743 82 114 109
0.247531 0.0308339 4.85063 59 106 84
-1.81056 0.0363473 5.20393 135 179 180
1.88904 0.0370506 4.60631 102 178 154
-0.154852 0.0486997 4.8726 87 153 124
0.308061 0.0450505 4.85448 154 217 197
0.405342 0.0397493 4.82948 92 136 105
-0.15498 0.058179 4.91663 94 159 133
0.401922 0.0554048 4.84353 115 151 127
-2.43553 0.067935 5.29966 160 206 254
0.277467 0.0820297 4.85094 156 219 179
2.18805 0.076541 4.58502 60 113 100
2.08125 0.0762573 4.58259 83 145 123
0.264528 0.0971346 4.84031 60 110 80
-2.44166 0.118108 5.32383 202 236 255
-2.47403 0.118068 5.29812 111 138 165
0.222694 0.124701 4.87336 83 123 95
-2.41395 0.15819 5.33339 102 143 146
0.235558 0.145871 4.82956 135 206 156
0.24022 0.15219 4.85615 131 199 152
-2.38052 0.173737 5.30529 119 164 168
-2.22982 0.177935 5.2916 141 181 240
-2.19977 0.169019 5.27056 83 103 150
0.221533 0.163883 4.86739 77 114 98
1.7613 0.174375 4.64098 113 166 163
2.45305 0.172948 4.53514 110 149 177
0.208413 0.187742 4.87225 100 123 131
2.8119 0.173707 4.47223 92 163 137
-2.34058 0.215805 5.32059 121 157 181
-1.18464 0.217032 5.12751 76 125 141
1.30981 0.222709 4.66886 98 132 108
1.60021 0.222097 4.66627 70 138 107
-1.10546 0.26234 5.08435 105 190 162
1.49202 0.236938 4.67784 45 102 69
-1.21946 0.275885 5.08907 101 173 137
1.49853 0.253733 4.66545 153 228 196
1.42341 0.266246 4.66063 76 129 96
-0.119494 0.296643 4.9166 86 153 126
0.349565 0.297249 4.88428 110 149 127
1.33894 0.297778 4.66831 59 85 61
2.71407 0.292844 4.5055 96 160 160
1.07679 0.31525 4.71668 153 232 193
1.22907 0.308953 4.7165 56 79 51
1.38095 0.314529 4.70001 105 171 152
-0.950562 0.342164 5.0692 64 132 109
1.05607 0.326608 4.76587 110 195 163
-1.01248 0.360176 5.06176 94 148 119
0.273021 0.34815 4.90098 152 221 201
1.09518 0.334355 4.74706 137 214 180
1.07497 0.349397 4.75555 95 156 136
1.17392 0.349724 4.72977 75 127 103
