ply
format ascii 1.0
element vertex 745
property float x
property float y
property float z
property uchar blue
property uchar green
property uchar red
end_header
1.02565 -1.85031 4.08041 105 151 139
1.06824 -1.86779 4.15429 109 144 134
5.45796 -5.10039 11.7485 145 181 169
-0.442631 -0.64189 1.48545 138 246 204
0.40613 -1.16924 2.91608 100 175 137
1.85205 -2.1504 5.53314 114 150 138
1.234 -1.67198 4.43317 119 157 135
2.46623 -2.05634 6.60932 131 162 153
2.26982 -1.5695 6.21472 250 255 255
2.23102 -1.43274 6.13188 133 192 178
1.25763 -0.949251 4.40204 179 236 215
0.843189 -0.442513 3.54635 156 225 188
1.31041 -0.451219 4.33932 110 161 154
0.555724 -0.320476 2.95674 119 144 116
1.3367 -0.262011 4.31332 118 152 146
1.23294 -0.229999 4.12049 129 176 168
1.05418 -0.211589 3.80866 159 221 199
0.279569 -0.0996921 2.28397 224 254 255
1.51552 -0.133095 4.55661 97 155 144
0.492217 -0.0509325 2.61641 157 219 195
1.30353 0.0710219 4.09283 150 208 183
0.471317 -1.80573 3.03957 106 152 140
0.521376 -1.76292 3.15306 153 229 198
0.803579 -1.83081 3.64491 186 235 221
0.517557 -1.51752 3.19601 113 173 155
8.38724 -7.17268 16.8323 173 223 189
1.0249 -1.61459 4.08102 189 233 226
1.31173 -1.70628 4.54852 153 213 183
1.27692 -1.60456 4.47646 184 238 225
-0.127611 -0.724751 2.03693 115 160 133
2.46578 -2.05645 6.61003 134 169 159
2.29082 -1.64013 6.26176 132 177 188
2.18547 -1.52123 6.06393 136 175 184
4.38006 -2.21479 9.89329 119 156 146
2.21958 -1.36544 6.09569 104 171 162
1.14929 -0.767929 4.17708 109 151 140
0.933404 -0.601603 3.76434 122 160 164
1.55566 -0.76539 4.85373 106 162 157
0.908281 -0.579864 3.71481 189 223 229
0.970651 -0.504102 3.79061 112 171 157
1.05638 -0.21153 3.81187 157 223 194
1.4467 -0.21554 4.47869 152 192 187
0.327314 -0.11385 2.36386 232 250 251
0.283232 -0.104787 2.29324 225 249 249
1.51023 -0.134277 4.54629 105 158 145
1.42 -0.0327053 4.35481 202 233 230
0.41742 -0.0424371 2.50263 104 168 149
1.31125 0.07192 4.10313 139 205 176
1.14052 0.353752 3.6585 151 197 175
0.829625 -2.07192 3.66101 170 243 193
0.194411 -1.45145 2.61014 140 182 175
0.4911 -1.72548 3.1094 148 198 186
0.76004 -1.95986 3.53142 134 191 170
0.0238683 -1.26873 2.31103 106 162 139
0.479246 -1.6945 3.09255 136 190 173
1.1016 -2.14829 4.10675 106 158 134
1.80317 -2.77455 5.34554 169 198 183
0.498642 -1.623 3.14954 162 211 197
0.803957 -1.83104 3.64593 186 235 221
1.82238 -2.72267 5.4119 138 175 173
1.43756 -2.35717 4.73706 120 135 121
6.99239 -7.05596 14.1807 171 230 186
-0.506973 -0.683745 1.39321 80 140 106
1.40723 -2.30238 4.71201 122 166 135
1.44785 -2.3387 4.7788 89 117 88
0.545326 -1.56777 3.23884 127 161 155
0.880191 -1.82208 3.81414 125 165 154
0.128589 -1.18175 2.49249 72 95 90
0.521021 -1.52186 3.20542 113 168 153
0.60736 -1.55578 3.33817 98 125 121
0.778003 -1.69758 3.6475 122 162 151
1.03227 -1.88712 4.07794 114 166 149
-0.476714 -0.668367 1.44972 105 144 136
1.2741 -2.05148 4.49878 113 158 149
1.15555 -1.95321 4.29784 103 151 139
1.15735 -1.9534 4.29886 102 150 138
0.785527 -1.65396 3.66477 181 223 216
1.31543 -2.06896 4.56977 143 196 182
1.05501 -1.85103 4.12579 100 130 119
-0.439377 -0.679783 1.51396 189 247 222
0.754534 -1.60818 3.61402 97 135 123
-0.439847 -0.672135 1.50951 149 205 170
0 0 0 118 135 216
0.501686 -1.38014 3.17278 174 233 202
0.705255 -1.51815 3.5308 93 134 129
3.32849 -3.47895 8.07989 125 166 151
0.711046 -1.51251 3.53213 196 237 229
0.741627 -1.52875 3.59149 170 224 189
1.51378 -2.10365 4.94531 144 185 178
0.677774 -1.47441 3.48025 235 255 255
-0.465867 -0.621121 1.45674 95 170 149
2.86115 -3.08477 7.29185 182 204 202
4.95774 -4.62939 10.9428 155 174 182
0.768586 -1.51638 3.63719 131 186 169
-0.529132 -0.567478 1.3423 109 173 154
2.15819 -2.52024 6.07335 128 150 145
1.64953 -2.1229 5.18634 123 152 149
-0.503261 -0.56062 1.38364 136 202 190
0.869237 -1.49825 3.81468 174 227 213
0.993276 -1.57998 4.03259 164 194 189
0.982768 -1.56803 4.02133 100 121 119
-0.336285 -0.633748 1.61802 88 117 94
-0.4792 -0.557618 1.41905 89 146 131
-0.509167 -0.536718 1.36384 137 198 170
0.865149 -1.46642 3.80436 169 226 211
1.24646 -1.7124 4.4556 119 169 151
-0.179141 -0.751218 1.94777 84 156 134
-0.176124 -0.749344 1.95353 164 248 214
3.52243 -3.21578 8.46049 191 229 234
-0.33653 -0.619608 1.6138 146 213 181
1.36969 -1.76678 4.66479 171 221 203
-0.336844 -0.614943 1.61404 155 234 191
2.99093 -2.81144 7.55225 132 143 141
1.3319 -1.69875 4.58432 101 126 122
1.27331 -1.65837 4.49106 138 179 152
0 0 0 212 239 255
1.32681 -1.67115 4.56631 197 241 234
1.28563 -1.61759 4.49442 118 158 146
1.27538 -1.60406 4.47279 189 243 230
1.17311 -1.54274 4.3089 112 169 154
1.26744 -1.59854 4.45862 181 236 227
2.08615 -2.12852 5.9557 206 240 239
-0.214022 -0.660108 1.84521 79 116 106
-0.110767 -0.734092 2.06242 74 128 105
-0.110102 -0.731144 2.06449 142 204 180
1.29953 -1.58553 4.51153 109 164 149
1.35677 -1.62341 4.6123 89 133 110
1.46282 -1.68106 4.80083 119 164 145
2.20327 -2.14935 6.17187 189 236 227
2.10225 -2.07283 5.98808 192 233 226
-0.0820608 -0.689877 2.08701 90 161 135
1.33138 -1.45791 4.55581 200 255 230
1.30285 -1.38158 4.5236 65 121 102
2.3956 -1.84114 6.46099 100 169 142
1.98772 -1.54729 5.74345 147 201 196
2.2904 -1.63979 6.25833 130 171 186
2.18874 -1.52197 6.07257 136 175 184
1.57376 -1.1805 4.97767 117 172 157
-14.8159 5.42653 -23.7971 226 243 232
1.97663 -1.27266 5.67558 140 195 180
1.54302 -1.0968 4.90692 141 198 190
3.64176 -1.9093 8.58935 138 188 184
1.47351 -1.04319 4.78466 132 185 176
-12.9259 4.34063 -20.3905 74 98 86
2.90176 -1.46851 7.26117 131 181 169
1.3586 -0.909168 4.5608 102 143 136
1.494 -0.954327 4.80382 115 174 166
1.14927 -0.768223 4.17735 125 168 159
0.845205 -0.631091 3.62976 136 184 185
3.88021 -1.52192 8.92922 133 177 171
1.07147 -0.646908 4.01565 88 145 130
0.801583 -0.557092 3.52011 101 160 139
0.843996 -0.533407 3.58204 80 152 132
2.15138 -0.798028 5.86287 224 252 252
0.523232 -0.387238 2.9545 73 134 100
0.962997 -0.477143 3.77208 120 177 179
0.542979 -0.378186 2.98793 53 101 59
1.57665 -0.586897 4.83443 122 179 171
1.17806 -0.48127 4.13446 104 173 163
1.67407 -0.535145 4.98178 143 165 177
1.03627 -0.401158 3.86011 220 245 249
1.0976 -0.407067 3.97139 98 144 145
1.10029 -0.406972 3.97346 95 144 146
7.31944 -1.4207 14.7328 111 164 154
0.562186 -0.30984 2.9681 146 164 141
0.572903 -0.295276 2.97356 124 138 104
1.37996 -0.413877 4.44204 120 172 162
2.19702 -0.503627 5.84458 179 205 217
3.385 -0.629628 7.872 154 187 190
1.57467 -0.371244 4.75295 109 171 159
3.78009 -0.485663 8.49383 125 164 166
1.40801 -0.247769 4.42303 133 176 167
2.46352 -0.317796 6.23218 143 181 175
1.1345 -0.214347 3.9467 112 169 161
1.4437 -0.209233 4.46911 216 243 239
0.290339 -0.114947 2.30798 64 113 111
1.44961 -0.163274 4.46174 91 141 129
1.68584 -0.168295 4.85659 154 177 193
0.270721 -0.104245 2.27054 110 152 157
1.57967 -0.147373 4.67629 164 205 207
0.302079 -0.103764 2.32063 155 191 197
0.38616 -0.0868885 2.4584 125 158 161
0.428563 -0.0797618 2.53792 205 240 244
1.46612 -0.042479 4.43827 70 137 122
0.501023 -0.0490831 2.63136 160 215 188
1.91577 -0.0345942 5.20775 156 167 175
0.502599 -0.0448657 2.63074 78 107 92
0.487533 -0.0409485 2.59772 55 99 86
0.387378 -0.0382264 2.44679 75 124 116
0.467604 -0.026855 2.56575 84 143 129
0.42539 -0.0256549 2.50479 167 217 207
0.438949 -0.0212276 2.52418 84 161 157
1.65487 0.0825203 4.71458 120 168 162
1.91529 0.136679 5.14121 162 197 201
2.08261 0.389121 5.32762 127 171 165
1.1089 0.288791 3.6499 86 120 109
1.659 0.382246 4.59685 163 194 191
1.00939 0.304182 3.48241 104 131 105
1.56918 0.456556 4.40283 126 175 159
1.6312 0.489626 4.50734 117 166 158
4.16518 1.11516 8.64002 121 168 159
1.6633 0.6014 4.50918 136 165 156
1.65311 0.601754 4.49792 126 152 146
1.38693 0.548159 4.02594 164 246 217
1.58305 0.678567 4.33659 160 218 200
1.58705 0.686231 4.33482 118 152 145
0.601218 -1.89153 3.27047 155 177 175
0.593566 -1.8736 3.25726 213 249 243
0.169631 -1.45291 2.56321 219 249 244
0.74199 -1.9823 3.49979 176 243 206
0.520656 -1.77706 3.15132 188 227 219
0.475854 -1.72803 3.0854 124 189 174
0.404787 -1.64907 2.9635 162 194 200
0.0238947 -1.26856 2.3095 85 138 118
0.349431 -1.53188 2.8826 131 174 165
-0.572539 -0.681933 1.29565 153 182 187
1.10193 -2.14932 4.11029 110 163 136
0.437471 -1.54493 3.04816 131 193 181
-0.521584 -0.687063 1.36933 112 160 136
1.99044 -2.84877 5.71971 140 172 161
0.727773 -1.7523 3.53802 98 159 131
1.3044 -2.23573 4.51328 110 175 149
1.48476 -2.39174 4.83906 134 173 141
1.51979 -2.41583 4.90415 109 124 96
0.574602 -1.60494 3.28964 106 172 153
1.43558 -2.311 4.76603 152 224 182
0.463208 -1.4961 3.10326 117 164 155
9.93487 -9.3188 19.219 152 123 92
0.125236 -1.18063 2.48253 126 180 150
1.69732 -2.47762 5.22318 130 141 138
1.42038 -2.23209 4.74614 88 95 74
0.833949 -1.74808 3.73625 134 182 170
2.0669 -2.76603 5.88234 171 222 214
0.607359 -1.55578 3.33817 98 125 121
1.34085 -2.15621 4.61547 114 136 118
0.77826 -1.69736 3.64641 117 157 146
1.48089 -2.26016 4.85621 166 216 192
1.03277 -1.88755 4.07994 114 166 149
0.772515 -1.67806 3.63776 122 174 157
7.20223 -6.7705 14.6158 141 170 174
0.791135 -1.67855 3.66581 92 127 117
2.19987 -2.81837 6.13843 121 137 119
1.92294 -2.57201 5.61875 109 135 129
2.2545 -2.83962 6.21743 123 160 144
1.56236 -2.28043 5.00984 121 143 125
6.01323 -5.78949 12.6752 204 248 225
1.52667 -2.23286 4.92795 167 234 205
2.95324 -3.31535 7.41131 161 199 193
0.755161 -1.60784 3.61216 90 119 110
1.52723 -2.19312 4.932 117 127 115
2.29998 -2.80704 6.3177 151 178 175
1.65622 -2.29018 5.17227 133 149 148
5.99768 -5.61755 12.6706 98 148 136
3.7674 -3.85414 8.85268 134 157 149
0.585556 -1.43441 3.32496 192 225 221
1.45506 -2.0915 4.83661 156 209 199
3.2604 -3.45525 7.96574 250 255 254
-0.524296 -0.580712 1.35303 85 122 114
1.36302 -1.98177 4.66979 166 237 211
0.774405 -1.54552 3.65376 145 214 193
0.982896 -1.69185 4.01042 96 144 132
0.321292 -1.16011 2.76988 56 101 85
1.00113 -1.69659 4.03721 174 229 210
1.43747 -2.02061 4.80917 90 112 88
-0.531077 -0.56588 1.33643 148 243 216
2.38434 -2.71075 6.48452 117 138 136
2.87877 -3.05226 7.31071 132 153 155
1.73211 -2.21085 5.32017 175 222 213
2.36386 -2.66724 6.4327 173 205 204
2.46416 -2.71937 6.61634 117 131 125
1.65146 -2.12244 5.18441 119 154 150
7.10582 -6.02966 14.6841 107 103 98
2.29095 -2.5717 6.29583 221 242 244
3.3648 -3.33743 8.17835 126 151 155
3.54365 -3.42943 8.49272 121 144 130
3.34723 -3.2843 8.15497 142 177 181
1.56417 -2.01877 5.03354 186 224 224
0.370773 -1.1451 2.86525 62 103 72
2.59713 -2.72391 6.8719 164 208 201
-0.487673 -0.565757 1.40907 83 131 119
-0.453018 -0.585588 1.47011 149 209 203
-0.513117 -0.542828 1.36062 164 224 206
0.962394 -1.55177 3.98021 159 207 195
-0.335231 -0.626943 1.61664 131 175 146
2.60721 -2.60309 6.86078 132 183 175
3.50616 -3.19998 8.43596 208 244 244
1.4345 -1.80168 4.76784 154 204 192
-0.170845 -0.746762 1.97134 103 174 154
1.35849 -1.73734 4.63454 92 131 116
2.98832 -2.82614 7.53896 242 250 240
2.76812 -2.66356 7.1448 147 188 181
1.20441 -1.62187 4.36175 89 105 87
1.26051 -1.6214 4.45954 165 206 198
2.68452 -2.50166 7.00632 210 243 246
-0.154124 -0.712764 1.98219 74 117 108
-0.140515 -0.718039 2.00503 156 197 170
1.35742 -1.62337 4.61197 89 131 108
1.17518 -1.50762 4.30531 69 102 87
-0.0495052 -0.753245 2.14951 163 236 210
-0.145122 -0.695455 1.98937 168 215 183
2.1027 -2.0731 5.9896 192 233 226
2.21267 -2.11631 6.17626 155 210 185
2.62292 -2.35296 6.91287 144 157 149
-0.0503055 -0.726943 2.15011 102 172 141
2.49073 -2.21406 6.66032 141 181 169
-0.0580475 -0.712652 2.14209 153 215 197
-0.412386 -0.483743 1.48933 181 253 231
1.07122 -1.29037 4.1435 81 110 94
1.32172 -1.40411 4.55258 165 246 207
2.57502 -2.07088 6.79957 99 154 137
2.32639 -1.86385 6.3516 125 172 164
0.0173375 -0.610461 2.18934 118 155 121
2.28603 -1.58114 6.24188 156 186 197
-0.232241 -0.453338 1.73153 75 110 100
3.72067 -2.11162 8.75523 159 201 206
2.75002 -1.64837 7.04035 132 151 156
3.89724 -2.06076 9.04947 119 148 157
2.41084 -1.42101 6.43407 106 157 150
-10.1526 3.3662 -15.5066 137 173 151
-15.7345 5.39292 -25.2539 88 119 116
-9.82843 3.15617 -14.9645 137 186 170
1.45724 -1.00342 4.74788 125 171 159
20.5459 -7.95789 38.1499 108 154 148
-11.9684 3.87882 -18.676 117 150 123
2.90587 -1.46933 7.27422 113 166 153
1.48818 -0.968877 4.79266 125 161 155
0.173023 -0.428314 2.23046 87 115 102
1.12737 -0.754489 4.13401 98 148 138
1.29479 -0.806039 4.43769 122 169 161
14.2151 -4.68612 26.9491 125 161 161
2.68642 -1.11785 6.84598 132 188 167
1.07096 -0.647168 4.01282 92 146 133
1.87818 -0.865427 5.43036 123 157 157
1.09483 -0.648239 4.0475 192 239 231
2.07018 -0.910866 5.75922 136 186 182
1.66148 -0.771215 5.04244 181 204 219
0.606694 -0.433966 3.11523 163 236 186
0.862008 -0.491064 3.60667 197 236 234
1.24577 -0.558886 4.27375 108 179 169
1.50975 -0.557469 4.7161 118 174 163
1.21197 -0.457129 4.18436 125 157 152
1.24382 -0.462133 4.23099 160 214 207
7.32026 -1.42072 14.7333 111 164 154
1.19949 -0.363196 4.12897 109 132 128
1.25734 -0.346435 4.20407 109 145 139
1.58588 -0.375364 4.78066 109 167 156
0.750976 -0.242778 3.23205 80 134 111
2.50818 -0.339671 6.30697 92 129 127
2.46884 -0.319091 6.24363 137 172 168
0.628457 -0.155186 2.89224 159 203 174
1.42555 -0.198374 4.43543 145 187 180
1.46832 -0.200922 4.49654 108 148 137
1.67832 -0.196892 4.87291 114 138 138
1.36641 -0.105894 4.29828 121 157 157
1.89553 -0.105705 5.20604 137 184 182
0.424247 -0.0551393 2.51311 62 103 95
1.60234 -0.0142828 4.67596 106 149 140
9.70515 0.189671 18.3017 135 183 165
2.45188 0.0874222 6.0744 147 196 188
1.23962 0.0978048 3.97101 120 169 155
1.35009 0.192285 4.11058 65 98 91
1.10738 0.286977 3.64461 72 106 96
1.65142 0.377205 4.57875 127 161 161
1.0719 0.306179 3.57527 142 179 153
1.09397 0.321773 3.6119 58 70 52
1.19405 0.406004 3.73467 131 189 165
1.44666 0.465087 4.16408 125 197 177
1.65219 0.600629 4.49476 127 159 154
1.49033 0.57868 4.19914 90 145 126
1.58948 0.688461 4.34088 100 137 129
1.67817 0.746918 4.47744 137 168 183
0.488993 -1.78089 3.0865 116 167 147
0.103011 -1.39375 2.44774 198 251 241
0.0328761 -1.32408 2.32986 168 235 214
0.691979 -1.95057 3.41772 113 136 121
0.383506 -1.65008 2.91856 143 183 181
0.520735 -1.77638 3.14869 196 232 226
0.862764 -2.10245 3.71984 166 237 197
0.925826 -2.12357 3.812 100 114 103
0.182438 -1.43084 2.5884 119 170 150
-0.584041 -0.702871 1.27627 134 160 160
-0.53024 -0.745157 1.38079 107 151 152
0.780521 -1.94176 3.58475 92 124 105
0.351588 -1.53146 2.88228 133 176 167
0.489348 -1.65535 3.12294 123 155 136
0.776445 -1.89077 3.56564 176 249 211
1.76941 -2.77171 5.28906 124 155 148
0.648035 -1.75094 3.38892 79 115 98
0.476188 -1.59757 3.10729 98 148 136
0.751167 -1.82234 3.56458 154 228 204
-0.522234 -0.695306 1.37085 186 239 206
0.214056 -1.30289 2.604 126 170 141
0.798316 -1.8288 3.63767 172 234 220
0.727903 -1.751 3.53214 95 159 129
1.65162 -2.55651 5.14605 122 146 144
-0.503508 -0.693668 1.4088 197 255 226
1.3664 -2.26054 4.63964 178 242 213
1.43866 -2.31796 4.77279 158 234 193
1.59052 -2.4461 5.03095 123 133 133
0.365668 -1.40669 2.93347 93 198 155
9.88384 -9.28089 19.1314 138 112 82
0.572711 -1.57097 3.28331 81 115 98
0.125022 -1.18092 2.48635 68 104 80
0.980277 -1.89335 3.97644 95 173 156
0.619182 -1.59466 3.36876 122 159 151
0.39715 -1.407 2.98933 164 191 187
0.950132 -1.85384 3.93145 101 151 149
2.35221 -3.01593 6.37084 179 223 206
-0.562954 -0.614768 1.30223 215 243 237
-0.542001 -0.628837 1.33687 112 171 156
-0.530954 -0.634854 1.3545 86 156 116
1.74298 -2.48614 5.30605 118 128 115
1.94614 -2.64903 5.65603 142 167 157
1.64745 -2.39811 5.13562 108 116 99
0.618918 -1.5656 3.36907 121 167 154
2.32858 -2.94926 6.33374 233 243 250
0.655183 -1.58677 3.42913 130 183 169
2.60623 -3.15677 6.78337 225 250 246
1.54966 -2.30666 4.98216 104 113 86
1.65538 -2.37274 5.14757 165 218 198
1.19507 -1.99401 4.36047 80 118 100
1.31581 -2.09616 4.57417 157 208 180
1.53742 -2.27793 4.96866 193 241 217
2.21243 -2.8265 6.16604 113 131 114
2.8904 -3.35848 7.30563 131 143 137
0.7022 -1.60399 3.51874 120 160 155
1.27822 -2.0571 4.50064 103 143 132
7.73459 -7.13204 15.578 109 104 106
-0.45152 -0.673107 1.48532 131 236 191
1.24527 -2.01656 4.44994 207 253 241
1.53147 -2.23419 4.94687 173 231 207
3.05601 -3.4305 7.58319 125 138 122
0.582802 -1.48808 3.31388 110 157 141
1.27132 -2.01405 4.48976 126 186 168
1.34168 -2.07097 4.63575 95 124 101
2.30663 -2.81089 6.33126 154 174 175
1.49227 -2.16066 4.888 165 220 193
1.8473 -2.42895 5.49661 163 190 186
-0.54837 -0.582705 1.31305 228 255 254
3.28237 -3.51718 8.00313 125 132 127
1.3235 -2.01327 4.61772 133 182 168
3.67898 -3.79784 8.71881 126 149 141
2.10966 -2.5846 5.97719 162 184 179
-0.55112 -0.569251 1.3074 108 167 146
0.815862 -1.59897 3.71558 106 159 149
7.02681 -6.26829 14.5068 113 124 114
-0.458731 -0.630814 1.46461 72 115 94
-0.453021 -0.63507 1.47236 76 168 143
2.21061 -2.62927 6.1585 196 223 237
-0.419223 -0.655059 1.53321 92 140 128
0.984272 -1.69209 4.01193 98 145 136
0.764941 -1.52054 3.62676 96 148 124
3.08647 -3.22911 7.68686 117 144 135
2.38449 -2.70987 6.48131 118 135 132
2.92655 -3.09469 7.41739 136 158 156
0.794978 -1.53286 3.68764 190 235 218
1.03502 -1.6982 4.09772 168 230 208
1.94901 -2.3715 5.70472 122 129 126
2.36418 -2.66671 6.43071 171 205 204
2.32042 -2.61376 6.34271 109 110 106
2.29166 -2.57025 6.29024 193 220 230
-0.490449 -0.577527 1.40556 78 109 102
-0.439068 -0.609656 1.49787 84 112 113
-0.488159 -0.570622 1.40636 125 212 192
1.0322 -1.62745 4.08812 101 120 117
1.05782 -1.64357 4.12678 184 225 220
-0.459792 -0.588294 1.4633 104 146 145
2.22792 -2.46366 6.19584 116 124 117
3.1759 -3.10499 7.86021 108 137 128
1.01733 -1.606 4.07356 166 214 208
2.85451 -2.86269 7.28827 160 180 181
3.36919 -3.22509 8.21007 130 137 132
-0.478998 -0.560724 1.42159 148 223 207
2.56609 -2.6305 6.79162 195 238 229
-0.180083 -0.754817 1.94496 86 150 138
3.21627 -3.0558 7.93916 112 134 129
2.95223 -2.86004 7.48495 169 203 203
-0.171383 -0.74081 1.95567 80 148 125
18.0215 -12.4237 33.1682 133 128 159
1.60283 -1.9011 5.09947 221 245 245
1.30988 -1.68339 4.54468 78 91 83
3.02226 -2.81482 7.59406 121 125 120
1.18945 -1.59826 4.34607 170 229 198
1.83458 -2.0316 5.51669 165 209 203
-0.141759 -0.738742 2.01208 73 126 112
-0.15141 -0.730994 1.99468 64 105 84
1.26181 -1.62186 4.4628 165 206 198
1.35858 -1.6736 4.62671 220 253 246
1.22868 -1.5944 4.40526 68 93 79
1.36315 -1.6756 4.64044 194 231 223
1.32621 -1.61495 4.55556 166 210 197
2.16945 -2.14258 6.11534 111 146 142
2.228 -2.1612 6.20734 196 239 230
-0.284583 -0.588558 1.66852 83 154 128
-0.145215 -0.695496 1.98835 127 174 142
2.0231 -2.017 5.82233 132 175 160
-0.430087 -0.522737 1.48365 137 191 178
2.4037 -2.2299 6.48991 116 159 144
-0.0471216 -0.743608 2.15982 76 103 83
2.4393 -2.24735 6.58197 122 167 150
2.61206 -2.31585 6.8813 136 180 173
1.0458 -1.35429 4.10643 107 134 124
-0.0272268 -0.724583 2.18343 169 255 217
1.21962 -1.44535 4.38151 75 137 115
1.40108 -1.5211 4.67699 105 169 147
2.62709 -2.25189 6.91952 129 144 140
-0.0816584 -0.678457 2.07185 107 174 142
-0.0705492 -0.688586 2.10184 81 129 103
2.30012 -2.05216 6.33304 105 144 123
1.15376 -1.37264 4.28034 103 144 137
1.11908 -1.3359 4.2323 172 233 205
2.24415 -1.96648 6.24688 139 212 174
1.32302 -1.40448 4.55672 159 242 203
1.42141 -1.41149 4.71194 148 218 177
1.47655 -1.43459 4.82632 74 120 101
2.33421 -1.86638 6.37018 124 185 175
-0.0571216 -0.605104 2.09467 61 74 52
2.39334 -1.80989 6.4524 137 181 180
-0.347707 -0.421562 1.52895 140 213 187
1.47816 -1.25144 4.82753 64 110 91
1.49907 -1.22128 4.8476 99 149 125
-0.191807 -0.465746 1.80204 115 167 149
2.98182 -1.77876 7.45538 132 172 171
2.20769 -1.42294 6.09519 119 154 150
-14.3643 5.32252 -22.9213 107 104 136
-0.182741 -0.435989 1.79219 92 152 134
-14.6742 5.37075 -23.6112 228 236 229
2.41304 -1.42153 6.44239 124 176 169
-9.4028 3.07238 -14.2215 148 201 187
0.166512 -0.496513 2.28883 176 220 189
-12.0223 3.89597 -18.7417 115 142 116
2.90669 -1.46533 7.2638 122 179 164
1.12438 -0.755025 4.12436 137 183 171
0 0 0 129 189 181
0.162497 -0.370136 2.18193 136 168 163
0 0 0 127 183 172
1.30727 -0.588973 4.38881 123 176 167
0.502653 -0.373907 2.90088 134 203 166
0.478165 -0.354806 2.84318 175 235 195
1.52919 -0.562837 4.75532 123 179 168
0.541679 -0.321047 2.94745 147 181 150
1.22477 -0.382173 4.16112 184 205 207
1.32667 -0.39497 4.35787 109 137 124
1.20172 -0.361346 4.13147 108 129 126
1.36445 -0.299329 4.36796 148 171 173
1.20305 -0.256867 4.07322 121 168 159
1.32871 -0.262934 4.29887 137 167 162
1.42902 -0.196975 4.44385 142 183 176
1.22734 -0.162696 4.08374 121 178 170
0.34047 -0.114535 2.39275 177 203 210
0.455977 -0.0486223 2.56657 123 168 159
0.727891 -0.0375488 2.95552 98 147 127
1.48806 -0.00236549 4.45075 104 141 139
1.52113 0.0305527 4.50133 118 150 149
1.46403 0.129189 4.34378 118 159 151
1.34866 0.166006 4.1231 93 125 114
2.96828 0.402882 6.84285 122 165 154
1.53489 0.266483 4.40653 85 139 126
1.51618 0.420939 4.3289 101 137 123
1.14395 0.347442 3.65597 91 131 113
1.55895 0.433936 4.41216 207 238 235
1.11276 0.351935 3.61914 122 176 146
1.19819 0.408755 3.74307 149 211 181
1.46285 0.50658 4.17797 56 114 86
1.66819 0.605518 4.52384 136 167 160
1.61459 0.636888 4.42226 133 161 161
8.34832 -9.20317 16.0556 77 61 49
0.695172 -1.91991 3.41207 164 238 204
0.856871 -2.05452 3.72062 107 132 112
0.610204 -1.82139 3.30876 190 235 226
0.89848 -2.07654 3.75995 193 237 206
0.224332 -1.44383 2.66474 89 195 156
0.919617 -2.08421 3.82716 109 133 115
0.621859 -1.78472 3.33859 106 142 126
-0.51396 -0.738733 1.40336 91 130 128
0.490128 -1.64894 3.12877 127 167 155
-0.572772 -0.68213 1.29721 158 187 192
0.573267 -1.7127 3.27715 130 166 154
0.576486 -1.71679 3.29591 137 178 163
0.759651 -1.85434 3.56897 138 214 182
0.748698 -1.81483 3.56556 160 231 211
0.116252 -1.25043 2.48153 101 129 116
0.797758 -1.84505 3.63798 93 128 114
1.88274 -2.80596 5.52619 123 165 154
2.13984 -2.97967 5.95684 125 152 136
0.217994 -1.28964 2.60341 98 122 104
-0.54571 -0.662658 1.33896 96 132 132
1.65488 -2.55923 5.15517 128 156 150
1.44867 -2.3618 4.77865 83 104 72
2.17159 -2.96751 6.035 174 232 204
0.560348 -1.59723 3.27025 131 169 157
2.00223 -2.81735 5.76727 193 227 220
2.37879 -3.12078 6.37973 97 113 90
1.40431 -2.27377 4.70697 106 147 116
-0.554074 -0.635389 1.31849 128 158 147
1.04662 -1.96522 4.08934 107 132 128
1.77155 -2.56443 5.34971 186 236 226
0.528168 -1.51845 3.22025 112 155 144
0.576795 -1.55679 3.29353 101 137 120
1.6443 -2.43469 5.13833 205 237 236
2.09373 -2.81062 5.92848 114 124 108
0.633286 -1.5968 3.39094 98 146 122
1.39716 -2.20932 4.69719 90 103 79
7.17799 -6.90205 14.6663 166 236 205
2.02541 -2.71627 5.8276 107 121 110
2.40374 -3.03246 6.47005 145 164 161
2.3347 -2.94901 6.34419 229 242 250
0.569123 -1.52059 3.2947 125 162 152
0.90363 -1.78208 3.86217 126 177 163
-0.60353 -0.566079 1.22675 135 177 182
0.782797 -1.67526 3.65965 98 138 126
1.46127 -2.21238 4.82798 98 104 81
1.19773 -1.99873 4.38087 76 125 103
2.91814 -3.38163 7.37716 111 124 116
2.00373 -2.62794 5.76412 204 236 235
1.49582 -2.20241 4.89121 144 210 185
2.08269 -2.67303 5.94819 146 166 161
1.9897 -2.5679 5.75002 165 206 199
0.764745 -1.61068 3.64174 96 120 110
0.950045 -1.75162 3.94925 163 227 198
0.992139 -1.78307 4.01909 88 117 101
1.30797 -2.02815 4.57716 187 230 227
-0.597395 -0.552736 1.23588 171 217 211
1.09566 -1.85277 4.19569 124 156 139
-0.550607 -0.583935 1.31539 207 250 239
-0.4459 -0.661226 1.48971 114 225 187
7.78729 -6.90009 15.6608 115 140 114
1.69756 -2.28389 5.22062 202 228 228
3.2522 -3.50644 7.96744 125 138 130
5.25835 -4.99407 11.4186 160 188 159
-0.566656 -0.564363 1.28427 162 192 187
1.32758 -2.01272 4.61573 134 177 166
2.42652 -2.83469 6.51919 139 167 161
3.68259 -3.79852 8.72108 131 149 142
-0.462041 -0.634491 1.46237 62 111 97
1.48243 -2.10457 4.89642 198 225 221
2.33116 -2.73964 6.37075 215 241 247
7.00604 -6.25367 14.4686 108 119 109
0.802956 -1.58104 3.7013 172 219 211
2.97077 -3.1948 7.47799 122 139 130
7.17234 -6.25055 14.6526 136 132 127
-0.531472 -0.572996 1.33692 126 181 172
1.57109 -2.13755 5.04727 207 242 245
8.11942 -6.969 16.4109 139 203 161
3.9977 -3.91354 9.28866 113 122 109
-0.423886 -0.638982 1.51526 157 247 218
0.167936 -1.05069 2.49593 159 236 202
1.71891 -2.23282 5.31499 121 136 132
3.06332 -3.22822 7.656 133 159 146
2.90918 -3.09229 7.39381 137 157 158
-0.417667 -0.640358 1.53118 79 119 107
1.95048 -2.37453 5.71298 136 142 141
1.59599 -2.10777 5.08095 105 122 113
2.44173 -2.69887 6.58625 114 128 122
-0.525087 -0.551843 1.33937 91 144 124
1.28741 -1.83006 4.5355 107 158 144
2.06703 -2.3726 5.90396 125 142 139
-0.48903 -0.567554 1.40053 136 224 201
1.58297 -2.02945 5.07717 209 244 240
1.86954 -2.23317 5.58669 153 181 175
0.974269 -1.5885 3.99871 109 129 124
-0.461914 -0.581259 1.45049 181 246 225
-0.459534 -0.58783 1.46563 101 143 148
0.953976 -1.55838 3.96396 161 199 193
-0.502422 -0.543917 1.37791 166 238 216
1.18901 -1.69396 4.37327 104 145 130
2.52802 -2.60588 6.72474 212 245 238
1.27468 -1.7409 4.515 64 71 56
1.89407 -2.16903 5.62573 138 165 156
-0.172716 -0.740748 1.95551 88 154 125
3.07866 -2.91364 7.71575 124 121 113
-0.477329 -0.537848 1.41099 112 155 128
0.962361 -1.48066 3.96102 129 156 147
1.03831 -1.51654 4.1087 61 87 71
1.3003 -1.67697 4.53525 64 90 74
1.07246 -1.5071 4.11069 173 227 198
1.80721 -2.00885 5.48821 107 133 119
3.00461 -2.78728 7.58644 213 244 243
1.22054 -1.59807 4.3897 71 86 72
2.90286 -2.6921 7.3982 173 226 216
0 0 0 126 117 157
-0.160727 -0.72191 1.98141 139 221 192
1.12379 -1.52176 4.23408 123 172 158
1.35418 -1.67121 4.61657 225 255 253
-0.452865 -0.534537 1.45752 164 219 216
-0.23965 -0.645999 1.78509 103 156 123
2.73646 -2.54377 7.11125 219 246 243
-0.135594 -0.724768 2.02266 64 90 66
-0.0522487 -0.754372 2.1557 149 216 189
1.17195 -1.50063 4.29974 72 108 91
1.43981 -1.66674 4.76087 140 177 157
2.82484 -2.54332 7.283 118 154 142
-0.424489 -0.531131 1.49461 144 219 197
-0.061012 -0.742531 2.13046 81 115 108
-0.0601721 -0.742385 2.13216 106 140 133
-0.418743 -0.517305 1.49014 121 177 156
2.56317 -2.30547 6.79485 105 131 115
2.14302 -2.05023 6.06555 194 225 224
2.24821 -2.09636 6.24356 109 140 113
2.08457 -1.96696 5.96715 102 128 110
1.31217 -1.48656 4.53463 104 156 139
1.39453 -1.50247 4.66884 96 157 129
2.29317 -2.0523 6.3382 117 149 130
-0.413083 -0.487888 1.49307 171 242 225
-0.0675204 -0.677472 2.11591 129 205 181
1.32347 -1.43861 4.55327 69 127 99
1.26179 -1.39999 4.46039 204 251 235
2.24507 -1.94169 6.23705 112 145 124
-0.0593477 -0.660916 2.11302 61 86 60
1.34663 -1.41656 4.59836 196 250 220
1.50642 -1.50608 4.8911 115 188 166
1.20378 -1.31644 4.33067 185 244 224
-0.0737413 -0.586878 2.05406 82 111 96
0.0736726 -0.624744 2.2456 73 79 62
-0.0454769 -0.561368 2.09133 146 222 180
1.45544 -1.22981 4.75265 145 198 171
1.52462 -1.28188 4.91087 198 246 222
-0.00948507 -0.525094 2.12616 87 127 92
-0.167749 -0.456067 1.84875 174 233 213
-14.2896 5.28 -22.8729 86 90 101
-15.094 5.22045 -24.2862 124 163 155
-13.2175 4.47565 -20.9373 50 66 59
1.05851 -0.643287 3.98829 117 170 157
0.169992 -0.332894 2.19076 162 212 202
1.28989 -0.586985 4.37383 120 176 165
0.597585 -0.408147 3.09616 108 208 172
0.541825 -0.391139 2.99729 168 250 207
0.552194 -0.374249 2.99408 46 77 46
0.639025 -0.392661 3.14388 103 165 119
1.27058 -0.38193 4.23997 107 119 121
1.20567 -0.357866 4.13937 98 117 114
1.36584 -0.298541 4.37291 122 145 147
1.46436 -0.0612045 4.45536 126 175 167
0.478629 -0.0579287 2.59543 180 232 214
1.59367 -0.0182595 4.67127 128 163 153
1.41641 0.0212244 4.34358 118 141 136
1.06521 0.245882 3.59097 63 95 71
1.06994 0.265752 3.59257 187 250 211
1.54732 0.400009 4.39758 93 137 124
1.55402 0.431032 4.4022 199 238 230
1.16493 0.37657 3.72092 52 75 60
1.45956 0.456065 4.17805 101 144 129
1.29389 0.431798 3.91506 112 148 132
1.48764 0.479804 4.25027 86 120 109
1.36872 0.483017 4.01638 99 137 119
