ply
format ascii 1.0
element vertex 1261
property float x
property float y
property float z
property uchar blue
property uchar green
property uchar red
end_header
-2.08064 -0.0184817 -5.59021 124 175 161
-4.1044 -0.151859 -14.704 182 224 213
-2.57896 -0.125492 -7.81382 120 162 161
-2.38595 -0.11795 -6.96829 202 233 236
-2.58909 -0.1442 -7.87629 120 163 160
-3.68938 -0.288566 -12.7725 125 167 160
-2.47102 -0.213594 -7.34011 101 160 146
-2.07687 -0.168853 -5.54449 106 145 147
-1.90209 -0.173859 -4.74162 100 145 148
-2.43294 -0.269116 -7.14082 91 140 132
-2.3952 -0.304571 -6.94474 93 147 140
-1.5921 -0.151923 -3.37286 133 187 182
-3.07787 -0.486139 -9.97298 92 129 119
-2.97933 -0.460819 -9.56794 113 157 150
-2.32122 -0.323946 -6.60372 146 185 187
-3.31677 -0.56598 -11.0751 104 138 131
-2.39041 -0.350446 -6.93345 109 169 159
-2.20554 -0.331381 -6.09339 149 178 187
-1.83175 -0.25938 -4.41629 94 141 139
-1.81104 -0.260035 -4.322 124 161 159
-2.77079 -0.535775 -8.61132 95 155 145
-3.16288 -0.656615 -10.3478 144 184 182
-1.80876 -0.273113 -4.30804 183 239 228
-1.88488 -0.296798 -4.65758 141 178 182
-2.30374 -0.420682 -6.542 165 235 218
-1.60523 -0.239751 -3.39571 118 161 158
-1.4665 -0.20283 -2.81441 130 167 181
-2.58374 -0.574972 -7.80209 91 142 134
-2.10483 -0.417283 -5.60975 225 255 252
-2.51393 -0.560086 -7.46939 91 150 142
-3.04349 -0.791848 -9.83702 109 163 158
-2.62681 -0.652569 -7.95415 80 129 115
-2.03589 -0.463761 -5.3044 129 179 175
-1.7737 -0.360487 -4.13146 117 169 169
-2.31743 -0.607258 -6.56575 98 159 149
-2.83038 -0.836531 -8.85601 120 170 168
-2.65815 -0.75661 -8.06901 171 229 218
-1.98267 -0.486552 -5.0621 132 182 180
-2.68563 -0.801601 -8.20735 116 171 162
-2.42323 -0.696011 -7.02283 118 162 163
-2.01131 -0.512119 -5.18851 93 150 147
-2.04743 -0.532178 -5.34117 159 229 216
-1.61031 -0.341063 -3.39614 121 166 157
-2.77057 -0.873195 -8.58846 102 131 140
-1.43759 -0.270241 -2.65361 133 178 189
-2.8028 -0.902654 -8.74006 189 223 223
-1.99294 -0.535175 -5.09361 167 222 213
-1.5792 -0.350181 -3.2566 93 127 133
-1.62489 -0.373422 -3.45846 223 253 248
-2.48126 -0.819525 -7.27805 181 228 225
-2.22427 -0.693799 -6.14477 117 175 170
-1.41467 -0.290755 -2.54888 128 171 168
-2.32167 -0.781014 -6.56758 83 133 129
-2.06969 -0.64289 -5.43472 98 145 137
-1.65403 -0.421309 -3.57703 102 156 149
-1.69985 -0.449492 -3.78522 137 180 183
-1.88848 -0.563112 -4.61898 84 126 119
-2.45843 -0.889229 -7.1647 130 160 165
-1.5653 -0.400849 -3.18291 119 166 164
-2.10194 -0.706988 -5.56528 83 102 99
-2.10265 -0.707016 -5.56514 81 98 95
-2.0378 -0.665594 -5.25377 60 77 68
-1.53391 -0.386301 -3.04338 126 186 178
-1.72853 -0.508319 -3.91419 137 171 177
-1.67862 -0.479218 -3.69532 121 146 166
0.712916 0.889832 6.70695 68 114 91
0.667123 0.863765 6.45937 92 157 136
-2.01752 -0.714064 -5.16389 155 169 175
-2.15523 -0.809463 -5.82989 130 190 180
-1.6652 -0.519629 -3.62817 137 189 189
-2.15348 -0.861768 -5.81064 90 117 121
-2.35451 -1.00142 -6.67976 90 145 112
-1.83831 -0.653466 -4.38229 138 175 171
-2.27719 -0.957362 -6.34968 170 229 201
-2.07754 -0.827084 -5.46752 105 149 143
-1.46714 -0.411216 -2.74104 217 238 239
-1.57609 -0.487072 -3.22274 116 148 154
-1.65088 -0.540587 -3.5582 176 227 223
-1.72723 -0.605319 -3.9024 123 147 153
-1.61454 -0.537831 -3.39426 206 241 237
-1.64609 -0.574195 -3.53691 117 140 148
-1.77488 -0.680985 -4.10147 134 167 170
-1.79693 -0.708271 -4.18513 124 171 163
-1.70602 -0.655158 -3.78854 148 190 189
-1.80374 -0.743656 -4.23329 134 173 171
-1.61077 -0.592979 -3.37381 107 121 139
-1.68036 -0.663265 -3.68228 136 196 188
-1.72201 -0.696921 -3.8644 150 215 190
-1.70495 -0.692707 -3.78271 153 202 188
-1.83526 -0.843017 -4.36858 87 128 120
-1.83044 -0.848147 -4.34625 154 230 212
-1.39677 -0.467915 -2.41429 122 164 157
-1.79118 -0.83835 -4.18706 107 174 147
-1.62754 -0.698181 -3.44081 161 204 193
-2.64935 -1.63715 -7.8362 46 69 47
-1.75504 -0.864232 -4.02416 97 149 139
-1.68099 -0.806648 -3.69473 109 156 153
-2.05765 -1.14501 -5.14547 92 140 111
-1.61275 -0.744467 -3.37894 197 225 226
-1.66798 -0.817189 -3.62554 173 215 197
-2.13705 -1.37638 -5.56478 102 113 87
0 0 0 61 74 66
-1.4132 -0.656655 -2.4978 170 236 211
-1.99715 -1.36202 -4.66071 165 212 180
-1.97958 -1.37512 -4.53323 91 117 103
5.13026 8.68382 26.4365 116 168 145
-1.95647 -1.71983 -4.64817 106 143 139
-4.28411 -6.23455 -16.1026 133 180 134
-1.79397 -1.49403 -4.0011 73 108 112
-1.9499 -1.75707 -4.63724 139 165 172
-4.54561 -6.7799 -17.3745 135 225 190
-5.27718 -8.15917 -20.8408 118 201 162
-1.75079 -1.55025 -3.90192 161 190 181
-1.73101 -1.52606 -3.80944 171 212 205
-0.461606 -1.009 1.60266 94 120 137
-0.575782 -0.721863 1.20704 93 155 137
-0.272704 -1.3866 2.12691 111 163 153
-0.502115 -0.870503 1.44079 99 151 134
-0.514593 -0.847651 1.41096 141 203 179
-0.527242 -0.811781 1.36811 88 140 122
-0.522559 -0.820306 1.39108 108 169 143
-0.255722 -1.40155 2.21082 120 206 164
0.0541324 -2.03902 3.10387 112 157 140
-0.45917 -0.991103 1.65742 116 176 146
-0.464071 -0.97963 1.6436 216 242 255
-0.325651 -1.22928 2.05958 96 152 139
-0.509869 -0.797162 1.4494 154 255 227
-0.0113043 -1.85802 3.0538 122 156 150
-0.278867 -1.31795 2.25144 110 152 145
0.188228 -2.26846 3.74673 130 161 164
-0.430934 -0.983852 1.818 157 233 215
-0.233548 -1.36787 2.48692 130 186 165
-0.233576 -1.36348 2.48601 120 182 160
0.306076 -2.46451 4.3114 194 245 217
-0.442593 -0.938965 1.79452 111 149 143
0.0197203 -1.86566 3.33532 130 195 180
-0.455588 -0.90785 1.75205 181 231 221
-0.222529 -1.37125 2.54379 106 192 152
-0.256817 -1.3011 2.42967 137 199 183
-0.441804 -0.92458 1.81651 123 163 162
-0.258413 -1.27833 2.44689 122 181 167
-0.24672 -1.29853 2.48697 163 225 211
0.41935 -2.64407 4.82793 116 161 145
-0.427594 -0.942124 1.87289 118 150 145
0.0967393 -1.9858 3.68796 234 255 254
0.44124 -2.68663 4.92432 180 233 206
-0.546357 -0.671982 1.38295 110 160 148
-0.418241 -0.952784 1.91721 124 167 156
0.0328236 -1.84162 3.48774 231 255 255
-0.265782 -1.2498 2.44944 106 145 130
-0.0370892 -1.70003 3.25007 158 196 196
0.0301589 -1.82735 3.50588 140 192 182
0.146055 -2.02917 3.97001 125 180 161
-0.172906 -1.40296 2.81955 109 167 156
0.108966 -1.94826 3.85528 119 169 169
-0.470161 -0.816083 1.76308 100 132 145
-0.365647 -1.00929 2.13943 118 146 140
0.741487 -3.16867 6.28801 183 233 223
-0.524621 -0.670964 1.47532 118 180 158
-0.277372 -1.1739 2.45796 87 140 127
-0.364597 -1.0096 2.1457 99 140 135
-0.489602 -0.766805 1.67657 109 145 133
-0.384639 -0.972524 2.07902 123 193 180
0.762382 -3.20851 6.39962 130 180 162
-0.389581 -0.962577 2.06149 103 149 136
0.545658 -2.76693 5.56389 136 174 174
-0.442487 -0.859506 1.86792 106 128 126
-0.455831 -0.83073 1.8235 93 135 128
-0.440564 -0.849966 1.87619 119 172 159
-0.331883 -1.05252 2.27953 112 181 166
-0.455417 -0.822571 1.82752 102 128 135
-0.265739 -1.17201 2.53549 175 228 218
-0.453426 -0.819782 1.8431 189 226 224
0.993858 -3.57981 7.42602 89 128 106
0.866174 -3.33315 6.94581 232 255 255
-0.231736 -1.22162 2.66506 110 150 155
1.02407 -3.62358 7.56374 175 226 198
0.914281 -3.39801 7.17844 127 166 164
0.998123 -3.5589 7.50824 138 169 168
-0.257487 -1.1657 2.584 91 147 136
-0.0116419 -1.60897 3.53763 113 157 156
0.0528958 -1.72825 3.78347 122 168 175
-0.256706 -1.15388 2.59957 111 158 150
-0.283682 -1.10593 2.50539 88 100 82
-0.0106284 -1.60684 3.54724 113 159 153
-0.306544 -1.05675 2.41648 168 230 208
-0.259744 -1.13947 2.59906 100 162 146
-0.183111 -1.27688 2.89231 115 157 150
-0.335087 -1.00085 2.31693 116 174 163
-0.306951 -1.04928 2.42678 175 244 211
-0.432735 -0.818381 1.9329 199 241 230
-0.357921 -0.957345 2.2322 128 175 173
-0.289752 -1.06791 2.48974 124 170 158
-0.273745 -1.10008 2.56204 99 156 135
1.50455 -4.40243 9.79872 170 234 205
-0.172274 -1.27311 2.95037 105 162 153
0.516173 -2.54716 5.72032 118 188 165
-0.359021 -0.939438 2.23141 118 154 154
-0.322755 -0.999217 2.37231 138 216 179
1.30261 -3.99583 8.99128 124 179 154
-0.296008 -1.04536 2.47534 111 168 153
-0.292381 -1.04939 2.48774 175 229 212
1.46418 -4.28861 9.67118 102 156 139
0.964442 -3.34867 7.60153 152 176 176
-0.480196 -0.708288 1.74388 111 145 135
-0.24057 -1.13269 2.70782 120 173 164
-0.163034 -1.27049 3.01199 206 253 244
1.75525 -4.77966 10.9388 171 220 212
1.41203 -4.12909 9.51734 125 175 145
1.08087 -3.53037 8.15476 129 182 172
-0.448438 -0.759588 1.88899 95 129 123
-0.286013 -1.04125 2.53113 113 174 164
-0.290512 -1.03379 2.52024 106 141 131
-0.20397 -1.18686 2.87036 182 236 229
1.7578 -4.74053 11.0008 175 190 186
2.10478 -5.35823 12.4853 99 158 138
-0.429265 -0.787596 1.96595 128 162 155
-0.382087 -0.867275 2.15895 123 171 173
-0.275496 -1.05214 2.59689 135 185 181
1.71348 -4.62309 10.8816 122 127 126
2.29893 -5.66025 13.3173 134 189 162
1.91215 -4.91673 11.687 246 253 250
2.41772 -5.83696 13.9435 207 236 220
1.57194 -4.29069 10.3125 125 168 155
1.79172 -4.67512 11.2334 162 230 195
-0.165456 -1.22143 3.04969 127 172 169
-0.389945 -0.829631 2.13422 125 172 169
1.45137 -4.04598 9.84939 226 252 252
1.6252 -4.33827 10.5565 192 246 217
-0.345789 -0.90203 2.32203 113 170 155
-0.33662 -0.908965 2.34586 160 206 183
1.68075 -4.43098 10.8446 61 104 95
-0.376045 -0.843787 2.20538 125 174 166
-0.476224 -0.662983 1.77343 131 206 190
-0.214891 -1.10387 2.86126 125 153 153
2.63093 -5.99195 14.9395 92 142 102
2.94759 -6.55021 16.3096 174 223 203
-0.330773 -0.906744 2.39973 61 79 72
-0.436925 -0.72636 1.95013 131 182 174
-0.143603 -1.21409 3.16524 147 191 185
-0.117065 -1.25441 3.27325 171 224 211
1.52762 -4.07067 10.3082 144 183 175
-0.408866 -0.771008 2.07421 133 182 160
-0.366605 -0.840333 2.24771 109 162 149
0.037646 -1.51175 3.92012 86 152 133
0.0038437 -1.4504 3.77664 106 156 146
-0.114492 -1.2483 3.28551 114 143 134
-0.457352 -0.685518 1.87264 136 166 185
2.11001 -5.02369 12.8825 119 146 137
2.46633 -5.61196 14.4014 171 220 188
-0.194622 -1.10645 2.96227 153 200 197
-0.192195 -1.1129 2.97444 208 245 237
-0.443877 -0.69999 1.93002 122 166 159
-0.124221 -1.22224 3.26877 176 233 224
0.497137 -2.25301 5.90691 240 255 255
-0.329037 -0.87989 2.40703 99 167 136
-0.0919048 -1.26291 3.40613 165 227 211
-0.443983 -0.689183 1.92723 132 172 161
2.09167 -4.88617 12.8419 148 178 165
-0.355188 -0.828575 2.30356 226 249 251
-0.211388 -1.05709 2.89918 181 227 214
-0.146299 -1.16303 3.17387 84 136 142
-0.454271 -0.669837 1.88943 100 161 157
-0.128897 -1.18649 3.26455 97 127 114
-0.184308 -1.09716 3.03189 145 195 193
0.511202 -2.22763 6.00593 151 192 195
-0.342726 -0.838428 2.35824 110 152 145
4.06184 -8.09689 21.6496 214 232 225
-0.373123 -0.788445 2.22933 155 186 185
0.44506 -2.10802 5.71102 191 239 227
-0.163424 -1.11913 3.10865 203 255 243
0.178281 -1.6709 4.56755 129 181 174
2.95106 -6.20961 16.6864 130 183 156
-0.439557 -0.682315 1.95149 106 143 139
-0.131565 -1.16631 3.24963 90 126 109
-0.368149 -0.792399 2.25984 126 147 149
-0.0912696 -1.22377 3.41327 95 141 128
-0.138489 -1.15303 3.23571 95 131 119
0.711562 -2.50963 6.89004 89 106 95
-0.229642 -0.996377 2.84298 100 139 117
0.554616 -2.24687 6.21983 101 133 114
0.63476 -2.36874 6.56145 181 227 215
-0.43749 -0.672945 1.95963 151 196 199
-0.151348 -1.12134 3.18712 133 180 172
-0.228772 -0.993014 2.85217 67 106 85
0.803149 -2.62603 7.32809 143 186 173
-0.305679 -0.870006 2.52534 102 173 157
0.399052 -1.96888 5.53414 174 211 201
0.813598 -2.63885 7.37137 158 205 197
-0.292866 -0.88819 2.58518 176 227 229
3.06815 -6.22293 17.3813 117 128 132
-0.442625 -0.656042 1.94106 102 158 147
-0.372246 -0.764113 2.24645 95 126 123
3.23174 -6.46879 18.1206 230 248 249
6.02465 -10.9001 30.5068 215 227 227
-0.257971 -0.937619 2.73951 108 136 136
-0.375469 -0.755479 2.23349 133 153 154
-0.370327 -0.75956 2.24886 161 214 194
0.53721 -2.15993 6.16453 161 198 202
0 0 0 160 202 201
-0.437536 -0.656734 1.96257 100 143 134
-0.458942 -0.619271 1.8571 122 174 164
0.0336745 -1.37968 3.98877 173 223 219
-0.279082 -0.891504 2.64545 92 154 130
2.05648 -4.54577 12.9614 126 185 177
1.08058 -3.0022 8.60534 116 134 135
-0.258249 -0.92298 2.75049 119 190 174
-0.159571 -1.06767 3.15902 128 182 165
1.63406 -3.85515 11.0744 241 255 253
-0.468557 -0.595954 1.81083 96 157 143
-0.122736 -1.1263 3.329 83 136 123
0.73011 -2.43471 7.05723 107 144 124
1.4998 -3.64647 10.5313 162 196 186
-0.377199 -0.736735 2.22859 117 158 151
1.28669 -3.29345 9.54637 163 190 180
0.589356 -2.20333 6.42248 170 217 209
1.0129 -2.86547 8.3309 171 225 218
0 0 0 132 141 150
-0.440335 -0.638669 1.95115 111 156 147
1.12007 -3.02201 8.79208 185 206 203
1.92755 -4.28318 12.4339 120 142 137
-0.377084 -0.731524 2.23141 233 253 254
-0.156898 -1.06178 3.18432 135 182 173
-0.143059 -1.07733 3.24049 110 182 162
1.15426 -3.05703 8.95003 97 113 106
-0.424195 -0.650772 2.00539 108 158 148
0.96936 -2.77108 8.16239 111 145 134
-0.439237 -0.631197 1.95689 127 176 168
-0.27421 -0.870295 2.67361 193 247 230
0.899224 -2.64698 7.85523 164 185 177
0.680482 -2.30712 6.88881 147 181 170
0 0 0 154 181 185
-0.226765 -0.934965 2.89514 103 173 156
-0.147533 -1.04805 3.22654 94 141 133
0.16813 -1.51024 4.59248 129 176 160
-0.199021 -0.969975 3.00985 97 140 129
0.230925 -1.5944 4.86956 73 109 97
-0.197018 -0.968386 3.02354 173 219 213
0.238919 -1.59722 4.8985 78 104 98
-0.142567 -1.04289 3.26508 200 242 231
2.05663 -4.31824 13.1045 142 152 146
-0.192638 -0.964143 3.03328 98 126 120
0 0 0 128 176 170
-0.209792 -0.934963 2.97219 102 155 145
1.64962 -3.66371 11.3277 145 157 169
-0.201143 -0.940633 3.00786 125 170 151
-0.173894 -0.975807 3.11405 127 179 169
0.740442 -2.29953 7.17135 90 106 89
3.40489 -6.25068 19.3647 99 123 113
-0.408968 -0.636784 2.07226 151 190 188
-0.320801 -0.765441 2.47432 230 255 251
-0.386734 -0.668681 2.18747 145 165 176
-0.342401 -0.729552 2.38148 91 133 116
0.351683 -1.71099 5.42226 97 157 123
1.14379 -2.8589 9.01225 121 141 142
-0.465676 -0.548966 1.81494 105 179 161
-0.45164 -0.570173 1.88609 188 244 231
-0.201795 -0.922202 3.00858 188 246 218
0.829259 -2.38521 7.5953 142 151 141
-0.301128 -0.780731 2.57197 100 161 147
1.90557 -3.94824 12.5538 168 208 203
0.00015263 -1.19371 3.88495 191 250 229
0.0281791 -1.2318 4.00234 183 240 201
0.657939 -2.12416 6.8192 100 156 145
-0.259409 -0.822517 2.72853 99 138 122
-0.201374 -0.916812 3.02424 133 173 168
-0.332204 -0.729695 2.43293 184 213 217
0.0365443 -1.23146 4.04104 72 120 96
0.431142 -1.78907 5.80351 129 205 171
-0.340744 -0.71341 2.39715 201 238 236
-0.0770116 -1.08211 3.58305 203 249 243
0.0255675 -1.21677 4.00695 168 227 219
0.0371476 -1.23169 4.04551 78 123 106
-0.198215 -0.911767 3.04467 191 233 232
0.0319904 -1.2223 4.0369 198 245 236
0.732103 -2.19567 7.15957 191 220 225
0 0 0 141 185 179
-0.0776664 -1.06635 3.56535 145 189 183
0 0 0 103 141 143
-0.374761 -0.65413 2.23777 122 139 136
0.552131 -1.92749 6.37812 139 166 146
-0.452431 -0.548132 1.88071 103 178 162
-0.220355 -0.859621 2.92862 112 174 162
-0.411518 -0.597703 2.07057 102 128 122
2.71117 -4.8749 16.2057 115 146 149
0.869498 -2.32999 7.80984 165 196 211
-0.378587 -0.638874 2.21844 108 130 118
-0.434215 -0.564904 1.97335 122 186 174
-0.185725 -0.898825 3.09662 96 144 132
-0.318949 -0.717089 2.49494 110 141 144
-0.413664 -0.586014 2.05847 176 218 211
-0.0309324 -1.09586 3.77461 168 236 213
-0.38279 -0.625209 2.20724 213 239 239
-0.0360547 -1.08707 3.76802 78 98 86
0.514016 -1.80829 6.20568 83 124 97
-0.173992 -0.89695 3.15182 179 236 211
-0.0523684 -1.059 3.69023 116 148 137
1.5492 -3.18319 10.9149 182 223 226
-0.416211 -0.572113 2.0431 169 209 208
-0.417586 -0.571458 2.04625 190 225 221
0.0575749 -1.16812 4.10706 72 146 120
0.473517 -1.7282 6.02363 164 242 205
0.560904 -1.84806 6.43841 129 155 131
-0.416747 -0.565025 2.04069 84 110 104
-0.045655 -1.04517 3.71707 185 227 226
0.905478 -2.2955 8.02949 95 137 126
-0.301995 -0.712714 2.57636 87 119 118
0.995062 -2.39952 8.44149 107 117 104
1.09824 -2.53647 8.91784 173 193 188
-0.426479 -0.549631 2.00493 134 181 173
-0.0272459 -1.05377 3.79709 89 112 108
0.888207 -2.23952 7.95375 103 149 127
3.61649 -5.81451 20.4913 115 156 149
-0.308031 -0.698404 2.55346 112 172 162
0.964977 -2.34074 8.31268 171 219 207
-0.420695 -0.552404 2.03371 177 227 223
0.153163 -1.25542 4.54253 75 121 102
4.08401 -6.35792 22.6616 172 213 206
-0.319079 -0.676666 2.49623 139 164 166
3.38806 -5.3909 19.4079 208 242 241
4.59778 -6.90586 24.9841 188 231 222
0.945763 -2.26139 8.23069 120 137 133
-0.11554 -0.921141 3.42017 161 239 216
-0.301744 -0.685336 2.57703 110 172 158
-0.0712122 -0.964683 3.59256 155 218 186
-0.417453 -0.542968 2.04973 165 221 226
1.73037 -3.22826 11.8249 177 179 167
4.17695 -6.29264 23.0913 172 213 208
-0.342675 -0.622744 2.36677 119 139 150
-0.30904 -0.669903 2.54611 171 239 214
1.38365 -2.76987 10.2106 104 125 126
1.45272 -2.84626 10.5294 145 182 196
2.74573 -4.46423 16.4842 121 146 150
3.78719 -5.74874 21.2855 150 169 176
5.24246 -7.55209 27.9513 168 212 213
6.06564 -8.64932 31.9675 107 147 145
0.850644 -2.0839 7.76513 101 143 120
1.43946 -2.82765 10.5061 189 227 229
-0.0712547 -0.950247 3.60575 76 122 100
-0.288427 -0.68379 2.63278 201 225 237
2.07898 -3.57073 13.4261 180 206 218
3.03638 -4.74447 17.827 113 129 128
0 0 0 194 225 222
-0.0564852 -0.960063 3.68744 168 220 210
0.859163 -2.07259 7.83941 82 118 96
0.897169 -2.11532 8.00876 162 234 198
1.7366 -3.14007 11.8768 99 107 96
1.08763 -2.33322 8.90433 140 169 173
-0.060521 -0.941083 3.6785 124 186 170
0.898545 -2.09151 8.04029 112 136 124
-0.0461515 -0.958538 3.75389 123 170 168
0.699313 -1.83706 7.09957 152 192 167
-0.318064 -0.62959 2.50349 192 215 207
1.22538 -2.46137 9.52491 225 252 249
-0.416795 -0.513346 2.04021 117 163 151
-0.0961186 -0.885009 3.51389 119 179 168
0.741202 -1.86223 7.28643 150 169 150
1.04703 -2.23717 8.73606 193 233 221
1.25074 -2.45584 9.63258 127 161 167
1.41363 -2.628 10.3989 102 128 135
0.673686 -1.75148 6.98476 90 114 112
2.86533 -4.31938 17.1192 167 175 174
1.69812 -2.94918 11.7229 213 244 247
-0.320792 -0.604349 2.47715 110 142 141
-0.214729 -0.729395 2.97795 183 218 214
0.420244 -1.43952 5.80068 192 226 225
3.22293 -4.70339 18.7815 221 222 218
7.32355 -9.46763 37.743 193 230 226
-0.0177787 -0.945558 3.86345 216 247 244
0.161056 -1.14231 4.64761 185 248 222
0.236568 -1.21665 4.946 55 97 80
-0.324143 -0.595953 2.47033 142 161 168
0.196586 -1.17398 4.80109 60 88 68
0.453917 -1.45944 5.97268 107 141 135
0.727892 -1.77947 7.25408 167 207 206
0.257746 -1.22385 5.04136 160 214 197
1.16041 -2.27314 9.2742 111 151 150
0.427808 -1.42231 5.85467 91 127 127
0.746927 -1.78563 7.30644 100 137 135
6.97163 -8.87546 36.2136 163 210 202
-0.0589664 -0.880149 3.68111 93 165 142
-0.243136 -0.67749 2.8477 161 204 201
0.745823 -1.76933 7.31487 168 234 222
-0.29269 -0.615764 2.61499 119 149 150
1.92038 -3.08434 12.77 203 229 229
-0.409991 -0.484173 2.06113 79 126 117
-0.11955 -0.802242 3.4046 138 191 182
0 0 0 162 198 192
-0.0139058 -0.915259 3.8937 100 140 135
0.460618 -1.43256 6.04859 92 152 141
0 0 0 152 202 190
1.48324 -2.55169 10.7601 170 214 207
1.13047 -2.15276 9.11791 182 228 215
3.45975 -4.70385 19.8916 199 237 241
-0.0193529 -0.894439 3.8747 93 135 128
0.0794166 -0.998792 4.30632 99 154 145
0 0 0 179 205 191
-0.0763077 -0.831223 3.61788 126 175 173
1.26843 -2.27434 9.74634 159 193 186
-0.115356 -0.783961 3.43793 112 159 150
0.61291 -1.55878 6.7486 85 148 138
4.55179 -5.80575 24.861 215 226 224
-0.369037 -0.510868 2.24652 131 189 160
0.593611 -1.52656 6.63003 165 252 224
-2.07405 1.33983 -5.84328 117 149 144
-0.414106 -0.462431 2.03873 100 159 145
-0.0465549 -0.852844 3.75585 114 167 170
-0.261641 -0.618568 2.74475 94 119 121
-0.25673 -0.627966 2.78174 126 168 150
2.53207 -3.58949 15.6156 111 127 120
-0.366486 -0.506452 2.25376 181 224 215
0.0866596 -0.98266 4.34586 104 131 122
1.6917 -2.68357 11.7115 189 233 226
-0.250575 -0.627077 2.80442 189 236 233
0.100111 -0.992694 4.39231 122 140 133
0.437138 -1.34073 5.92865 85 132 124
-0.372537 -0.491885 2.21783 134 175 167
-0.090794 -0.788531 3.54021 100 180 163
0.0505176 -0.934528 4.18548 184 237 224
0.625769 -1.53414 6.80078 89 126 122
1.80901 -2.77018 12.2507 124 173 171
1.39062 -2.30984 10.2978 86 126 108
1.10285 -2.00289 9.00461 201 236 232
3.03294 -4.00213 17.9537 90 110 97
0.625611 -1.49889 6.78273 75 127 117
1.90666 -2.81394 12.7433 83 105 93
2.68769 -3.62742 16.364 164 221 212
3.43548 -4.38575 19.818 199 238 240
0 0 0 176 200 200
-0.124329 -0.732949 3.39377 136 175 173
0.462565 -1.32518 6.06122 105 144 153
3.25924 -4.17324 19.0204 150 187 179
-0.358734 -0.490175 2.28001 205 226 223
-0.125819 -0.724468 3.37117 148 179 180
4.23227 -5.14863 23.5068 187 222 218
-0.138129 -0.710794 3.31903 122 152 157
1.99842 -2.86896 13.1682 136 172 158
3.74579 -4.6381 21.2675 185 224 216
7.05538 -7.97112 36.4968 197 234 238
-0.409053 -0.439745 2.04755 113 169 156
0.4523 -1.29481 6.01199 119 164 155
0 0 0 240 255 253
-0.115746 -0.723121 3.42688 137 173 173
2.25996 -3.08955 14.3746 104 141 125
-0.0840131 -0.752124 3.5626 111 152 145
0.0412343 -0.871133 4.13549 104 139 129
0.506485 -1.33041 6.26863 170 225 216
-0.361375 -0.473343 2.26086 122 137 139
-0.134085 -0.697478 3.33725 148 180 186
2.89479 -3.67513 17.2618 222 250 250
3.56034 -4.3534 20.4585 175 232 223
-0.14308 -0.685509 3.29565 96 127 130
0.525751 -1.33296 6.33712 56 90 80
1.80331 -2.58031 12.1974 79 110 101
5.64831 -6.38985 30.1462 193 230 222
6.29291 -6.97222 32.9854 205 228 224
0.0493093 -0.86993 4.17984 87 132 123
-0.362399 -0.469975 2.26608 132 156 162
-0.299558 -0.530248 2.56993 217 233 240
-0.316908 -0.509791 2.47267 147 182 185
6.23852 -6.89502 32.9096 113 111 103
0.415992 -1.21318 5.85153 101 158 143
0.435024 -1.23212 5.94944 182 225 216
-0.386358 -0.437985 2.14156 124 146 151
-0.192201 -0.622046 3.06022 100 164 152
0.319861 -1.10936 5.41784 100 145 126
0.349381 -1.1314 5.55635 87 121 114
-0.285797 -0.528259 2.61893 235 250 253
0.939191 -1.67713 8.21619 184 224 219
-0.348567 -0.468294 2.32559 219 253 246
-0.343348 -0.470735 2.34666 181 238 223
3.49649 -4.08175 20.0841 187 228 220
0.325565 -1.09278 5.4425 180 236 223
2.87973 -3.4822 17.2099 101 133 114
0.454971 -1.21013 6.04504 94 139 123
2.0301 -2.68235 13.2796 98 156 138
0 0 0 221 243 238
-0.0046981 -0.782385 3.94646 84 127 116
0.0637754 -0.842862 4.25144 109 171 157
0 0 0 90 101 93
-0.343566 -0.461793 2.34906 210 238 239
-0.250382 -0.543747 2.78758 219 234 236
6.62183 -6.86192 34.5469 117 158 150
-0.202956 -0.585402 3.00721 115 153 155
-0.142704 -0.641197 3.29351 116 164 158
0.100425 -0.859863 4.41721 185 219 213
0 0 0 94 128 121
-0.28865 -0.504889 2.60608 139 179 174
-0.0739688 -0.6962 3.61485 117 170 157
0.527371 -1.23184 6.35804 202 230 230
7.60414 -7.66059 39.1819 100 124 112
0 0 0 107 158 154
0.169689 -0.908755 4.71962 104 141 137
0.490395 -1.19225 6.18459 168 234 185
4.012 -4.37085 22.4462 157 193 177
5.65336 -5.86967 30.1076 91 155 155
0 0 0 244 254 254
-0.359587 -0.436929 2.26974 155 200 197
-0.401427 -0.400061 2.07235 142 204 186
0.285426 -1.006 5.24213 101 121 116
4.97393 -5.19594 26.9279 198 231 227
0.322691 -1.03536 5.43288 92 140 128
0.524369 -1.21447 6.3363 80 112 101
2.54878 -3.00506 15.6066 157 204 196
-0.331396 -0.455307 2.39524 87 128 121
0.322755 -1.03531 5.42726 96 145 131
-0.132802 -0.629647 3.33793 88 148 130
2.80262 -3.22096 16.833 194 224 225
5.01511 -5.17868 27.0632 81 124 121
0.0379445 -0.770941 4.09934 134 185 177
0.267913 -0.972354 5.16051 121 177 164
0 0 0 116 129 115
-0.360342 -0.42133 2.25605 132 179 171
0 0 0 200 224 222
-0.307919 -0.457954 2.50461 125 157 152
0.243146 -0.916032 5.04534 69 111 104
-0.121176 -0.614938 3.39269 91 127 115
0.101441 -0.799858 4.41767 225 255 250
-0.262704 -0.489302 2.70844 128 168 163
0.110167 -0.801268 4.46487 109 171 159
2.00309 -2.35672 13.0364 176 244 221
3.49497 -3.61351 19.9841 149 179 184
-0.122275 -0.60009 3.372 193 250 217
0.273578 -0.923775 5.18437 162 222 204
2.09846 -2.4226 13.4746 111 161 149
-0.275123 -0.474813 2.66022 157 188 179
0.0366651 -0.728828 4.11224 211 243 242
-0.131469 -0.589608 3.33779 239 255 255
2.16908 -2.46453 13.8037 136 195 175
0.0984948 -0.774465 4.39256 120 170 160
-0.184556 -0.542677 3.09397 145 173 180
-0.31829 -0.427928 2.43541 109 142 138
2.63998 -2.80911 15.9087 123 170 144
-2.04319 0.994441 -5.69399 137 178 173
2.02264 -2.30716 13.1103 171 245 197
0 0 0 118 171 158
-1.92742 0.898004 -5.17924 126 173 164
2.76121 -2.86742 16.3777 91 127 121
0 0 0 105 135 122
-0.176871 -0.538647 3.11168 238 253 255
0 0 0 151 207 186
-0.353185 -0.393951 2.2695 124 161 159
0 0 0 100 149 135
-0.26491 -0.462094 2.70896 137 164 174
0.51761 -1.07118 6.32168 86 151 135
0.608667 -1.14162 6.73874 108 145 135
-0.267743 -0.453328 2.69213 98 124 124
0.274865 -0.879605 5.21431 91 143 119
0.00495112 -0.658617 3.96077 113 172 168
0.35571 -0.931046 5.56343 192 232 231
0.580709 -1.10923 6.61504 112 152 147
0 0 0 121 162 164
0.293331 -0.881798 5.27678 66 109 94
1.75334 -1.98742 11.9398 148 214 189
2.4285 -2.47859 14.9235 41 47 36
2.83555 -2.76546 16.6395 81 140 126
-0.0587945 -0.597858 3.65689 74 131 123
2.54483 -2.53998 15.3891 125 193 158
1.60416 -1.84595 11.3021 175 211 219
0 0 0 112 172 162
-0.171301 -0.501806 3.12165 84 125 110
0.165346 -0.752387 4.6987 204 251 242
0.349104 -0.888627 5.54423 120 175 160
0.501591 -1.00501 6.25115 123 186 170
2.6204 -2.54082 15.7085 162 221 190
0.65433 -1.10682 6.95061 191 230 228
2.88965 -2.68521 16.908 63 87 77
0.313788 -0.846365 5.39685 86 140 117
0.609622 -1.05962 6.73183 191 244 230
-0.134484 -0.514451 3.28565 83 152 139
0.129171 -0.707296 4.53519 128 182 182
2.97522 -2.7252 17.3055 159 199 188
0.592163 -1.03659 6.6455 87 128 121
0.682792 -1.10455 7.05921 100 148 142
-0.0721733 -0.556292 3.58075 148 211 185
-0.0595188 -0.559617 3.61933 137 179 154
0.643132 -1.07298 6.89455 77 135 117
3.51598 -3.08283 19.7084 102 142 141
-0.131358 -0.509736 3.30207 184 239 224
0.740501 -1.1303 7.30588 91 128 112
0 0 0 241 250 247
3.6439 -3.136 20.2628 179 232 229
-0.356613 -0.350968 2.24634 107 157 145
-0.0371408 -0.572284 3.74357 169 206 196
0.138332 -0.695302 4.56868 121 175 168
0.680736 -1.07252 7.03647 66 107 99
2.77568 -2.50416 16.3291 144 186 169
3.16677 -2.77089 18.0864 171 223 213
0.0857596 -0.652284 4.31505 105 154 146
2.40295 -2.25871 14.8174 162 211 191
3.35461 -2.89675 18.9806 121 174 160
3.79799 -3.20016 20.9703 121 162 155
4.72475 -3.85402 25.1387 102 154 144
-0.345221 -0.353261 2.29137 81 121 110
-1.79512 0.670076 -4.5321 122 166 165
0 0 0 115 155 160
0.262179 -0.762749 5.15184 111 163 156
-0.386761 -0.319466 2.09706 103 167 148
0.13818 -0.673288 4.56571 180 227 224
0.761439 -1.09724 7.43161 174 225 218
-0.381432 -0.320632 2.13118 85 132 123
-7.05806 4.20127 -28.6976 94 140 134
1.443 -1.53689 10.572 109 130 128
3.10608 -2.59526 17.8283 156 194 188
-0.378358 -0.317042 2.13548 166 223 208
1.53303 -1.58814 11.0065 172 213 206
3.71674 -2.97975 20.6206 63 81 68
-0.169901 -0.445208 3.09419 137 216 183
0.708519 -1.02582 7.186 100 142 147
0.21845 -0.700199 4.91509 100 143 130
0.755602 -1.04155 7.37151 93 132 130
0.439392 -0.834624 5.94851 88 139 125
2.78316 -2.32625 16.462 172 212 187
3.51612 -2.75469 19.6594 170 220 210
0.294517 -0.732364 5.26766 103 144 139
0.617953 -0.936576 6.7567 190 231 224
3.20726 -2.54786 18.2896 45 69 59
3.33112 -2.62364 18.8263 151 211 200
0.887112 -1.10019 7.9785 104 138 131
-0.184732 -0.421315 3.03797 104 169 154
-8.31923 4.76031 -34.5281 117 170 156
-0.25836 -0.372451 2.68288 145 231 213
-0.218734 -0.392715 2.85787 161 238 210
-1.8611 0.64612 -4.82497 167 193 205
-0.256018 -0.369919 2.70153 71 125 118
0.373727 -0.75967 5.625 189 239 221
0.899953 -1.0779 8.02435 176 222 223
0.441439 -0.789449 5.95818 118 159 151
0.464387 -0.807464 6.06257 115 177 165
1.27875 -1.31278 9.79553 112 160 154
1.43296 -1.39824 10.5093 153 188 178
-0.380427 -0.290506 2.11126 164 215 207
0.477642 -0.798604 6.11455 191 232 224
-6.37194 3.30405 -25.4301 99 170 150
-0.385294 -0.278394 2.07366 87 147 141
1.13428 -1.16924 9.1334 118 161 158
0.514973 -0.787743 6.26484 99 145 132
-6.95639 3.57312 -28.1816 120 170 160
-0.171423 -0.384711 3.05422 143 183 182
1.61718 -1.39819 11.3255 87 125 119
1.7239 -1.45262 11.8016 180 230 220
-1.72233 0.501957 -4.1815 93 152 144
-0.305274 -0.306892 2.44683 166 236 213
-3.57595 1.54074 -12.5723 115 152 186
-0.256287 -0.332745 2.68501 168 229 215
-5.17392 2.36843 -19.9186 121 176 167
-4.89617 2.21479 -18.6404 106 157 149
-2.04363 0.660727 -5.62624 128 178 166
-0.159958 -0.369202 3.08304 182 238 209
0.884508 -0.93898 7.96222 116 170 171
-0.399397 -0.249669 1.98496 92 137 120
-0.372303 -0.264197 2.13178 114 165 161
-6.16196 2.88123 -24.469 134 173 171
-0.384117 -0.256718 2.07569 120 171 174
0 0 0 76 125 109
-0.126581 -0.382404 3.28274 91 127 105
1.15718 -1.06544 9.19796 127 156 171
-0.384662 -0.253516 2.07355 167 230 220
-0.380983 -0.252469 2.08716 80 130 126
1.50233 -1.22762 10.8161 114 157 144
1.1956 -1.05475 9.39297 79 110 103
1.8367 -1.38286 12.3241 99 135 135
-3.947 1.59479 -14.2564 124 165 174
1.6715 -1.28936 11.5745 182 227 218
-3.28708 1.23947 -11.2211 128 167 181
-3.96849 1.56391 -14.3391 123 161 185
1.19664 -1.00048 9.36976 179 208 212
-3.01093 1.06925 -9.97307 108 142 158
1.32924 -1.05432 10.0087 87 109 107
-2.29064 0.692006 -6.70607 111 161 159
1.4808 -1.09898 10.6663 84 109 105
-5.6395 2.27243 -22.0817 114 179 163
1.10442 -0.912868 8.91983 170 206 194
0.181862 -0.437545 4.38473 187 215 209
-0.279763 -0.261203 2.53432 223 252 243
-0.27807 -0.260485 2.55089 92 139 136
0.0754019 -0.407066 4.15332 58 72 70
-1.82307 0.434631 -4.61228 137 186 184
1.12694 -0.861292 8.98163 145 190 181
-2.80348 0.86281 -9.02956 90 149 151
-0.179844 -0.28611 2.97326 58 110 86
0.20091 -0.415758 4.46207 108 146 140
-3.22385 1.01021 -10.9191 89 131 154
-1.87246 0.437664 -4.81201 121 181 171
0 0 0 43 91 73
-0.325257 -0.225929 2.28824 80 139 125
-3.79028 1.23322 -13.5105 114 137 139
-2.53168 0.700806 -7.75873 126 158 171
-1.80162 0.39284 -4.49187 123 187 181
-2.72415 0.765932 -8.65936 95 158 148
-4.72151 1.56748 -17.8235 216 254 254
-4.6088 1.50337 -17.3003 135 184 194
-4.3588 1.39895 -16.1088 82 113 114
-3.18743 0.9276 -10.7422 121 172 168
-2.39403 0.611226 -7.14715 117 166 188
-5.31752 1.73595 -20.4873 133 176 179
-4.44511 1.38115 -16.5148 228 255 255
0.0803109 -0.339991 4.15759 38 81 72
-0.151094 -0.256471 3.08601 114 139 111
-0.149113 -0.257282 3.0832 109 150 113
0 0 0 163 241 204
0 0 0 142 231 188
-5.70157 1.75867 -22.2369 98 151 142
-4.05758 1.15615 -14.7007 116 186 173
-5.36958 1.62855 -20.7335 221 252 249
-5.45955 1.59661 -21.1018 106 160 143
-3.27503 0.831128 -11.1271 105 123 122
-0.275743 -0.202381 2.52617 134 168 161
-0.177446 -0.224271 2.96648 129 181 164
-3.30635 0.803042 -11.258 248 252 255
-5.37836 1.46817 -20.6721 109 158 138
0.112888 -0.289327 4.19233 176 227 200
-3.28223 0.763357 -11.1542 99 173 167
-1.79206 0.292566 -4.41887 244 254 254
-2.53601 0.505982 -7.75179 113 174 154
-3.22174 0.705064 -10.8909 108 158 158
-1.76243 0.266482 -4.28471 118 172 165
-3.37923 0.742095 -11.6099 146 184 196
-2.01274 0.33744 -5.37672 154 184 189
-2.40745 0.452599 -7.15444 139 198 184
-4.29021 0.970426 -15.7509 126 153 150
-2.65411 0.512119 -8.2794 125 172 163
0.75355 -0.415549 6.85207 149 227 186
-2.83009 0.548346 -9.09375 134 181 185
0.101736 -0.254206 4.12366 124 160 130
-1.75493 0.242623 -4.23836 145 198 195
-0.296317 -0.157612 2.38458 140 184 161
-2.46326 0.422248 -7.4244 108 170 154
0.751947 -0.387216 6.84464 36 77 45
-5.12382 1.07408 -19.3546 81 127 104
-1.57759 0.179542 -3.44439 134 184 180
-3.21413 0.578153 -10.8196 105 153 141
-2.07109 0.294898 -5.61996 142 168 182
-2.4057 0.37191 -7.15545 112 166 149
-1.91607 0.252866 -4.92151 130 183 180
0.700794 -0.326882 6.6175 57 88 49
0.825687 -0.308222 7.1647 79 161 118
-2.01923 0.227661 -5.38004 127 177 173
-1.91966 0.207259 -4.92107 133 171 173
-1.69774 0.157786 -3.96789 153 183 188
-2.85477 0.367099 -9.15259 139 169 170
0.868236 -0.287901 7.35015 40 48 37
-1.90557 0.179787 -4.85044 135 180 177
-1.63379 0.131018 -3.66634 165 180 189
-2.28345 0.235488 -6.55699 106 171 155
-2.69491 0.289656 -8.42047 215 239 231
-2.57223 0.272959 -7.86783 231 255 247
-3.25117 0.377302 -10.9193 199 241 234
-2.3273 0.222162 -6.74808 113 175 157
0.821663 -0.239625 7.13205 104 135 98
-1.92045 0.148746 -4.91122 188 231 228
-2.96417 0.285759 -9.63366 133 184 180
-1.60331 0.0987443 -3.51728 139 191 184
-2.20774 0.142491 -6.18433 118 161 146
-1.63398 0.0667998 -3.64633 114 163 155
-1.9016 0.0779702 -4.81936 117 177 166
-3.02477 0.160324 -9.8916 124 144 161
-2.03291 0.0867356 -5.41046 143 184 176
-1.88138 0.0704948 -4.72066 117 164 155
-2.18607 0.0792258 -6.0927 116 164 146
-3.44184 0.133164 -11.7196 118 178 170
-3.0241 0.113659 -9.86564 130 184 179
-2.16418 0.0573194 -5.98432 125 171 158
-2.02093 0.0459532 -5.34087 134 186 163
-2.18097 0.0476853 -6.06285 116 173 158
-1.57519 0.0191579 -3.36803 127 185 174
-2.65649 0.0547577 -8.21224 132 167 171
-3.00739 0.060151 -9.78432 91 156 147
-1.46214 -0.00622865 -2.86403 226 255 252
-3.07155 -0.010065 -10.0338 174 231 223
-2.08132 -0.0181303 -5.59222 124 175 161
-2.10044 -0.0237278 -5.68944 105 158 145
-2.71908 -0.050744 -8.4422 142 179 187
-3.89668 -0.11576 -13.7702 125 163 151
-3.10304 -0.0858804 -10.1539 128 173 170
-1.84989 -0.0384334 -4.54943 125 183 178
-4.10318 -0.13467 -14.625 120 169 161
-1.81949 -0.0482188 -4.41242 130 169 167
-3.44067 -0.132263 -11.7196 107 157 153
-2.21986 -0.0722097 -6.21167 123 154 157
-2.69534 -0.10074 -8.34594 128 179 172
-1.50791 -0.0447421 -3.04343 128 163 166
-1.74856 -0.0609594 -4.09376 122 176 169
-3.28892 -0.168455 -11.0099 87 121 114
-2.43181 -0.107893 -7.17185 129 184 175
-1.88865 -0.0779299 -4.71279 109 178 168
-2.95032 -0.178386 -9.46133 85 130 121
-2.58768 -0.144796 -7.8708 120 163 160
-1.52343 -0.0660009 -3.11129 113 144 135
-1.75702 -0.0925453 -4.11277 244 253 255
-3.39725 -0.253438 -11.5019 86 123 119
-2.62969 -0.176182 -8.02511 116 166 164
-1.76265 -0.117035 -4.14053 162 189 199
-2.6458 -0.236105 -8.09669 124 160 160
-3.59608 -0.37004 -12.3519 123 153 148
-1.71026 -0.126262 -3.89662 223 255 250
-3.56133 -0.401447 -12.1561 183 235 225
-3.15526 -0.363091 -10.3959 129 170 165
-1.94302 -0.176104 -4.94497 188 232 225
-2.36089 -0.246741 -6.81053 140 160 178
-2.53508 -0.279847 -7.59677 120 168 170
-1.70005 -0.143319 -3.8575 120 161 164
-2.81618 -0.338733 -8.83321 134 171 169
-1.72037 -0.151353 -3.94235 145 176 177
-1.62853 -0.136015 -3.53124 141 180 189
-2.34613 -0.262777 -6.73577 153 176 192
-2.48895 -0.295354 -7.38339 107 170 160
-3.2797 -0.460133 -10.9234 119 155 149
-2.38299 -0.309378 -6.90245 110 157 149
-1.59169 -0.152993 -3.37108 135 188 185
-2.39787 -0.317261 -6.96704 186 244 226
-2.28046 -0.292204 -6.42247 109 151 156
-2.50486 -0.344258 -7.42659 100 159 151
-1.69665 -0.177236 -3.82467 143 182 184
-3.07918 -0.485797 -9.97951 92 129 119
-2.2533 -0.307403 -6.31364 238 254 255
-2.37697 -0.338299 -6.85783 172 222 210
-2.31973 -0.324492 -6.59839 146 185 187
-1.98003 -0.250708 -5.09868 134 184 184
-2.83356 -0.45148 -8.90272 110 157 149
-2.39351 -0.349835 -6.94002 109 169 159
-1.5949 -0.173058 -3.37211 118 156 156
-2.96959 -0.485892 -9.50668 99 154 145
-1.60684 -0.179214 -3.42963 155 195 193
-2.32555 -0.363055 -6.62618 127 178 171
-1.86108 -0.249966 -4.54655 195 238 229
-1.72627 -0.227841 -3.9426 120 169 167
-2.28958 -0.378945 -6.46134 101 150 142
-3.23454 -0.655736 -10.6577 185 226 221
-2.76941 -0.535906 -8.60878 108 165 157
-1.80913 -0.273078 -4.30824 179 234 225
-1.55436 -0.210667 -3.18435 127 187 181
-2.1936 -0.39539 -6.02151 141 185 186
-1.85254 -0.300099 -4.5045 225 255 253
-1.62052 -0.233248 -3.46718 227 253 253
-2.19548 -0.40529 -6.02212 207 236 240
-2.13387 -0.395735 -5.75424 229 255 252
-1.84431 -0.326338 -4.46408 154 176 188
-2.41299 -0.52512 -7.00629 120 184 172
-2.10076 -0.418377 -5.5992 231 255 254
-1.94565 -0.367759 -4.91426 233 252 255
-2.51548 -0.563023 -7.47254 103 154 146
-1.7956 -0.320543 -4.23882 137 184 182
-2.0994 -0.431993 -5.59047 96 136 131
-2.07201 -0.423059 -5.48173 223 247 253
-2.12215 -0.443034 -5.69161 108 149 144
-2.72714 -0.667475 -8.40506 93 149 138
-1.45721 -0.222623 -2.75668 166 231 206
-1.54003 -0.25301 -3.10011 120 156 162
-2.57698 -0.639735 -7.72408 93 155 141
-2.04656 -0.454192 -5.36892 118 162 161
-1.77019 -0.347059 -4.11882 202 243 236
-2.59291 -0.662955 -7.79088 192 237 228
-2.84415 -0.765224 -8.89655 71 140 125
-2.03806 -0.464006 -5.30878 122 172 168
-2.1899 -0.531157 -5.98783 116 166 162
-3.01948 -0.882139 -9.72149 218 255 247
-2.29046 -0.582612 -6.44619 87 134 125
-2.31546 -0.605357 -6.55717 99 156 147
-1.96724 -0.471708 -5.00348 181 204 212
-1.5791 -0.309633 -3.26579 128 182 175
-1.76775 -0.391651 -4.09843 221 250 247
-2.70227 -0.803861 -8.28436 93 150 141
-2.80413 -0.855298 -8.73301 126 156 161
-2.09406 -0.538533 -5.56404 93 154 150
-1.43607 -0.259881 -2.65493 130 147 156
-1.50742 -0.291026 -2.95917 113 179 168
-3.1521 -1.03574 -10.249 97 138 130
-1.93169 -0.480417 -4.82071 235 255 254
-2.46749 -0.731242 -7.20812 108 148 147
-1.53428 -0.309708 -3.06273 109 169 159
-1.43374 -0.268837 -2.64303 135 170 183
-1.95703 -0.509594 -4.93541 100 162 150
-1.59746 -0.341754 -3.32925 125 171 165
-2.04915 -0.5601 -5.35746 86 139 130
-1.74949 -0.418472 -4.00948 120 152 158
-1.6053 -0.352167 -3.37459 136 180 173
-1.68625 -0.393615 -3.72643 109 153 146
-1.65274 -0.377582 -3.57296 117 170 156
-1.66494 -0.384335 -3.62575 109 145 139
-1.91646 -0.513493 -4.75458 84 163 149
-1.62695 -0.372848 -3.46163 229 253 251
-2.22868 -0.686526 -6.15748 101 161 153
-1.40142 -0.279786 -2.48573 133 179 166
-2.49813 -0.843587 -7.34583 110 152 157
-1.94908 -0.561234 -4.88941 160 226 214
-2.52965 -0.880892 -7.50874 113 168 171
-2.08179 -0.649697 -5.48234 174 218 211
-2.47817 -0.872222 -7.26285 104 155 147
-2.23177 -0.738872 -6.16662 103 152 150
-2.12289 -0.676237 -5.67476 172 224 217
-1.84325 -0.529561 -4.41253 153 175 186
-2.06781 -0.659772 -5.43201 82 117 107
-2.05774 -0.651737 -5.374 126 163 155
0.966017 0.937593 7.78543 121 172 144
-2.10309 -0.678641 -5.58741 78 111 104
-1.82701 -0.526802 -4.34949 238 255 255
-2.0139 -0.63176 -5.16584 188 233 224
-2.42156 -0.863244 -7.01578 86 137 130
-2.11967 -0.697864 -5.64267 153 193 182
0.251966 0.555719 4.66604 45 90 73
-2.00579 -0.635003 -5.12059 122 163 156
-1.99027 -0.627603 -5.07767 95 134 126
-1.58885 -0.406182 -3.28776 246 254 253
-1.39316 -0.302585 -2.44359 115 167 150
0.719641 0.826083 6.71478 78 119 104
-2.56267 -0.955509 -7.61743 135 169 169
-2.00073 -0.64455 -5.11555 169 205 199
-1.4675 -0.345329 -2.75536 129 176 173
-2.13967 -0.737923 -5.72391 180 221 216
-2.19177 -0.77754 -5.97391 113 152 166
-1.68453 -0.47923 -3.70767 126 153 174
-2.53827 -0.997006 -7.55774 97 126 133
-2.07721 -0.718357 -5.45407 80 105 95
-2.06409 -0.706448 -5.37845 162 190 177
-2.19609 -0.798446 -5.98812 178 226 227
-2.28222 -0.862302 -6.39408 117 160 163
-2.04511 -0.720006 -5.29966 131 150 147
-1.68404 -0.512954 -3.71307 218 249 250
-2.30945 -0.914348 -6.51019 111 143 138
-1.69888 -0.524312 -3.77423 121 149 160
-1.53977 -0.426159 -3.06235 94 145 147
-1.51358 -0.410834 -2.94657 126 170 171
-2.14572 -0.815154 -5.77493 139 162 170
-1.77669 -0.578495 -4.11876 122 139 160
0.743179 0.958199 6.78925 81 133 109
-1.47435 -0.39165 -2.77383 138 182 183
-2.05657 -0.77385 -5.37893 134 171 163
-2.28362 -0.933577 -6.36008 167 229 205
-2.23687 -0.909848 -6.18623 174 227 218
-2.14452 -0.858373 -5.76988 105 129 135
-2.27629 -0.95739 -6.34646 170 229 201
-1.52597 -0.447432 -2.99617 93 154 144
-2.34498 -1.01272 -6.63624 93 150 119
-2.40192 -1.04697 -6.85342 155 222 185
-1.71554 -0.584987 -3.85012 152 190 194
-2.09239 -0.852223 -5.52785 109 143 143
-1.52431 -0.462868 -2.99075 127 177 175
-2.1502 -0.908061 -5.76715 149 197 169
-2.00114 -0.809515 -5.11088 181 230 216
-1.61252 -0.531484 -3.38644 143 173 184
-2.08511 -0.87723 -5.49546 86 107 105
-1.85226 -0.711033 -4.44506 113 151 145
-1.70129 -0.605664 -3.78052 175 190 206
-1.72607 -0.627706 -3.89061 120 170 166
-1.74231 -0.639839 -3.95337 119 160 153
-1.70281 -0.611216 -3.78427 132 158 172
-1.85292 -0.725528 -4.44731 174 228 211
-1.77433 -0.679676 -4.09657 122 158 158
-1.77091 -0.684857 -4.08166 186 233 225
-1.7306 -0.666281 -3.90475 98 133 123
-1.54098 -0.51846 -3.05768 110 167 159
-1.36314 -0.386292 -2.28769 133 162 171
-1.7667 -0.698722 -4.06591 122 154 149
-1.88374 -0.794482 -4.59839 102 164 150
-3.16914 -1.76377 -10.0564 190 240 210
-1.7349 -0.698536 -3.91745 86 131 128
-1.80652 -0.761427 -4.2492 128 149 157
-1.66561 -0.646246 -3.61684 126 158 164
-1.56304 -0.563009 -3.1575 248 255 255
-1.71501 -0.689121 -3.82965 156 201 184
-1.67784 -0.668685 -3.66 108 163 154
-1.70293 -0.691599 -3.77439 152 212 194
-1.55619 -0.570841 -3.12186 141 187 188
1.57725 1.98544 10.5094 122 179 158
-1.74074 -0.74293 -3.94736 99 144 141
-1.84103 -0.83677 -4.39558 78 115 107
-2.60272 -1.46878 -7.60003 41 83 65
-1.82927 -0.848239 -4.34349 162 236 218
-2.67563 -1.57242 -7.9457 136 218 176
-1.39687 -0.467965 -2.41328 113 154 147
-1.61735 -0.670963 -3.40324 232 254 252
-2.67799 -1.61188 -7.98934 142 221 172
-1.629 -0.689534 -3.44975 95 141 129
-1.74059 -0.800952 -3.97084 118 156 156
-1.65758 -0.722334 -3.58275 110 141 132
-1.64791 -0.728306 -3.53111 77 136 121
-1.73928 -0.821381 -3.95151 83 131 119
-1.4051 -0.506932 -2.44704 136 182 169
-1.40573 -0.515071 -2.4455 115 165 153
-2.41994 -1.48516 -6.75193 143 152 126
-1.6894 -0.817692 -3.71166 173 232 217
-2.44668 -1.55341 -6.91043 96 107 87
-1.66329 -0.79841 -3.60742 102 143 136
-1.4899 -0.626993 -2.83613 142 187 184
-2.13473 -1.2351 -5.45398 184 249 224
-2.31074 -1.45324 -6.29043 147 158 132
-1.47297 -0.651637 -2.76128 155 198 189
-1.62366 -0.815272 -3.40794 158 242 213
1.18766 2.34643 8.97426 56 89 82
2.60008 4.02464 15.2987 107 137 124
2.95605 4.50941 16.9417 117 160 149
-1.42611 -0.656946 -2.56246 144 178 178
2.96897 4.56693 17.0168 135 166 159
1.72611 3.05832 11.4112 153 207 190
2.83439 4.42585 16.4462 39 61 56
3.03944 4.91481 17.5122 61 106 89
-1.99422 -1.33983 -4.66645 152 202 178
4.42437 7.60504 23.2032 65 104 88
0 0 0 38 54 47
0 0 0 88 109 101
-1.94864 -1.63631 -4.64877 36 50 49
-1.90289 -1.60088 -4.44 185 226 219
-1.82951 -1.49167 -4.12822 137 192 175
-1.95461 -1.71894 -4.64217 107 142 138
-4.95651 -7.37781 -19.2122 123 169 133
-4.80268 -7.17501 -18.5288 176 223 191
-4.26963 -6.23755 -16.0007 45 59 31
-5.19881 -7.97741 -20.3918 64 127 95
-5.70088 -8.9571 -22.8479 91 132 100
-1.74695 -1.52236 -3.87905 89 122 118
-1.75096 -1.55029 -3.90207 161 190 181
-1.77047 -1.59894 -3.9901 174 214 189
-0.546658 -0.779175 1.30407 80 93 77
-0.511925 -0.854413 1.40996 91 144 124
-0.520672 -0.80527 1.41001 142 231 192
-0.514797 -0.80959 1.42872 79 104 76
-0.520321 -0.796254 1.42509 150 220 183
-0.514363 -0.795539 1.43937 138 246 204
-0.512423 -0.79674 1.4481 88 130 113
-0.28817 -1.26814 2.26176 91 153 129
0.240793 -2.35132 3.98093 108 138 133
-0.428557 -0.989759 1.82822 88 131 120
-0.248704 -1.34106 2.42099 93 160 145
-0.261229 -1.3075 2.37794 128 193 177
-0.461272 -0.911043 1.73351 105 140 154
0.276602 -2.39021 4.19303 118 162 149
0.344545 -2.51226 4.40346 142 194 157
-0.442322 -0.938841 1.79409 111 149 143
-0.0184638 -1.76982 3.24574 115 154 163
-0.225391 -1.33619 2.55924 101 153 135
-0.461215 -0.874019 1.76049 197 242 233
-0.218719 -1.33099 2.57978 136 197 163
-0.397023 -0.986548 1.9934 200 238 232
-0.397499 -0.976005 2.00639 117 149 148
0.54314 -2.83466 5.43662 112 173 159
-0.492291 -0.775161 1.65644 123 163 158
-0.431017 -0.899891 1.89503 134 188 183
0.109117 -1.94791 3.85465 119 169 169
0.674773 -3.05933 6.00432 210 244 250
-0.415413 -0.915098 1.95296 111 132 129
-0.366102 -1.00936 2.14294 119 153 146
0.720852 -3.10606 6.28773 201 250 242
-0.418402 -0.896139 1.96427 227 248 249
-0.429934 -0.864402 1.90996 118 146 140
-0.12764 -1.42729 3.05654 151 211 181
-0.11392 -1.43693 3.12076 120 161 154
-0.244484 -1.17728 2.64256 130 177 169
-0.135465 -1.37734 3.04908 92 127 113
-0.289531 -1.09581 2.48436 161 206 187
-0.0110034 -1.6071 3.54477 116 166 162
-0.432755 -0.818322 1.93341 200 242 231
-0.268104 -1.10812 2.57893 189 237 225
-0.172348 -1.27349 2.95442 102 159 150
-0.344214 -0.965486 2.29123 164 224 214
1.81603 -4.92895 11.0931 241 252 249
-0.322385 -0.992809 2.37402 65 111 82
1.72799 -4.75526 10.806 169 197 197
-0.440152 -0.773582 1.90365 127 144 140
1.533 -4.33518 10.0049 125 146 138
-0.291421 -1.02776 2.51809 98 143 124
-0.217886 -1.1491 2.81501 123 182 174
-0.373192 -0.872959 2.20775 127 169 158
-0.347981 -0.910522 2.3082 114 160 141
2.41859 -5.84147 13.9562 207 236 220
1.77298 -4.62635 11.146 188 251 219
-0.166096 -1.21749 3.04037 128 174 168
1.67434 -4.41764 10.761 135 169 158
1.62112 -4.30968 10.5798 127 173 161
-0.372101 -0.851581 2.22501 187 234 225
-0.450968 -0.712809 1.89174 117 171 158
2.0425 -4.99415 12.4969 100 147 121
3.21199 -6.98085 17.5236 111 122 102
-0.445475 -0.714962 1.9177 197 237 232
1.3932 -3.84837 9.70782 135 159 159
-0.103161 -1.26988 3.31876 136 206 176
2.96469 -6.46171 16.4673 195 222 213
2.31287 -5.37073 13.7189 113 138 124
3.32848 -7.06948 18.085 213 225 219
3.72003 -7.72518 19.9539 110 109 111
-0.443182 -0.695242 1.93241 189 235 229
-0.234631 -1.03027 2.80503 228 255 254
-0.303825 -0.91704 2.51959 201 254 241
2.0988 -4.8996 12.8857 136 164 151
-0.443787 -0.688382 1.93202 139 181 174
-0.134254 -1.18534 3.2256 155 188 184
3.69303 -7.53269 19.9293 116 133 129
4.75519 -9.23305 24.5945 142 216 168
-0.440893 -0.685673 1.94358 181 234 231
-0.23268 -1.01918 2.8293 112 145 138
-0.209061 -1.05231 2.91491 174 223 209
-0.184354 -1.09718 3.03239 137 192 189
-0.127613 -1.1802 3.26077 95 112 98
0.0859156 -1.52808 4.17135 129 184 169
4.39773 -8.64479 23.1267 127 152 148
-0.142098 -1.15408 3.20468 182 231 223
-0.206579 -1.05076 2.93858 74 109 89
0.367825 -1.9664 5.3551 137 153 146
-0.142137 -1.15455 3.21454 171 225 212
0.62411 -2.36291 6.49757 104 136 125
0.116487 -1.54317 4.30485 123 159 153
3.29399 -6.67427 18.2661 117 152 138
6.18815 -11.3276 30.9502 117 112 114
0.362677 -1.92402 5.36055 116 137 135
-0.3667 -0.779419 2.26195 77 103 87
0.814499 -2.64041 7.3783 159 204 195
0 0 0 205 222 219
-0.294491 -0.885651 2.58668 195 237 236
-0.15394 -1.09828 3.18235 98 163 147
0.670301 -2.38656 6.7482 241 255 255
5.44475 -9.94355 28.0173 250 255 253
3.40707 -6.68982 18.9734 147 187 176
1.15332 -3.11648 8.91797 111 135 125
-0.3769 -0.744125 2.23656 98 132 122
7.75155 -13.404 38.3688 81 110 95
-3.53745 4.29818 -12.3357 127 202 180
1.27038 -3.30461 9.50473 97 107 107
1.15724 -3.09346 8.90614 114 133 124
0.433316 -1.96687 5.74012 240 255 255
1.19554 -3.13554 9.15472 178 193 195
-0.459714 -0.604486 1.8524 141 178 174
0.495955 -2.02941 6.02501 127 159 154
-0.25567 -0.888148 2.75058 105 155 153
1.37272 -3.33188 10.0199 131 164 150
-0.201437 -0.958916 2.99794 119 181 167
-0.0888968 -1.11631 3.48826 177 234 219
-0.418702 -0.635875 2.03645 127 188 168
-0.193763 -0.96414 3.03958 116 147 138
-0.343873 -0.733995 2.36494 164 210 204
3.40474 -6.2517 19.3684 99 123 113
-0.411701 -0.629793 2.06051 121 175 162
-0.398786 -0.649985 2.12436 121 152 151
-0.203565 -0.921618 3.00758 179 237 213
1.08234 -2.75456 8.7531 144 175 166
-0.323038 -0.748699 2.47488 162 205 196
0 0 0 84 101 92
3.11854 -5.63045 18.0979 116 142 142
-0.330281 -0.7282 2.44392 90 125 121
0.727954 -2.19475 7.15324 206 237 240
-0.22232 -0.86906 2.9205 104 151 148
0.492424 -1.85496 6.09859 174 215 188
0.577287 -1.96976 6.46733 102 113 105
-0.425138 -0.585917 2.01659 212 238 255
0.617687 -2.002 6.65329 166 208 207
1.88022 -3.74158 12.4273 119 135 147
0.712874 -2.12283 7.09401 112 125 123
2.45492 -4.53042 15.0739 125 148 143
-0.378515 -0.638917 2.21817 108 130 118
-0.0477963 -1.08171 3.68331 199 246 230
0.693644 -2.08939 7.04271 178 204 221
0.0403915 -1.17698 4.02857 142 212 181
-0.414118 -0.585728 2.0599 184 228 221
0.496827 -1.80062 6.13559 152 217 196
-0.410029 -0.590633 2.07912 88 126 114
0.0379186 -1.15552 4.00822 159 239 202
-0.176202 -0.886501 3.1458 120 157 147
-0.421722 -0.566092 2.02904 211 245 245
-0.231134 -0.810233 2.8929 82 120 114
-0.417719 -0.564314 2.04454 84 111 101
-0.213192 -0.825199 2.9755 97 128 121
-0.423993 -0.551684 2.01608 108 147 132
