ply
format ascii 1.0
element vertex 1254
property float x
property float y
property float z
property uchar blue
property uchar green
property uchar red
end_header
-0.204898 -0.785689 3.23568 77 126 110
1.9574 -0.742696 3.05424 87 137 133
0.093608 -0.778613 3.20781 140 162 160
0.119908 -0.776953 3.20913 112 149 139
1.03333 -0.757838 3.13422 156 181 197
1.37805 -0.750499 3.09835 79 148 135
-0.511389 -0.789611 3.26672 101 138 136
-0.502291 -0.787929 3.26332 123 169 157
-0.178351 -0.781435 3.23391 98 146 128
1.56005 -0.745649 3.08772 147 182 178
0.183041 -0.772605 3.20079 120 171 164
1.92448 -0.736198 3.0544 128 154 170
-0.116372 -0.774146 3.22793 181 239 215
0.0616512 -0.773009 3.21312 124 135 139
0.861908 -0.755744 3.1531 125 176 169
-0.47695 -0.78249 3.25987 114 178 149
-0.179828 -0.773179 3.23652 119 178 158
1.0714 -0.7501 3.12848 124 150 162
-1.74908 -0.807548 3.38552 168 221 208
-0.0758199 -0.768799 3.22048 54 74 75
0.0366225 -0.765646 3.20976 198 230 219
-0.122023 -0.768171 3.22739 85 131 118
1.60778 -0.734204 3.08685 129 163 163
0.0328666 -0.763654 3.21426 99 117 118
-0.0850203 -0.760022 3.21805 178 246 215
-0.029453 -0.754003 3.21162 164 248 224
-1.69238 -0.793531 3.37952 151 193 182
0.0216508 -0.753643 3.21646 96 149 122
0.00366363 -0.746198 3.20375 100 138 110
-1.65489 -0.783914 3.37749 135 179 156
1.28147 -0.722408 3.11233 147 182 192
-0.0405137 -0.741883 3.22204 226 247 239
-0.033931 -0.74432 3.2222 83 107 99
0.90078 -0.727542 3.14871 101 155 150
-0.0737251 -0.739745 3.22244 83 128 112
-0.334619 -0.74532 3.24936 91 143 125
-0.0936604 -0.742818 3.22867 175 231 210
-0.0873313 -0.742204 3.22663 61 87 81
-0.0397068 -0.74135 3.22857 226 243 239
-0.0737113 -0.739398 3.22672 75 121 109
-0.0587955 -0.738597 3.22896 71 114 99
-0.0410976 -0.732141 3.21992 203 226 218
0.872454 -0.719482 3.15223 158 176 177
-0.588078 -0.741237 3.27165 111 172 162
-1.65984 -0.764208 3.3799 135 169 152
-1.64168 -0.763579 3.37983 123 175 158
-0.289708 -0.731507 3.24406 64 147 122
-0.112771 -0.729022 3.23069 59 93 83
0.0754164 -0.726616 3.21601 121 141 136
0.954083 -0.709809 3.14374 123 161 165
-0.163203 -0.729019 3.24082 94 149 134
-0.00145094 -0.722666 3.21708 88 116 110
0.20613 -0.722712 3.20661 239 255 255
1.23155 -0.703831 3.12448 83 135 128
-0.100586 -0.724685 3.23209 101 125 137
-0.0930732 -0.724629 3.2305 219 236 239
-0.0390887 -0.72453 3.22225 90 111 102
0.126887 -0.720139 3.21059 149 171 182
-1.65257 -0.754257 3.37951 138 168 143
-0.371807 -0.72627 3.25781 121 160 168
-0.324302 -0.724951 3.25014 116 175 161
0.0296923 -0.717468 3.2192 106 139 132
0.948476 -0.699648 3.13866 100 150 146
-1.68466 -0.752753 3.38444 153 177 159
0.906257 -0.700191 3.14446 125 162 166
0.115553 -0.713396 3.21631 61 92 91
1.73273 -0.678504 3.0661 169 188 201
-0.0180423 -0.713174 3.22072 78 98 79
1.48136 -0.684527 3.10065 104 150 138
-0.163178 -0.713984 3.23121 121 178 169
1.07923 -0.689928 3.13029 232 254 255
1.73776 -0.677536 3.07536 145 163 186
0.0832614 -0.705922 3.21475 95 148 139
1.5061 -0.680593 3.09912 173 236 204
1.00912 -0.686887 3.13785 112 158 152
1.02918 -0.686831 3.13491 225 252 248
1.53332 -0.679212 3.09728 109 156 147
-1.63665 -0.73697 3.38145 179 218 210
-0.283911 -0.708579 3.24686 110 167 159
-0.0314238 -0.703532 3.21867 182 233 213
-0.00739911 -0.702944 3.22669 94 138 131
-0.173087 -0.7039 3.24104 127 150 152
0.135592 -0.698757 3.2123 122 159 157
0.826663 -0.686616 3.15889 121 145 151
1.07193 -0.681376 3.13352 221 252 251
1.2093 -0.680578 3.1234 93 150 141
1.7126 -0.669887 3.07471 216 246 241
-1.67074 -0.733795 3.38115 146 186 175
-0.0614269 -0.699375 3.22545 98 145 112
0.222835 -0.693595 3.21382 250 252 252
1.5894 -0.66903 3.08909 92 132 127
0.172983 -0.693665 3.2102 107 168 158
0.962944 -0.679044 3.14623 134 171 175
1.84269 -0.660999 3.06745 106 158 158
-1.07965 -0.71448 3.32507 111 176 161
-0.187097 -0.696781 3.23816 103 144 146
-0.023302 -0.693066 3.22502 76 102 89
1.35968 -0.66805 3.10916 119 173 168
1.58283 -0.665676 3.09427 166 221 212
-0.532021 -0.699392 3.26733 106 140 140
-0.349293 -0.700032 3.2591 75 108 134
-1.39046 -0.716689 3.35535 124 150 157
1.17373 -0.668743 3.12537 142 154 172
-1.66195 -0.720015 3.38388 88 122 112
-0.801932 -0.701157 3.30041 116 167 153
-0.70431 -0.700445 3.28625 88 136 140
1.47956 -0.661879 3.10359 117 155 155
-0.801661 -0.701068 3.30134 116 167 153
0.854055 -0.667412 3.15296 187 240 226
-0.368983 -0.687602 3.25653 85 147 135
1.45169 -0.651795 3.10164 120 162 169
-1.3408 -0.702656 3.35123 106 158 151
1.56153 -0.648445 3.09221 125 175 163
-0.587358 -0.686112 3.28282 108 187 160
-1.34829 -0.698497 3.35246 201 223 228
1.30925 -0.649175 3.11452 210 252 245
-0.801995 -0.684761 3.29743 103 158 143
-0.543845 -0.679027 3.27569 83 154 138
-0.0453894 -0.672038 3.22466 73 111 105
-0.0917279 -0.669323 3.23112 89 109 114
0.0775948 -0.666509 3.21622 106 137 134
-1.34838 -0.691757 3.3529 107 134 131
-0.580759 -0.67605 3.27487 124 174 170
1.36955 -0.643513 3.11381 86 135 113
-1.41265 -0.689829 3.35476 134 178 171
-0.774336 -0.67776 3.295 124 178 171
-1.61699 -0.691291 3.37865 164 220 201
-1.42222 -0.688532 3.36089 87 121 111
0.201033 -0.658515 3.20636 255 255 255
1.1776 -0.640234 3.12565 89 131 120
0.196475 -0.652308 3.2107 111 152 147
-1.49638 -0.682944 3.36453 161 200 198
-1.36888 -0.681285 3.3552 170 204 198
1.32528 -0.632706 3.11587 177 232 215
-1.47909 -0.67991 3.36394 128 168 157
-1.41809 -0.680945 3.36177 172 213 205
0.205508 -0.648316 3.20632 96 115 122
-1.34421 -0.676423 3.35147 93 115 110
-1.30154 -0.675135 3.34908 100 137 133
-0.124259 -0.653803 3.23794 84 122 146
1.09763 -0.633473 3.1377 180 235 218
-1.54672 -0.678084 3.36934 81 91 79
1.05805 -0.631169 3.13847 88 147 133
1.59728 -0.620956 3.09347 106 157 149
1.04748 -0.628264 3.14151 123 160 168
-0.154665 -0.646159 3.24909 104 150 144
0.183299 -0.636261 3.20046 95 126 119
1.07241 -0.623553 3.1363 142 185 188
1.51053 -0.617019 3.09925 170 231 205
1.54784 -0.615645 3.09513 82 129 120
-0.68159 -0.652845 3.28642 136 184 185
-0.668145 -0.651455 3.28515 97 148 140
0.0583034 -0.639072 3.22281 105 158 155
1.53387 -0.614581 3.09713 102 153 145
1.13452 -0.619882 3.13642 107 145 147
-1.49522 -0.664297 3.3679 138 158 145
1.15762 -0.616599 3.13131 108 164 151
0.117292 -0.63319 3.21472 116 170 170
0.145978 -0.628566 3.20668 103 137 130
1.33197 -0.612124 3.11719 100 149 147
-1.50442 -0.65644 3.37316 67 89 84
0.936825 -0.612884 3.14728 135 192 177
1.64275 -0.601519 3.0893 101 156 137
-1.49344 -0.650881 3.36421 139 185 179
-1.47838 -0.65187 3.36576 170 219 217
-0.573422 -0.635552 3.27682 251 255 255
-1.61635 -0.653449 3.37908 88 108 96
-0.649545 -0.636623 3.28608 112 163 173
1.25691 -0.602449 3.12237 110 164 164
1.53338 -0.598157 3.1006 184 237 224
1.71521 -0.595358 3.0813 108 142 131
-1.54789 -0.650538 3.37449 88 119 118
0.186857 -0.613093 3.18939 80 111 104
1.3841 -0.600017 3.11397 113 169 164
-1.53808 -0.646486 3.37046 184 214 225
-1.5083 -0.64542 3.36844 181 227 228
-1.35567 -0.642986 3.35889 119 173 166
-1.61619 -0.645482 3.37666 137 176 160
-1.37622 -0.642784 3.35798 172 225 216
0.142525 -0.614698 3.21151 101 138 134
-1.56589 -0.644131 3.37559 188 227 225
0.889208 -0.600232 3.14979 225 255 242
1.04419 -0.597942 3.13615 139 195 184
1.36213 -0.593186 3.11514 204 247 234
1.52771 -0.591327 3.10495 97 135 139
1.7836 -0.587152 3.08165 112 164 154
1.726 -0.583939 3.08431 93 148 131
-1.49162 -0.634908 3.36739 161 202 195
-0.550694 -0.617261 3.27582 73 128 141
1.31291 -0.588255 3.11736 198 238 233
1.55725 -0.581995 3.09937 104 153 139
1.80541 -0.575773 3.07785 108 151 148
1.82415 -0.576121 3.07664 181 234 225
1.63332 -0.577391 3.09263 182 235 221
1.68594 -0.576458 3.09464 98 143 140
1.61432 -0.577135 3.09573 115 130 139
1.62358 -0.573868 3.09073 125 159 159
1.67578 -0.57356 3.08741 172 243 227
-1.4944 -0.622572 3.36538 173 227 222
0.0172126 -0.597423 3.22671 111 167 154
1.5829 -0.573295 3.09861 67 95 95
1.6363 -0.573147 3.09241 128 162 162
1.66311 -0.574948 3.09222 95 159 153
-1.05534 -0.613021 3.32493 106 158 148
1.63126 -0.571973 3.10444 124 164 169
1.96311 -0.565152 3.06365 117 153 147
-0.508219 -0.600411 3.27355 88 144 125
0.02605 -0.589181 3.21963 90 112 107
1.61555 -0.570588 3.1041 122 157 171
1.75403 -0.56401 3.08435 117 166 158
-1.58119 -0.611117 3.37606 182 234 227
1.59343 -0.556703 3.09295 107 163 152
1.70343 -0.55668 3.08347 104 152 146
-0.0327833 -0.580302 3.23084 101 164 154
-1.5751 -0.604324 3.3791 104 143 141
-1.49101 -0.602919 3.3701 237 255 255
0.0843607 -0.578397 3.22096 141 177 155
1.31908 -0.552969 3.11648 93 162 151
1.65986 -0.550167 3.09127 120 171 167
0.865926 -0.559161 3.1467 249 255 253
-0.767518 -0.582091 3.29898 101 160 152
-0.674594 -0.580023 3.28644 115 176 162
1.95365 -0.539619 3.06743 118 159 162
-0.573617 -0.573334 3.2767 120 168 192
0.0703698 -0.563033 3.2149 143 154 146
1.27888 -0.543232 3.11691 221 249 249
1.31489 -0.543859 3.11015 84 156 143
0.144865 -0.559112 3.22176 112 158 145
0.188802 -0.557601 3.21086 87 124 114
1.07811 -0.542349 3.1293 122 162 160
1.03112 -0.53822 3.13493 115 169 164
-0.681181 -0.560034 3.2932 112 174 158
-1.5118 -0.574558 3.37185 224 255 255
-0.599771 -0.556043 3.28259 97 161 165
-0.518343 -0.55629 3.2762 82 127 140
0.0719051 -0.545641 3.22579 83 100 91
0.951854 -0.531263 3.13591 107 139 138
0.16554 -0.540773 3.21148 190 216 216
-0.558811 -0.549462 3.27843 93 139 170
1.84779 -0.51608 3.07567 127 157 152
-0.626763 -0.545448 3.28575 81 113 162
1.02743 -0.518073 3.13176 90 149 141
0.0492489 -0.529165 3.22142 84 101 97
0.10895 -0.528654 3.22258 118 160 165
-0.543809 -0.533166 3.27957 119 193 167
0.146389 -0.524119 3.21258 185 203 214
1.3977 -0.506233 3.10568 138 173 177
0.843697 -0.511208 3.14787 128 159 174
0.0397887 -0.518883 3.22604 102 119 110
-0.316157 -0.522094 3.25908 89 168 135
1.38215 -0.493317 3.10839 110 166 161
0.817252 -0.50011 3.14985 94 138 132
1.59805 -0.489603 3.09263 188 237 235
-0.14181 -0.511828 3.24225 244 255 253
-0.0238128 -0.508269 3.2287 164 201 199
0.803083 -0.497694 3.15628 107 141 147
-0.793319 -0.515667 3.30362 121 171 171
0.157133 -0.503614 3.22332 173 215 222
0.24953 -0.501734 3.21198 186 226 221
1.61147 -0.48261 3.08878 88 137 135
-1.07251 -0.516778 3.3253 139 155 178
0.985364 -0.487509 3.13886 108 139 148
0.0150147 -0.498447 3.23156 186 231 228
0.900133 -0.486374 3.14315 82 127 118
0.99977 -0.485978 3.14122 135 179 173
1.25293 -0.479042 3.11795 113 166 163
0.000237298 -0.493195 3.23012 168 188 183
1.51255 -0.471956 3.09513 88 149 139
1.58534 -0.469292 3.09155 105 170 161
0.00939043 -0.487012 3.23427 184 221 211
0.980891 -0.473376 3.14238 121 162 164
0.952235 -0.473908 3.14368 111 159 153
-0.0124176 -0.483048 3.23091 157 189 178
1.70179 -0.461769 3.08191 102 159 156
0.123704 -0.481588 3.22345 71 109 103
0.130435 -0.479745 3.22185 253 255 255
1.66519 -0.456678 3.08133 103 154 146
1.2553 -0.45881 3.11771 115 161 162
1.00884 -0.459665 3.13701 204 242 236
0.185765 -0.468418 3.21099 187 227 225
1.6471 -0.449968 3.08965 90 144 137
-0.067662 -0.471442 3.23782 143 178 192
0.00537322 -0.467179 3.22658 130 159 150
0.886921 -0.453341 3.14284 104 152 186
1.13889 -0.451855 3.12931 106 160 155
1.69314 -0.44489 3.07994 166 220 213
1.32584 -0.448098 3.11083 123 163 158
0.230781 -0.460547 3.21348 229 241 229
1.13884 -0.442765 3.13014 197 241 235
0.177528 -0.452665 3.21334 89 125 119
0.834176 -0.442571 3.14945 72 109 107
1.35696 -0.43128 3.10209 181 234 224
0.950912 -0.436049 3.13988 127 146 154
1.94643 -0.424542 3.05846 181 234 221
-0.000704783 -0.448313 3.23247 138 185 176
0.237882 -0.443039 3.20863 183 220 228
1.41508 -0.426651 3.10246 209 240 239
0.995424 -0.431455 3.14137 109 133 153
1.0456 -0.428678 3.13519 128 172 166
-0.299855 -0.444504 3.2587 107 176 165
-0.0963688 -0.440299 3.24486 140 193 183
-0.0104997 -0.439288 3.22735 165 197 210
0.00472544 -0.4412 3.22562 120 148 142
0.103469 -0.441005 3.2188 113 134 142
1.44286 -0.423558 3.10522 165 225 214
0.179868 -0.436873 3.21621 191 230 232
0.961923 -0.424543 3.14389 127 169 158
0.0816828 -0.433693 3.22548 99 113 107
0.101699 -0.434858 3.22467 185 231 225
-0.0504978 -0.433197 3.23156 101 141 130
0.198246 -0.430925 3.2202 228 248 253
1.12557 -0.419557 3.13071 98 147 139
0.280108 -0.424879 3.20691 96 112 95
0.0536296 -0.428375 3.23349 129 173 167
0.202368 -0.426511 3.21923 114 131 140
0.864178 -0.416777 3.14974 79 126 154
1.4215 -0.412048 3.10507 193 233 231
1.59603 -0.409302 3.0888 174 230 219
0.0786758 -0.425083 3.22911 185 225 223
0.0848002 -0.421496 3.228 93 113 118
-0.449175 -0.4259 3.27269 126 187 177
-0.0554187 -0.41934 3.23913 153 192 184
0.178432 -0.415252 3.21822 227 255 255
-0.123743 -0.417044 3.25473 144 175 160
1.19002 -0.400043 3.12641 106 136 137
1.85554 -0.394098 3.06907 97 134 138
0.0845801 -0.413643 3.23071 216 244 244
0.845686 -0.401136 3.15183 240 247 244
-0.433805 -0.41648 3.27409 107 155 149
-0.193276 -0.412961 3.25078 237 255 255
1.67137 -0.392841 3.08359 107 164 156
-0.40483 -0.414689 3.26497 118 171 162
0.168097 -0.407741 3.22324 254 254 254
1.37568 -0.39302 3.10945 203 237 236
-0.0879467 -0.407984 3.24171 168 183 175
1.05678 -0.386504 3.14208 79 118 116
-0.13092 -0.398073 3.25254 167 216 208
-0.0799464 -0.393946 3.23405 87 105 98
1.09353 -0.384574 3.13673 119 165 153
1.30005 -0.383277 3.11632 120 146 146
1.51245 -0.377956 3.09806 132 172 170
-0.169124 -0.395429 3.24574 240 252 255
-0.123138 -0.395904 3.24853 64 94 83
-0.0503451 -0.395275 3.23698 160 196 182
0.26444 -0.390694 3.21224 166 203 199
1.27774 -0.378578 3.12062 156 191 195
1.47103 -0.377633 3.1053 101 143 150
1.7229 -0.372017 3.07568 115 118 146
0.197754 -0.386978 3.21749 111 135 123
-1.11791 -0.39946 3.33829 87 129 111
0.246452 -0.384126 3.20845 91 125 118
-0.112901 -0.385045 3.24922 246 255 255
0.0876679 -0.385879 3.23491 170 218 219
-0.174539 -0.38652 3.25285 90 142 135
0.840272 -0.373872 3.15198 83 127 134
1.09326 -0.372568 3.13168 86 135 121
1.21476 -0.370366 3.13256 121 157 165
1.35074 -0.367769 3.11416 208 232 244
-1.05456 -0.390612 3.31827 95 187 140
0.315554 -0.379593 3.21611 151 211 205
-0.50829 -0.384264 3.27548 99 168 155
0.128944 -0.379634 3.23404 118 127 141
0.256839 -0.375208 3.21601 213 250 246
0.908931 -0.367039 3.14983 136 193 178
0.193336 -0.372474 3.20494 164 195 194
-0.0461407 -0.374445 3.23681 225 246 248
-0.147284 -0.37109 3.2446 90 138 112
-0.093075 -0.371861 3.24093 183 226 215
0.817934 -0.35852 3.15655 167 229 215
0.915663 -0.358416 3.14852 87 145 140
1.3518 -0.355162 3.11769 110 148 153
1.49708 -0.351821 3.09939 117 159 152
0.809797 -0.356091 3.15707 107 160 150
-0.472887 -0.368775 3.26984 88 137 129
-0.105568 -0.366439 3.2366 155 210 183
-0.0628953 -0.363703 3.23757 160 203 192
0.826058 -0.35513 3.15611 87 119 125
0.0754226 -0.362136 3.22916 192 226 219
0.150972 -0.358074 3.21428 152 188 194
0.881649 -0.350967 3.14807 113 171 160
1.11803 -0.346869 3.13437 105 154 152
0.148409 -0.354925 3.22244 169 204 200
0.88756 -0.345863 3.1578 84 138 121
0.913512 -0.347868 3.15314 110 156 150
0.924387 -0.3473 3.14538 77 113 107
1.49141 -0.340944 3.1007 116 164 158
1.16458 -0.342705 3.13002 191 235 229
1.86448 -0.335407 3.06825 99 143 137
1.86751 -0.334908 3.07048 102 145 136
-0.185046 -0.352463 3.24999 191 238 230
0.345812 -0.349832 3.20209 93 136 125
0.85217 -0.342743 3.14813 91 133 122
1.0811 -0.339642 3.13981 101 149 143
-1.04518 -0.360924 3.3267 84 129 103
1.37412 -0.33635 3.11186 202 235 231
1.49375 -0.332645 3.10081 199 240 232
0.735611 -0.337803 3.16125 103 142 151
1.13812 -0.332337 3.13428 121 171 161
1.54932 -0.329025 3.09369 115 153 153
0.777647 -0.333272 3.15624 86 112 112
0.950027 -0.332999 3.14429 96 155 140
1.04656 -0.331956 3.13279 92 141 121
1.87738 -0.325167 3.06806 97 138 133
0.245869 -0.337554 3.21331 136 162 168
-1.06666 -0.347181 3.33295 101 145 132
1.07917 -0.329348 3.14045 94 144 134
0.285928 -0.333218 3.20768 98 109 107
1.05117 -0.325296 3.14101 97 157 139
0.797029 -0.326485 3.15637 106 145 147
1.28721 -0.322425 3.11752 83 140 132
-0.0783847 -0.332291 3.24599 162 197 187
1.44105 -0.318247 3.10325 91 126 129
1.52745 -0.317904 3.09835 128 173 176
0.281208 -0.328093 3.21041 208 221 207
0.785363 -0.322521 3.15829 233 244 252
-0.108361 -0.32621 3.24775 152 197 194
0.336194 -0.323796 3.2031 93 121 122
0.389074 -0.319558 3.19611 84 119 123
1.49831 -0.310195 3.10049 92 133 126
0.329469 -0.319446 3.2076 196 233 229
-0.281116 -0.320826 3.26316 90 153 151
-0.137256 -0.319672 3.25534 98 129 120
0.00289833 -0.315481 3.23462 179 224 221
1.56306 -0.299301 3.10004 93 137 138
0.388808 -0.305483 3.19837 99 130 121
-0.0917608 -0.306771 3.24489 176 225 211
0.407341 -0.303385 3.19877 76 115 100
1.45986 -0.293181 3.10317 99 156 157
-0.0213558 -0.305023 3.23934 152 168 161
1.23791 -0.29219 3.12358 96 153 145
1.40606 -0.289718 3.10532 119 145 161
-0.203286 -0.300265 3.26049 154 211 202
0.0661155 -0.295152 3.22332 171 215 208
0.236575 -0.294604 3.21666 176 224 218
0.966836 -0.288224 3.14469 112 149 145
1.17474 -0.287726 3.13414 230 254 254
-0.506794 -0.298891 3.27994 75 124 134
-0.190083 -0.29558 3.25721 130 175 166
-0.0117936 -0.297281 3.24277 178 202 194
0.0611562 -0.294581 3.22833 170 217 214
0.218707 -0.294949 3.21798 193 223 218
0.993976 -0.289286 3.14198 98 159 133
0.254227 -0.292534 3.20463 152 203 196
0.410769 -0.288079 3.19289 72 86 74
1.11713 -0.282708 3.12995 120 149 140
1.61371 -0.278993 3.09507 179 232 229
-1.75794 -0.303856 3.4099 164 194 183
0.94837 -0.281422 3.15371 168 232 213
0.140972 -0.285878 3.22714 150 168 167
-1.76972 -0.30116 3.41073 106 133 130
-1.73191 -0.301054 3.40575 170 187 178
-0.122136 -0.285302 3.24712 84 125 120
0.760382 -0.277523 3.16041 119 151 187
1.65324 -0.269923 3.08697 96 159 149
-0.0701328 -0.278937 3.2473 131 155 143
0.319717 -0.274095 3.17851 179 220 212
0.954821 -0.271693 3.14761 81 130 116
1.52744 -0.2676 3.09894 206 244 244
1.64867 -0.266068 3.08858 163 233 220
0.216248 -0.275829 3.22414 96 112 118
0.753484 -0.269912 3.16489 108 147 199
1.05471 -0.26696 3.14512 86 121 107
1.06518 -0.265122 3.13977 110 156 143
-0.114094 -0.272086 3.24863 94 128 128
0.997497 -0.264951 3.14841 100 152 142
1.55625 -0.260461 3.09458 144 169 185
1.59953 -0.261235 3.09434 132 167 177
1.61483 -0.25962 3.09141 138 166 177
-0.104409 -0.271011 3.24639 165 216 208
-0.09743 -0.272298 3.24774 111 125 121
0.111418 -0.269802 3.22705 89 108 113
0.118926 -0.271507 3.227 188 224 232
0.218668 -0.26879 3.21699 207 226 229
1.11168 -0.261746 3.1387 97 145 133
1.44681 -0.25918 3.10316 94 155 145
-0.00272571 -0.268313 3.24719 165 195 196
0.393125 -0.263854 3.19925 172 204 203
1.02464 -0.261663 3.14477 143 189 170
1.28021 -0.258911 3.11663 116 175 167
0.276238 -0.261421 3.18259 91 118 109
0.711744 -0.259176 3.16145 127 147 165
-0.074486 -0.265394 3.24858 146 152 151
0.275671 -0.25991 3.18916 94 111 102
0.701354 -0.256473 3.16772 70 106 122
-1.80785 -0.277416 3.41156 179 231 213
-1.7435 -0.275377 3.40778 157 177 172
-1.75385 -0.271962 3.40566 168 186 179
-1.28832 -0.267119 3.35217 119 183 171
-0.00197278 -0.258515 3.24105 95 109 105
0.858537 -0.252251 3.15679 90 113 109
1.20073 -0.251565 3.12808 96 133 131
-1.79943 -0.271001 3.40711 111 112 108
-1.26978 -0.26641 3.35134 91 155 136
-0.00856083 -0.257814 3.2401 86 109 105
0.0507261 -0.257883 3.23275 193 217 217
0.778702 -0.250265 3.16236 109 141 160
1.54752 -0.245764 3.10251 119 161 166
0.0434687 -0.254763 3.23426 194 228 234
0.286066 -0.249754 3.18739 177 219 212
0.433401 -0.248941 3.18622 91 102 99
1.46796 -0.241452 3.10068 82 114 113
0.736975 -0.24639 3.16316 246 255 255
1.32122 -0.241434 3.11353 81 125 126
1.44803 -0.24073 3.10435 95 152 151
0.435669 -0.245671 3.20008 84 120 120
0.167247 -0.244503 3.21715 183 219 227
0.429328 -0.243565 3.18755 186 227 222
1.34484 -0.237434 3.1106 187 232 229
-0.879097 -0.250332 3.31779 112 174 156
0.244577 -0.240481 3.20664 82 115 108
0.585386 -0.238211 3.17746 165 227 211
0.05206 -0.241094 3.23878 96 110 104
0.452331 -0.236576 3.1973 149 195 182
-1.78434 -0.25062 3.41704 167 207 195
-0.875757 -0.243928 3.31775 58 113 94
0.42691 -0.234245 3.19735 80 120 109
0.499059 -0.234177 3.18668 99 133 123
0.747317 -0.23078 3.16295 66 93 89
-1.73917 -0.248001 3.4042 90 114 114
0.426289 -0.23362 3.2 82 122 117
0.441919 -0.233473 3.19184 84 125 118
0.473081 -0.234114 3.19109 101 158 137
0.869199 -0.231102 3.15484 108 169 173
1.36781 -0.227631 3.11578 162 217 208
0.4665 -0.23059 3.19137 64 102 90
1.22734 -0.225716 3.12677 106 161 158
1.35777 -0.224636 3.11808 102 159 151
-1.77111 -0.244382 3.41003 153 177 165
0.386755 -0.22939 3.19428 162 215 202
1.44229 -0.222325 3.10425 85 110 112
0.4423 -0.22685 3.19506 167 229 205
0.460218 -0.226776 3.1944 156 221 205
0.843402 -0.220605 3.15647 171 228 225
1.07808 -0.222928 3.14516 106 162 151
-1.0201 -0.232329 3.33397 122 184 172
0.439796 -0.2212 3.19433 90 133 118
1.29814 -0.216859 3.11625 198 233 236
-0.886817 -0.222493 3.31798 88 139 125
0.703752 -0.21417 3.16988 86 152 141
0.689295 -0.211172 3.16409 105 162 147
0.691577 -0.209868 3.16927 111 177 166
-1.79837 -0.223124 3.41279 101 146 113
0.302792 -0.209996 3.20319 156 191 205
0.3299 -0.206629 3.20909 177 235 211
0.621075 -0.206745 3.17806 131 170 184
-0.0597355 -0.20702 3.24646 106 130 128
-0.052514 -0.206054 3.24489 173 207 213
0.380662 -0.203147 3.19592 101 169 158
1.32306 -0.19787 3.11747 92 137 141
0.363792 -0.201273 3.19806 72 115 112
-0.903515 -0.207143 3.3232 72 153 134
0.318467 -0.199305 3.20516 192 225 218
0.812282 -0.198186 3.16525 96 137 140
-0.264783 -0.200252 3.26023 100 158 147
0.340974 -0.195566 3.19564 114 122 115
-1.76026 -0.208003 3.40546 146 225 181
-1.42623 -0.204381 3.37232 102 140 142
-0.976465 -0.205246 3.32953 101 152 138
-0.958139 -0.202681 3.32142 102 161 147
0.365818 -0.193891 3.19972 167 202 198
-0.264735 -0.198653 3.26673 114 172 167
0.341055 -0.193833 3.20256 113 115 109
1.38934 -0.185796 3.11652 217 243 249
0.326571 -0.187587 3.20283 205 232 222
1.01861 -0.183015 3.15102 190 235 232
-0.576576 -0.190301 3.28974 74 117 106
0.459514 -0.184223 3.19162 59 118 114
1.09828 -0.179992 3.13942 108 141 144
-1.38697 -0.188351 3.36208 93 124 109
0.168058 -0.181364 3.2019 105 117 119
0.67507 -0.17751 3.16844 94 152 141
0.723085 -0.179274 3.17639 72 107 103
1.09987 -0.178979 3.14329 121 154 157
-1.37241 -0.186351 3.35947 104 132 132
-0.662828 -0.182298 3.28662 96 132 110
-0.1055 -0.181393 3.25077 96 167 147
0.828312 -0.176894 3.1621 253 255 255
-0.204162 -0.180795 3.26018 99 168 148
0.118951 -0.177046 3.22393 100 137 129
0.731823 -0.172373 3.17076 205 240 243
-1.72841 -0.181643 3.4077 101 112 102
-0.734377 -0.17703 3.3072 96 140 139
-0.607953 -0.176073 3.28008 94 160 135
0.853134 -0.16947 3.15676 86 138 121
1.08229 -0.170967 3.14368 76 110 110
1.42496 -0.165341 3.11595 121 146 156
0.307839 -0.170161 3.20897 93 123 110
0.723809 -0.164656 3.17364 209 255 255
-1.71354 -0.175083 3.40991 93 113 108
-0.350362 -0.168969 3.26912 88 163 149
0.740473 -0.164784 3.16851 247 255 253
0.106114 -0.166755 3.22701 196 250 227
-0.885362 -0.165412 3.32635 96 168 148
0.0552277 -0.161822 3.23179 164 226 202
1.46268 -0.155469 3.11169 94 137 152
-1.03831 -0.162568 3.33231 115 153 157
-0.0803581 -0.159351 3.24449 195 252 221
-1.74544 -0.160051 3.4157 174 211 207
-1.4384 -0.159051 3.37212 140 156 168
-0.0904129 -0.153343 3.25 54 117 91
-1.77895 -0.158084 3.41302 135 156 148
-1.68419 -0.157505 3.40415 207 248 240
-0.505196 -0.15027 3.27953 80 174 143
-0.473375 -0.149077 3.28616 195 237 226
0.975166 -0.14459 3.15771 86 144 139
1.59389 -0.142598 3.09512 93 116 131
1.66713 -0.141857 3.08888 249 255 251
-0.880863 -0.148906 3.31541 86 154 129
0.304424 -0.142522 3.20546 188 229 222
0.347854 -0.141193 3.20401 101 134 127
1.692 -0.136721 3.08929 216 244 244
-0.176162 -0.142493 3.25239 91 169 138
-0.149938 -0.141152 3.24783 146 245 199
0.466305 -0.137947 3.1921 102 165 145
0.84338 -0.138046 3.16196 106 145 159
-0.466094 -0.140107 3.28029 90 137 135
0.983891 -0.133799 3.15702 222 241 244
-1.44219 -0.141506 3.36924 153 184 187
0.0884599 -0.135794 3.22256 165 207 182
0.265064 -0.133572 3.20615 93 116 112
0.342696 -0.134485 3.19979 187 231 230
0.986453 -0.131302 3.14642 251 255 255
0.255433 -0.131898 3.20741 204 229 231
0.325337 -0.130267 3.2053 192 221 230
-0.829468 -0.135203 3.31207 175 217 200
-0.807637 -0.133944 3.29507 159 205 186
0.310425 -0.130037 3.20287 214 238 244
0.37982 -0.128862 3.19116 101 138 142
0.299796 -0.127115 3.21021 138 155 164
0.677237 -0.12794 3.17499 253 255 255
-0.164355 -0.127902 3.23642 90 152 116
0.393479 -0.125173 3.19577 120 166 174
0.73965 -0.123241 3.1704 97 158 148
0.105369 -0.125943 3.22635 123 147 123
0.220157 -0.12352 3.21232 95 117 99
0.376145 -0.122883 3.19367 239 255 255
0.332715 -0.122957 3.2062 88 108 119
0.627034 -0.122077 3.17773 133 176 185
-0.810928 -0.122166 3.29955 49 86 70
-0.290172 -0.123225 3.25532 119 184 163
-0.151264 -0.122897 3.25146 81 126 109
-0.00939058 -0.121411 3.23619 183 244 210
1.27778 -0.116216 3.12625 217 248 247
1.51224 -0.114302 3.10598 120 146 162
0.66779 -0.11595 3.17596 111 167 162
0.996792 -0.114819 3.15221 94 139 136
1.59636 -0.114392 3.09901 108 153 157
0.125094 -0.115673 3.22844 137 155 142
0.806872 -0.113713 3.1671 224 253 255
1.31243 -0.111287 3.12306 114 153 162
-0.997924 -0.115523 3.32986 88 140 130
-0.17324 -0.112098 3.2439 90 130 118
0.942115 -0.110199 3.15676 114 154 153
0.72811 -0.109946 3.16885 218 250 255
0.822908 -0.110161 3.1693 200 251 237
-0.978889 -0.112355 3.32629 54 112 88
0.344626 -0.107719 3.19774 88 123 119
0.892758 -0.107701 3.1603 190 238 226
-0.829554 -0.109279 3.30714 185 238 228
-0.0129984 -0.106918 3.23163 73 109 93
0.789144 -0.104555 3.16596 83 120 118
-0.301626 -0.105097 3.26765 105 172 151
0.0102675 -0.103536 3.21509 163 250 214
0.20551 -0.103878 3.22023 83 106 92
0.744136 -0.102621 3.17157 79 122 125
0.723685 -0.101452 3.17157 90 132 131
1.10836 -0.100319 3.14217 225 255 255
0.353053 -0.0982057 3.18689 135 203 186
0.21852 -0.0954378 3.22085 70 89 86
0.483012 -0.0950541 3.16225 62 140 117
0.649743 -0.0938509 3.15811 48 89 81
0.731013 -0.0942004 3.1653 172 231 203
-0.243532 -0.0925887 3.25154 158 242 207
1.26996 -0.090596 3.12983 97 137 135
0.327122 -0.091031 3.20013 88 148 124
0.214595 -0.0848471 3.22102 197 243 231
-0.832982 -0.086751 3.31316 150 196 190
0.350171 -0.0827223 3.18874 83 128 112
1.67527 -0.0814049 3.09816 127 172 169
0.943432 -0.0801292 3.15444 102 126 146
-0.175571 -0.0801967 3.25339 185 238 224
0.347347 -0.0770353 3.18096 43 79 67
0.477077 -0.0769409 3.14636 99 165 140
0.993333 -0.0786891 3.14966 112 129 142
-0.536077 -0.0788734 3.27949 77 125 119
0.192938 -0.0728034 3.21057 170 244 216
0.350584 -0.070793 3.17448 161 207 178
-0.0209797 -0.0704 3.21949 107 159 141
-0.00345941 -0.0702482 3.21838 194 241 232
0.437219 -0.0698173 3.15419 69 115 103
0.790287 -0.0699904 3.16334 139 209 178
1.19679 -0.0669912 3.13552 181 201 212
0.445038 -0.065041 3.15226 169 225 202
-0.144933 -0.0647931 3.22723 176 243 216
1.0164 -0.0644544 3.14711 141 178 176
0.387592 -0.0608138 3.15202 87 157 127
-0.0651588 -0.0586904 3.19876 50 92 74
0.796863 -0.0585475 3.15871 169 230 202
0.756116 -0.0568413 3.16301 93 163 140
1.15841 -0.057291 3.13765 89 140 142
0.174753 -0.0555505 3.22209 91 144 141
0.432382 -0.0541009 3.15535 162 220 202
1.25549 -0.0541305 3.12995 226 252 252
1.03225 -0.0498341 3.15451 106 160 155
1.1448 -0.0497135 3.14063 230 255 255
0.201443 -0.048933 3.21714 180 223 220
0.329829 -0.046827 3.18033 112 171 156
0.419981 -0.0462703 3.15014 178 231 234
1.41715 -0.0450017 3.11866 90 131 140
1.09604 -0.044142 3.14847 83 130 122
1.29296 -0.0442357 3.1237 99 125 142
0.371764 -0.0404349 3.15702 47 78 69
1.12522 -0.0395914 3.15657 116 165 157
1.40468 -0.0395257 3.12089 121 160 168
-0.0856992 -0.0383406 3.19449 71 138 111
0.393515 -0.0383986 3.15677 193 239 227
0.908647 -0.0377689 3.15563 96 143 135
1.25131 -0.0371732 3.1298 233 254 251
0.380688 -0.0356467 3.16186 63 96 82
0.863816 -0.0375399 3.15969 62 110 104
-0.1348 -0.0332488 3.21006 171 233 193
-0.112136 -0.0338544 3.20246 150 215 193
0.400311 -0.0318028 3.1489 164 205 200
1.36603 -0.0317981 3.12088 87 148 134
1.47747 -0.0309931 3.10795 112 126 148
0.384486 -0.0318453 3.15422 160 222 208
0.403057 -0.0285111 3.15955 72 112 110
1.02481 -0.0299729 3.15547 125 168 157
1.25528 -0.0299937 3.12678 84 130 124
1.27899 -0.0300921 3.12554 113 153 151
0.0953545 -0.026393 3.22885 46 80 56
0.417171 -0.0260547 3.14219 91 139 127
1.133 -0.0253633 3.131 89 130 123
0.419038 -0.0252781 3.14465 109 160 146
1.53768 -0.0218215 3.10794 79 106 116
0.9765 -0.0211356 3.15158 187 231 224
0.37135 -0.0197504 3.17218 57 71 59
0.380191 -0.0193998 3.16226 170 228 199
0.413157 -0.0198499 3.1555 181 228 212
0.790066 -0.0188019 3.14735 75 136 116
0.288993 -0.0172086 3.18499 53 100 92
0.915657 -0.0172939 3.15097 82 125 114
1.14788 -0.0142213 3.1406 169 226 211
1.39963 -0.0132105 3.11643 111 168 159
1.60017 -0.0154599 3.09643 100 126 138
0.386655 -0.0129234 3.16447 155 227 197
1.02403 -0.0126458 3.14543 191 241 237
1.18119 -0.0129954 3.13812 85 139 132
1.28719 -0.0138502 3.12206 181 226 223
1.66264 -0.0110925 3.09456 241 255 255
1.68146 -0.0120103 3.09135 102 121 134
-1.52326 -0.00879283 3.38315 217 245 245
0.803333 -0.00859333 3.15366 173 247 211
1.23852 -0.00946438 3.12946 90 152 140
1.28487 -0.00815169 3.12194 80 129 121
1.6861 -0.00926085 3.09278 95 127 138
1.71964 -0.00751527 3.09121 91 128 132
0.998521 -0.0077865 3.15377 132 173 182
0.424848 -0.00128819 3.14859 53 62 52
1.32825 0.00151003 3.1247 175 231 212
0.436703 0.000690465 3.14724 60 113 103
1.03165 0.00218014 3.14506 207 241 234
0.294029 0.00179015 3.1854 137 195 177
0.431012 0.00389052 3.14686 152 214 200
0.42579 0.00692045 3.15502 144 178 168
1.53284 0.00483774 3.10182 103 141 141
1.56888 0.00680217 3.1079 170 225 216
1.56755 0.00726314 3.09225 115 153 153
1.58083 0.00859655 3.09702 177 227 223
1.56468 0.0102198 3.09568 170 218 212
1.66798 0.010722 3.08685 57 91 91
1.67501 0.0142266 3.08401 160 201 193
1.77199 0.0145748 3.08302 69 118 98
-0.600451 0.0180082 3.29763 66 137 121
0.974181 0.0196957 3.14956 129 174 165
1.61337 0.0193298 3.09441 113 168 159
0.389311 0.0211603 3.17396 142 207 182
1.77647 0.0179599 3.07611 167 223 188
-0.432097 0.0236383 3.27683 47 98 78
1.55235 0.0227895 3.10115 95 124 121
1.80135 0.0228606 3.08085 80 121 113
0.441935 0.0223691 3.1554 60 80 67
0.89551 0.0255019 3.15861 69 123 100
0.133139 0.0274837 3.23051 66 114 108
0.139286 0.0250532 3.23282 56 81 71
-0.591647 0.0289807 3.29748 188 241 232
0.396732 0.0308711 3.17371 153 220 191
-0.585188 0.0361852 3.29594 166 208 183
0.0912734 0.0356447 3.22376 150 248 226
1.63219 0.0324582 3.09122 107 159 159
1.55006 0.0344043 3.09438 176 226 214
-0.590604 0.0383502 3.29724 107 148 127
0.488549 0.0360511 3.14449 70 120 108
0.918027 0.0364645 3.15795 63 106 93
0.96702 0.0367415 3.14315 105 155 145
0.133584 0.040251 3.22963 86 119 112
0.43751 0.0398946 3.1588 152 205 192
0.483957 0.0418292 3.15123 151 211 187
1.25755 0.0432665 3.12973 88 138 138
-0.605901 0.0471907 3.30052 180 233 224
1.52358 0.0476884 3.09136 181 233 226
1.56562 0.0496956 3.09764 72 121 113
1.53997 0.0502295 3.09758 107 141 140
0.105096 0.056207 3.23337 106 164 153
0.114153 0.0552337 3.22627 49 109 98
0.145261 0.0532455 3.2226 159 217 189
1.59154 0.0526893 3.09377 195 232 228
-1.40997 0.0640983 3.37622 187 228 221
-0.742303 0.0632192 3.30925 98 152 139
-0.410742 0.062475 3.28376 108 159 152
0.944197 0.0612963 3.15745 61 85 85
-0.806093 0.0668516 3.31003 100 155 146
1.57059 0.062747 3.09949 116 162 156
-0.607362 0.0707838 3.29676 179 230 226
1.35275 0.0655117 3.11769 82 131 129
0.129547 0.0677559 3.23071 166 230 218
0.328251 0.0683685 3.20178 92 122 123
-0.0701862 0.0703914 3.22126 68 107 99
-0.759674 0.0815572 3.31422 117 160 151
0.866066 0.0854761 3.16454 157 226 205
1.61233 0.083381 3.09306 78 101 103
1.23899 0.0859023 3.13209 69 122 112
-0.437138 0.0956144 3.2804 90 117 108
1.14614 0.091519 3.13691 87 135 129
-1.00715 0.0976183 3.2691 80 122 105
-0.569024 0.0981356 3.29684 192 245 235
0.266274 0.0956682 3.21798 180 225 228
0.926718 0.0927335 3.15244 112 162 150
1.09275 0.0955008 3.14084 94 135 128
1.16864 0.0952245 3.14415 74 125 118
-0.438465 0.103177 3.28685 77 95 82
-0.230095 0.0995093 3.25867 155 203 167
0.244217 0.099417 3.22151 44 91 75
1.48618 0.0968257 3.106 187 236 220
-0.604774 0.103571 3.30319 85 145 144
0.138721 0.0994848 3.22093 83 100 96
0.926903 0.0997061 3.15762 177 230 216
-0.224111 0.111404 3.25812 166 217 210
-0.459011 0.114508 3.28861 80 131 127
1.15315 0.106901 3.14259 190 241 233
-0.62926 0.114711 3.30034 78 128 126
-0.564521 0.114469 3.29782 165 209 202
1.50703 0.107974 3.10486 174 213 205
-0.431055 0.116213 3.28629 73 106 92
1.07474 0.112214 3.14622 94 131 123
1.3265 0.110463 3.12364 168 221 212
-0.422084 0.120445 3.28066 173 222 206
1.29488 0.116043 3.12649 71 129 124
1.52774 0.114777 3.1004 113 138 148
-1.59363 0.13169 3.40218 102 158 147
-1.41746 0.128935 3.36908 116 155 140
0.671115 0.120297 3.17921 49 85 61
1.39156 0.119403 3.10606 143 180 178
-0.732212 0.128918 3.30765 99 134 108
1.72047 0.121929 3.06788 143 207 188
-0.727969 0.133535 3.31229 149 194 178
-0.70432 0.136744 3.31054 163 213 201
1.07139 0.127523 3.14855 75 98 94
-0.270528 0.138074 3.2702 100 157 148
1.37414 0.130869 3.11138 65 82 78
-0.745721 0.147456 3.31156 120 154 137
-0.414167 0.144433 3.28618 174 236 218
0.632878 0.142471 3.18814 142 188 176
1.53149 0.140214 3.10364 85 126 121
-0.0131787 0.147612 3.213 196 232 220
0.0857571 0.146849 3.23474 199 244 235
0.644653 0.146254 3.1866 135 182 150
-0.42978 0.153477 3.29153 67 109 92
-0.138202 0.1534 3.23316 166 242 210
0.964309 0.149363 3.14236 88 132 119
-1.42911 0.164704 3.36847 151 178 174
1.18681 0.153797 3.14195 155 226 209
-0.471759 0.163357 3.28449 96 136 125
0.423378 0.155918 3.19925 160 205 209
1.55496 0.152899 3.10005 93 149 144
-0.751632 0.165761 3.30935 123 208 176
0.394101 0.161575 3.20335 59 76 63
1.44576 0.15589 3.10836 77 118 110
0.000224172 0.162362 3.21571 178 237 223
0.968817 0.158846 3.14682 197 249 225
1.15574 0.167743 3.15023 141 214 198
0.947136 0.169755 3.14949 59 133 105
1.57192 0.168612 3.0945 124 229 186
1.45642 0.174873 3.09825 181 245 216
-0.0456357 0.184305 3.23521 24 91 64
-0.38358 0.191101 3.28718 74 139 124
0.43586 0.185773 3.20112 160 207 199
1.05375 0.182835 3.14142 194 227 220
1.43245 0.18023 3.10469 178 220 209
-0.772209 0.198331 3.31625 165 235 205
0.120934 0.192838 3.23223 93 124 115
1.03434 0.192193 3.15427 85 107 105
1.05359 0.190172 3.14742 44 77 70
0.94303 0.196716 3.1569 109 157 151
0.986178 0.198249 3.1503 62 110 86
0.413066 0.203956 3.20373 87 149 137
0.257458 0.207172 3.22095 159 212 199
1.55303 0.197347 3.0983 183 237 208
-0.361235 0.210545 3.27435 86 154 131
-0.232184 0.208757 3.26364 168 223 208
-1.41554 0.219096 3.36581 195 227 232
1.16092 0.206869 3.14066 58 113 104
-0.870085 0.225945 3.30952 95 134 119
1.40385 0.211094 3.11164 190 227 231
-0.305336 0.224248 3.27724 191 245 238
-0.870204 0.22716 3.31278 99 135 123
0.0948329 0.225625 3.24359 170 226 215
-0.280738 0.231122 3.27579 99 148 146
0.134442 0.231024 3.23269 80 107 97
1.00055 0.224203 3.16235 101 139 133
1.59933 0.220182 3.09227 67 113 100
0.143184 0.234646 3.23771 90 131 116
0.00307502 0.234505 3.23213 77 142 121
0.21864 0.240366 3.23014 98 144 138
0.130287 0.240984 3.23424 93 127 117
-0.345289 0.246931 3.28242 64 133 123
0.253169 0.2431 3.21929 152 206 189
-0.207363 0.247049 3.26622 94 107 105
0.0736115 0.247516 3.24336 181 237 214
0.2365 0.245901 3.22278 190 228 232
-0.22654 0.250861 3.26749 170 226 227
0.167514 0.24725 3.22879 83 141 123
0.248004 0.247357 3.21738 77 107 102
1.1312 0.24282 3.13968 89 130 132
1.14142 0.243066 3.14328 120 165 162
0.247445 0.249912 3.224 100 135 131
0.270557 0.25076 3.21789 88 142 125
1.42359 0.242502 3.10274 171 239 198
0.164755 0.253939 3.23084 196 245 243
0.311977 0.253888 3.20387 107 130 125
1.36802 0.247943 3.12025 42 72 47
-0.518827 0.265161 3.30293 61 132 106
-0.352814 0.26467 3.28189 55 122 115
0.191067 0.259426 3.22901 78 138 128
0.233479 0.260058 3.22848 63 102 94
1.42218 0.249755 3.10161 53 102 86
-1.50509 0.276799 3.40038 101 152 144
0.38581 0.260314 3.21088 105 145 150
0.397655 0.258558 3.20726 171 225 208
1.08471 0.253033 3.14447 197 235 229
1.22104 0.254004 3.13234 213 248 244
-0.523225 0.270055 3.29891 81 132 125
0.170588 0.263481 3.22916 136 190 177
1.35823 0.255086 3.12349 67 104 96
-1.28149 0.275752 3.35905 86 117 108
-0.579523 0.272401 3.30316 95 159 147
-0.473618 0.272575 3.28611 169 237 206
-0.392243 0.270128 3.28351 94 159 144
0.440571 0.265596 3.2136 82 103 100
-0.235833 0.271306 3.25639 110 165 150
-0.347503 0.275047 3.27444 91 145 138
0.109772 0.268809 3.23115 189 255 225
0.125279 0.270417 3.22856 183 231 213
0.455373 0.266873 3.19566 66 86 74
1.20005 0.26298 3.14187 90 128 128
0.464074 0.268871 3.18501 122 141 132
1.22755 0.264954 3.13891 89 114 116
-0.403431 0.27937 3.28618 89 137 119
1.21953 0.266242 3.13474 202 235 231
0.0955659 0.277159 3.23815 70 113 98
0.26602 0.279044 3.219 123 170 168
1.25282 0.270026 3.12153 154 236 213
0.390713 0.280038 3.20723 162 201 203
1.10678 0.274703 3.15456 204 236 231
1.13581 0.272528 3.13766 111 156 153
-0.336446 0.287581 3.27981 71 117 111
-0.59718 0.291301 3.29605 87 147 139
-0.524245 0.289064 3.29387 90 146 135
-0.509865 0.298034 3.29016 152 224 202
0.0889397 0.292016 3.23451 72 103 96
0.0814022 0.296572 3.23967 199 231 226
0.204518 0.29347 3.22819 103 170 149
0.408569 0.294755 3.20801 201 227 233
-0.592587 0.305222 3.30212 210 238 238
-0.499793 0.303528 3.29198 61 126 100
-0.420884 0.302754 3.27992 91 145 110
0.135972 0.299374 3.2239 131 216 201
-1.11089 0.311443 3.35538 123 156 159
-0.749369 0.307391 3.31311 142 233 208
-0.334588 0.305975 3.29177 101 144 133
1.34149 0.289647 3.1132 172 232 192
0.429085 0.300228 3.19896 163 195 190
-0.811883 0.311502 3.32448 128 167 159
-0.305386 0.308763 3.27892 125 162 152
0.0636311 0.305815 3.24238 184 234 230
0.222372 0.309247 3.22651 181 247 222
1.16633 0.298951 3.1238 169 243 213
0.390561 0.310436 3.20124 176 225 211
1.32451 0.303191 3.11266 154 221 182
-0.814595 0.329254 3.33206 92 130 124
-0.626162 0.326262 3.30192 98 135 127
-0.424055 0.325211 3.29022 71 108 100
0.00772466 0.322417 3.25024 81 145 139
1.34836 0.310421 3.1181 173 243 207
-0.990273 0.334636 3.33305 103 147 134
-0.399055 0.333802 3.2868 176 226 214
1.3141 0.314386 3.10284 48 101 81
0.372292 0.329216 3.20222 83 127 120
-1.28183 0.348379 3.36964 138 159 160
0.139697 0.337872 3.22829 41 83 72
0.390741 0.334119 3.20023 62 90 84
-1.03087 0.358249 3.34368 99 146 137
-0.394039 0.352185 3.29021 92 118 112
-0.210112 0.35034 3.272 59 137 106
-0.0627145 0.347494 3.25382 170 231 217
-1.45326 0.369071 3.4 120 189 176
0.113701 0.350503 3.23716 72 132 114
0.307564 0.348662 3.21675 72 120 108
0.387275 0.346404 3.20606 174 208 214
-0.408918 0.358923 3.29162 103 153 129
0.142302 0.351865 3.23453 155 204 190
0.411888 0.348222 3.19675 167 207 196
-0.493349 0.361035 3.29551 199 232 228
-0.830804 0.367452 3.32231 113 154 149
-0.580857 0.36586 3.30463 102 145 134
-0.412519 0.362359 3.28518 190 240 222
1.36371 0.343738 3.11715 116 161 134
-1.03305 0.370129 3.34122 109 154 138
-1.22375 0.376855 3.36071 123 158 148
0.300434 0.362619 3.21075 83 111 105
-0.396253 0.379534 3.28756 162 248 208
-0.178134 0.378117 3.26687 66 131 109
-0.386173 0.384002 3.29173 92 125 118
0.281857 0.375073 3.21435 189 225 225
-0.641686 0.392559 3.29812 168 238 207
1.25709 0.363614 3.04368 89 122 107
0.179282 0.390351 3.22847 170 226 205
-0.428205 0.399399 3.29046 97 142 133
-0.823248 0.407922 3.32946 171 226 211
-0.408685 0.410323 3.28661 92 146 141
0.00820847 0.405956 3.25005 72 120 108
-0.923346 0.420114 3.33427 100 154 141
-0.150765 0.412263 3.25925 95 142 140
-0.0590813 0.41541 3.25196 85 143 132
0.0367008 0.414554 3.24744 59 98 90
-0.945725 0.429182 3.33931 121 183 169
-0.122947 0.424695 3.2548 111 149 151
-0.39245 0.430016 3.28204 122 181 167
-0.770106 0.440588 3.32181 83 159 128
-0.172706 0.437061 3.26949 178 224 225
-0.167449 0.439223 3.26398 74 137 121
-0.90633 0.449496 3.32061 85 175 139
0.0498642 0.442491 3.24674 115 175 165
-0.219151 0.44772 3.26193 83 166 134
-0.146332 0.445852 3.26151 92 145 135
0.182662 0.442261 3.22838 73 103 90
-1.10653 0.459697 3.35387 113 159 147
0.166757 0.445816 3.23113 84 132 126
-0.552072 0.46131 3.29469 97 130 123
-0.941946 0.47089 3.34289 163 208 199
-0.570323 0.468115 3.30373 111 166 157
0.0518871 0.464501 3.24438 76 134 129
-1.0874 0.481521 3.34973 115 155 150
-0.563254 0.480003 3.29886 112 178 153
-0.129734 0.473139 3.26465 84 130 124
0.268524 0.468698 3.21224 94 141 139
0.0289346 0.474321 3.24161 95 129 128
-0.591633 0.483172 3.29757 75 154 135
-0.0427979 0.477473 3.25157 92 140 128
-0.55349 0.487633 3.30133 159 221 205
-0.831613 0.494704 3.33473 125 158 161
-1.29784 0.504581 3.37769 85 147 135
-0.142563 0.493004 3.25965 92 167 151
-0.0342826 0.493707 3.2512 83 126 115
-0.221614 0.499139 3.27484 168 234 205
0.166062 0.493154 3.22408 85 121 121
-0.105187 0.502922 3.26019 110 157 148
-0.0994326 0.505155 3.25591 96 146 142
0.103665 0.505499 3.23907 100 167 160
-0.325906 0.51667 3.26768 63 106 93
-0.160492 0.517202 3.26741 198 229 232
0.116184 0.514178 3.24097 104 149 140
-0.779058 0.530332 3.33155 121 162 165
-0.700077 0.527684 3.31339 120 169 171
-0.389245 0.52273 3.28773 197 235 237
-0.378528 0.5229 3.28472 155 224 213
-1.31428 0.572351 3.37015 132 179 177
-0.66955 -1.58714 3.22885 99 162 142
-0.94557 -1.59236 3.2571 92 142 130
1.06672 -1.50115 3.07528 104 162 151
1.02982 -1.4847 3.07913 111 171 153
0.575395 -1.49273 3.12109 92 115 107
-0.636203 -1.53862 3.22646 135 187 169
0.455485 -1.49029 3.13103 93 133 132
-0.622809 -1.52764 3.21466 139 205 180
0.575284 -1.48461 3.12365 89 118 115
0.452304 -1.4818 3.13836 162 218 219
-0.61063 -1.51838 3.2209 146 235 186
0.468849 -1.4814 3.14187 142 182 170
-0.631764 -1.51917 3.23126 102 163 143
-0.563665 -1.51121 3.22014 82 143 123
-0.613003 -1.5099 3.2303 170 214 185
0.491818 -1.47042 3.13711 97 137 126
0.601722 -1.44398 3.12253 152 217 195
-0.598122 -1.49055 3.22995 163 233 216
0.507819 -1.4427 3.13387 101 124 116
-1.55904 -1.52278 3.31298 129 131 139
0.60845 -1.43155 3.12652 147 202 183
0.536563 -1.43172 3.13329 80 114 103
0.746821 -1.41546 3.11207 48 100 77
0.591054 -1.42081 3.12647 154 223 203
-1.55167 -1.50019 3.3192 121 171 153
0.611397 -1.41232 3.12419 135 177 159
0.548902 -1.40725 3.13218 119 155 138
-1.57721 -1.49191 3.32533 183 255 213
-0.604161 -1.4461 3.22754 117 145 132
0.452911 -1.41224 3.14471 76 111 114
0.701537 -1.39661 3.11703 71 134 118
1.10725 -1.37478 3.08693 95 142 134
-1.21799 -1.4593 3.29517 232 255 255
0.462273 -1.3977 3.14796 161 227 226
0.506257 -1.39504 3.15036 147 194 198
0.66137 -1.37777 3.11352 115 177 163
-0.500167 -1.4173 3.21686 100 161 125
-0.218579 -1.40954 3.19776 162 248 224
-0.692939 -1.42191 3.23672 123 178 163
0.461219 -1.38063 3.14727 86 104 111
0.52592 -1.37579 3.14445 160 219 215
0.649164 -1.37121 3.13061 120 147 131
1.25791 -1.34289 3.07706 122 173 166
-0.713206 -1.40429 3.2387 96 151 136
-0.613228 -1.39868 3.226 94 179 164
0.665068 -1.35763 3.12953 123 175 158
-1.61406 -1.43946 3.3333 97 156 136
0.634667 -1.34165 3.12376 132 189 174
0.657783 -1.34152 3.12297 143 201 177
0.78805 -1.33719 3.11326 96 158 134
-0.625486 -1.38611 3.23372 103 173 160
1.08897 -1.32527 3.09006 108 162 149
0.55922 -1.34462 3.151 93 142 140
-0.542972 -1.37807 3.22885 195 242 239
-0.372734 -1.3681 3.21463 76 136 125
0.713239 -1.32758 3.11805 163 219 200
0.560667 -1.33762 3.15142 138 199 189
0.626795 -1.33017 3.13522 104 131 121
-0.355842 -1.35884 3.21518 89 171 153
-0.473709 -1.35586 3.2254 73 116 105
-0.421469 -1.35253 3.22154 152 212 194
0.598016 -1.32089 3.13955 134 177 166
-0.447048 -1.35132 3.22039 103 132 116
-0.266267 -1.3505 3.2197 83 115 114
1.00695 -1.30104 3.09951 86 132 120
-1.5994 -1.39877 3.33546 82 134 116
0.53075 -1.31928 3.14757 59 108 100
0.538024 -1.31695 3.14313 145 203 198
0.552375 -1.315 3.14799 102 121 118
0.617924 -1.30922 3.13873 146 196 184
-0.448233 -1.34288 3.22347 154 240 206
1.00039 -1.28596 3.09834 106 168 156
0.568385 -1.29454 3.14134 121 168 152
0.598265 -1.29182 3.13491 107 138 129
0.519559 -1.27601 3.15336 73 124 126
0.697799 -1.26384 3.12156 148 197 181
0.532621 -1.27251 3.15678 85 113 100
0.663135 -1.2546 3.12127 141 195 182
0.400283 -1.26062 3.16797 119 180 184
1.69793 -1.20478 3.04423 96 167 151
0.689084 -1.23581 3.12993 85 108 103
0.61581 -1.24022 3.15014 60 75 61
-0.723975 -1.27406 3.24699 106 136 147
1.1439 -1.21444 3.09769 97 170 154
0.541769 -1.22413 3.15736 165 216 212
0.563838 -1.2289 3.17644 53 65 67
0.583374 -1.22796 3.16837 109 156 123
1.67371 -1.18201 3.05277 86 149 139
-0.734344 -1.25015 3.24657 132 152 170
0.569577 -1.22025 3.18336 254 254 254
0.148341 -1.15869 3.06161 93 117 153
1.22211 -1.16224 3.08902 209 245 239
0.113146 -1.14564 3.0581 138 166 196
-0.0902143 -1.14759 3.07232 153 178 204
-0.065748 -1.14513 3.06922 176 188 206
1.55824 -1.14324 3.05915 135 175 170
0.156882 -1.13335 3.04942 116 131 164
-0.637756 -1.14094 3.08421 90 145 172
0.738698 -1.13907 3.1317 87 108 109
-0.769853 -1.16818 3.26091 112 160 148
-0.406791 -1.09675 3.06845 208 249 255
0.00824656 -1.08361 3.03694 171 188 209
0.0202275 -1.08328 3.03723 182 190 207
-0.394269 -1.0925 3.06344 197 247 255
0.125713 -1.07768 3.03236 133 161 192
-0.335411 -1.08974 3.06021 193 235 255
0.149821 -1.0747 3.02658 171 185 214
0.194909 -1.06868 3.0149 171 187 203
0.941102 -1.09677 3.10937 192 233 228
-0.189331 -1.07394 3.05295 207 242 255
0.17296 -1.06344 3.0232 236 253 255
0.187431 -1.05815 3.01245 223 248 255
0.0298554 -1.0657 3.03433 92 86 135
0.160481 -1.0563 3.02746 70 76 129
0.0372754 -1.06058 3.03811 215 245 255
0.0597475 -1.06024 3.03593 213 249 255
-0.630968 -1.07796 3.10903 120 158 193
-0.117054 -1.06154 3.05587 234 253 255
0.117902 -1.05365 3.0314 230 254 255
0.155424 -1.04787 3.02355 204 245 255
-0.625217 -1.05242 3.12142 232 255 255
-0.022926 -1.01389 3.0291 220 244 255
-0.630957 -1.04396 3.12308 102 113 165
0.617915 -1.03511 3.16015 130 162 168
-0.804085 -1.06124 3.27067 85 152 131
-0.62216 -1.01252 3.14215 79 104 148
0.921004 -1.00995 3.12584 106 166 156
1.01029 -1.00346 3.11283 101 135 135
-0.628213 -1.00619 3.15041 223 255 255
0.616965 -1.01012 3.15653 120 149 146
0.266926 -1.01551 3.18897 135 170 173
-0.318584 -0.987518 3.12286 101 116 165
1.10943 -0.972698 3.11245 97 162 147
-0.61649 -0.985043 3.15474 229 253 255
-0.032705 -0.966208 3.10117 65 96 149
0.514035 -0.987829 3.17043 95 151 140
0.57612 -0.98546 3.16104 123 138 147
-0.360424 -0.972158 3.1308 229 255 255
-0.0559924 -0.959708 3.10305 92 103 160
0.571654 -0.980511 3.168 177 219 218
-0.132506 -0.959106 3.11001 193 234 255
0.280018 -0.981816 3.18071 142 205 196
0.861627 -0.971561 3.13683 226 243 246
-0.00835094 -0.95155 3.09997 73 113 161
0.716438 -0.967305 3.14358 121 168 159
0.846729 -0.967557 3.14435 122 160 162
0.605878 -0.971065 3.15965 111 147 153
-0.133974 -0.943608 3.1115 205 213 242
1.54806 -0.931348 3.07131 116 161 164
-0.0975956 -0.943665 3.10814 194 220 255
-0.823053 -0.990239 3.2782 82 86 80
0.0913422 -0.931227 3.09988 188 233 255
1.18537 -0.889364 3.10964 191 228 232
1.73472 -0.870208 3.05517 236 254 255
-1.04137 -0.938441 3.30736 121 153 159
0.756525 -0.893936 3.14654 128 173 164
1.39711 -0.874808 3.09019 132 176 177
1.77715 -0.865916 3.05476 138 166 183
1.8078 -0.859967 3.05456 151 161 185
1.49824 -0.866436 3.08323 97 131 144
0.734935 -0.878724 3.14502 251 255 255
-1.02049 -0.921251 3.30396 127 170 167
1.8242 -0.85169 3.05665 113 149 157
0.60371 -0.878361 3.16307 106 158 151
0.726072 -0.876035 3.15035 65 98 91
1.59314 -0.854589 3.07182 149 183 189
1.31283 -0.853151 3.09944 196 237 229
1.85491 -0.831907 3.04969 122 168 169
1.26451 -0.84393 3.10614 130 162 167
0.839923 -0.853316 3.14822 120 157 153
0.872204 -0.850648 3.14009 116 148 143
1.1238 -0.845432 3.11805 92 133 136
-0.129318 -0.863157 3.21252 211 218 215
0.781672 -0.844159 3.15119 109 148 140
1.20217 -0.83563 3.11256 97 128 129
1.44033 -0.825034 3.08915 84 113 120
-0.317847 -0.861057 3.24619 188 238 228
