ply
format ascii 1.0
element vertex 1257
property float x
property float y
property float z
property uchar blue
property uchar green
property uchar red
end_header
1.14565 0.486201 3.30266 91 171 140
-0.568258 0.456303 3.05653 91 165 135
-0.949855 0.45172 2.9963 87 138 130
-0.972177 0.458458 2.99401 252 255 253
-0.768573 0.480276 3.02361 86 136 118
0.870319 0.52924 3.26876 154 239 195
-0.536889 0.502966 3.05699 61 126 105
1.08695 0.567044 3.30698 231 251 239
-0.904976 0.515824 3.00094 67 142 114
0.908317 0.56799 3.28512 95 159 137
1.14082 0.607399 3.32092 74 142 107
1.1652 0.613823 3.32911 94 164 128
1.17559 0.649082 3.33636 150 231 198
0.913916 0.654029 3.29418 66 124 100
0.898814 0.682066 3.29529 77 137 106
-0.46607 -1.34695 2.97498 90 154 159
-0.94419 -1.33793 2.97186 130 203 171
-1.08334 -1.32822 2.96011 149 188 180
-1.09872 -1.32474 2.96141 203 224 221
-1.06768 -1.32389 2.96031 78 134 99
-0.0632663 -1.32343 2.95871 116 165 175
-0.881539 -1.33209 2.97939 77 119 131
-0.86994 -1.33148 2.97915 95 148 158
-0.0630932 -1.32352 2.95957 110 168 180
-1.08236 -1.32053 2.96394 220 255 249
-1.02389 -1.31712 2.95861 99 157 132
-0.970589 -1.31963 2.96612 94 164 133
-1.09902 -1.31001 2.96317 141 183 176
-1.08936 -1.30776 2.95972 202 236 235
-0.933454 -1.3063 2.97119 66 106 101
-1.08544 -1.29979 2.96308 152 221 201
-1.00269 -1.29998 2.96384 58 123 91
-1.10868 -1.29605 2.96442 255 254 255
-0.735774 -1.3006 2.98289 79 109 120
-1.37844 -1.29553 2.97371 243 249 248
-0.987325 -1.28905 2.96587 69 104 84
-0.998749 -1.28575 2.96524 58 108 84
-0.951944 -1.28943 2.97462 75 142 133
-0.822398 -1.28868 2.98328 71 147 116
-0.889173 -1.28639 2.98515 169 198 207
-1.04923 -1.27035 2.96199 90 134 105
-1.00664 -1.27317 2.97314 82 141 120
-1.44099 -1.27591 2.98549 158 204 198
-1.05377 -1.2672 2.96712 137 211 177
-1.06207 -1.26444 2.96329 85 145 104
-0.157406 -1.26958 2.97592 96 146 142
-1.56799 -1.27662 3.00099 207 246 238
-1.47193 -1.27028 2.98573 236 255 254
-1.17412 -1.26288 2.96824 168 174 187
-0.130083 -1.26486 2.97478 99 151 157
-1.14067 -1.25567 2.96073 171 197 197
-0.741945 -1.26781 2.98722 80 122 134
-1.06559 -1.25666 2.96527 81 161 130
-1.05011 -1.25304 2.96347 106 142 136
-0.0959176 -1.25863 2.97741 208 238 233
-0.731859 -1.25594 2.98987 71 133 117
-1.05283 -1.24191 2.96686 93 127 121
-0.16284 -1.24718 2.98021 103 147 160
-0.0889335 -1.23777 2.97968 112 163 165
-0.0385709 -1.23545 2.97268 88 135 126
-1.00442 -1.23641 2.97887 75 130 115
-0.939233 -1.23757 2.98159 75 150 136
-0.0183644 -1.23217 2.96967 86 138 121
0.0287524 -1.23185 2.97281 236 255 255
-0.00336114 -1.22995 2.97144 149 219 202
-0.726961 -1.2359 2.99263 80 133 124
-0.664864 -1.23395 2.98724 74 121 125
-0.631418 -1.23015 2.98874 103 157 144
-0.651881 -1.22972 2.99577 89 146 145
-0.651736 -1.22983 2.99765 89 150 152
-1.26255 -1.21771 2.97501 93 158 136
0.178292 -1.21339 2.97634 255 255 255
-1.07356 -1.21039 2.97622 73 145 103
-1.19522 -1.20934 2.97865 103 168 146
-1.19639 -1.2096 2.98277 96 163 142
-0.179403 -1.21091 2.98346 252 255 253
0.743673 -1.1971 2.94361 103 154 147
-1.38362 -1.21186 2.98774 110 173 157
-1.02125 -1.20491 2.98844 79 123 116
-0.132409 -1.20403 2.98699 119 176 173
-1.12797 -1.19608 2.97358 97 165 140
-0.88215 -1.20268 2.9907 79 125 119
-0.100032 -1.20015 2.98514 222 249 245
-1.59138 -1.20447 3.01034 85 158 136
-0.91099 -1.19378 2.9902 94 148 149
-0.265089 -1.19005 2.9899 116 176 166
-0.733041 -1.18844 3.00238 78 159 120
-0.751002 -1.18384 2.99645 107 172 157
-1.4194 -1.17795 2.99626 101 150 148
-0.665498 -1.18053 3.00274 95 170 138
-0.282148 -1.17673 2.99076 109 169 163
-0.0966184 -1.1755 2.98977 120 177 179
-1.65836 -1.18244 3.01301 179 218 226
-0.916153 -1.16565 2.99089 87 142 127
-0.844619 -1.16896 2.99639 200 233 226
-0.951271 -1.16129 2.98604 162 233 216
0.105514 -1.1598 2.98732 179 231 207
-1.01704 -1.15969 2.99134 176 231 222
-0.299089 -1.15917 2.9891 111 145 161
-1.1589 -1.15811 2.99006 101 161 155
-1.49071 -1.16195 3.00423 234 255 248
-1.43802 -1.1563 3.00176 97 165 140
-0.326089 -1.15043 2.99448 227 255 252
-1.2221 -1.147 2.9915 92 141 127
-0.386376 -1.14671 3.00075 101 176 168
-0.225925 -1.14392 2.99134 100 157 154
-1.17822 -1.14309 2.99306 202 242 241
-0.865269 -1.14255 2.99809 183 230 221
-1.19037 -1.13719 2.99584 184 224 223
-1.05713 -1.13145 2.98929 147 225 201
-0.832803 -1.13543 3.00146 48 106 78
-0.765003 -1.13118 3.0043 87 162 141
-1.46109 -1.13337 3.00674 194 240 221
-0.441857 -1.12872 2.99258 168 237 222
-1.03106 -1.12328 2.99194 101 161 150
-0.952335 -1.11919 2.98524 107 161 168
-0.136913 -1.12502 2.99569 104 164 154
-1.33425 -1.11933 2.99789 182 233 236
-1.08199 -1.11403 2.99234 154 217 215
-0.931901 -1.11456 2.99024 86 147 157
-0.338231 -1.11583 2.99545 97 166 155
-1.22861 -1.11268 2.99569 97 139 144
-0.908255 -1.112 2.99477 89 144 153
-1.20625 -1.10488 2.9925 87 115 116
0.876649 -1.09317 2.96236 105 171 152
-0.165656 -1.10258 3.00197 107 170 160
-1.41828 -1.10037 3.0038 189 237 219
-1.16002 -1.09498 2.9955 183 229 223
-0.748781 -1.09352 3.00732 231 255 253
-1.1865 -1.08473 2.99326 108 145 153
-0.361231 -1.0895 3.0081 100 151 167
-1.02097 -1.08122 2.99135 94 159 150
-0.792471 -1.08502 3.01109 102 167 152
-0.762193 -1.08164 3.0064 101 160 152
-0.222161 -1.07844 2.99561 232 254 252
-0.716251 -1.07728 3.00537 105 170 155
-0.33837 -1.07675 3.00744 93 164 154
-0.87947 -1.07176 3.00012 84 156 134
-0.226478 -1.0708 3.0019 167 224 216
-1.38206 -1.06977 3.00143 153 210 185
-0.0658388 -1.07073 3.00784 117 170 156
-0.275784 -1.06422 3.00308 113 160 174
-0.963241 -1.0584 2.99147 75 115 163
-0.222416 -1.06343 3.00281 87 121 127
-1.18144 -1.06127 2.99991 139 190 186
-0.830682 -1.05815 2.99851 79 120 105
-1.24738 -1.04918 2.99471 99 144 128
-0.464748 -1.05546 3.00741 190 243 246
-0.790944 -1.05433 3.01091 102 159 150
-0.299177 -1.04817 3.00372 105 171 160
-1.38145 -1.04998 3.00344 239 247 246
-1.14673 -1.04602 2.99869 95 141 129
-1.05957 -1.0446 2.99879 246 255 250
-0.333945 -1.04919 3.01038 115 153 155
-0.717433 -1.04377 3.01133 77 162 142
-1.39452 -1.03984 3.00438 71 128 113
-1.17266 -1.03912 2.99924 81 137 126
-0.343278 -1.04107 3.00938 163 227 221
-0.283618 -1.04109 3.00608 73 138 129
-1.56051 -1.03792 3.00209 198 241 228
-0.155169 -1.039 3.00517 62 123 95
-1.19428 -1.03152 2.99248 88 131 120
-1.19589 -1.03741 3.0023 141 201 195
-0.565612 -1.03784 3.0117 168 234 222
-0.445125 -1.0379 3.01479 103 168 146
-0.930476 -1.03148 3.00697 104 158 153
-0.753938 -1.03392 3.00645 73 144 128
-0.623678 -1.03339 3.01203 203 239 225
-1.08838 -1.02586 2.99604 70 135 109
-0.927404 -1.02479 2.99925 134 194 188
-0.426659 -1.02924 3.01293 86 144 119
-0.221931 -1.02426 3.00588 79 144 135
-0.476312 -1.02602 3.01784 201 235 225
-1.06309 -1.01677 2.992 178 220 219
-0.624502 -1.02316 3.01235 80 126 113
-0.379816 -1.01969 3.01316 123 188 172
-0.43684 -1.01867 3.01369 161 241 210
-0.898682 -1.01256 3.00286 237 255 255
-0.691373 -1.01404 3.006 96 151 124
-0.195909 -1.01495 3.00392 74 117 102
-1.23212 -1.00551 2.99464 130 194 172
-0.948491 -1.00672 3.00035 87 126 171
-0.887811 -1.00547 3.0035 80 149 139
-0.841067 -1.00788 3.00714 239 246 243
-0.952899 -1.00106 2.99664 153 187 240
-0.718874 -1.00538 3.0106 66 141 125
-0.616507 -1.00777 3.01207 87 157 140
-0.459669 -1.00767 3.01472 76 155 128
-0.903843 -1.00181 3 111 147 165
-0.699537 -1.00149 3.00854 92 179 165
-0.683673 -1.00305 3.00515 64 152 128
-0.556773 -1.00576 3.0132 90 159 149
-1.2638 -0.997698 2.99676 197 225 226
-1.06255 -1.00082 3.00373 216 252 236
-0.396576 -1.00391 3.0129 254 254 254
-0.94524 -0.996502 3.0014 73 91 144
0.129914 -1.00105 3.01335 96 158 142
-0.0968576 -1.00032 3.01582 237 255 255
-0.13737 -0.996054 3.01153 152 221 208
-0.881073 -0.989418 3.00346 119 170 166
-0.924257 -0.987632 3.00228 89 146 145
-0.908509 -0.988212 3.00805 115 168 178
-0.566433 -0.991291 3.01675 121 163 186
-1.07536 -0.973773 3.00302 107 162 143
-0.354278 -0.976167 3.01861 211 239 239
-1.0651 -0.970867 3.00519 234 255 252
-0.845665 -0.968085 3.00377 255 255 255
-0.610976 -0.970156 3.01469 104 148 141
-0.548627 -0.973084 3.01668 95 150 141
-0.383814 -0.972757 3.01877 247 255 255
-1.30984 -0.965686 3.00322 93 132 117
0.22274 -0.966618 3.01582 87 147 117
-1.25387 -0.961453 3.0006 215 252 244
-0.372197 -0.966692 3.02038 233 255 251
0.200563 -0.965315 3.01257 114 170 141
-1.28999 -0.957229 3.00124 170 221 214
-0.0663432 -0.961858 3.0188 105 171 146
-1.16564 -0.953495 2.99994 111 126 128
-0.36894 -0.959369 3.02468 114 130 123
-1.25668 -0.951845 3.00116 109 154 158
-0.498244 -0.954326 3.01844 95 171 139
-1.00522 -0.939814 2.99533 90 146 133
-0.231923 -0.9462 3.01407 85 136 146
-1.07082 -0.939987 3.00569 95 157 139
-0.720969 -0.94183 3.00525 179 234 225
-0.233192 -0.946164 3.01962 86 137 157
-0.240097 -0.943594 3.02425 170 239 228
-1.00644 -0.935575 3.00657 216 255 240
-1.39553 -0.930649 3.00047 78 140 118
-1.16111 -0.930929 3.00068 201 234 230
-0.270458 -0.933435 3.01628 98 121 136
-0.0427319 -0.93255 3.01851 96 166 143
-0.918658 -0.926387 3.00698 185 240 223
-0.534845 -0.930293 3.0243 127 155 142
-0.230114 -0.929356 3.02711 92 163 147
-0.524606 -0.927746 3.01837 96 160 141
-0.310689 -0.925577 3.02129 115 181 169
-1.41917 -0.91149 3.00178 143 202 174
-1.38501 -0.912567 3.00236 120 160 135
-0.529522 -0.913172 3.02291 87 147 129
-0.0868028 -0.913508 3.02883 96 162 150
-1.42137 -0.904346 2.99955 69 90 75
-0.615024 -0.908512 3.01696 169 229 221
-1.1204 -0.900438 3.00101 232 251 248
-1.06518 -0.899729 3.00216 214 255 248
-0.921403 -0.902113 3.00858 221 244 239
-0.856199 -0.89691 3.00775 178 204 228
-0.71695 -0.896875 3.01018 84 159 145
-0.668092 -0.896543 3.01546 94 147 138
-0.656753 -0.895487 3.01042 186 230 229
-0.212793 -0.900922 3.02676 107 165 170
-1.36465 -0.891985 2.99451 105 157 139
-1.05889 -0.891443 3.00248 148 176 177
-0.920451 -0.894179 3.00771 93 150 141
-1.06111 -0.89136 3.00646 128 165 163
-0.567873 -0.893774 3.01989 75 141 130
-1.27864 -0.887482 3.00013 75 124 108
-1.16273 -0.886691 2.99743 142 201 181
-1.08639 -0.888629 2.99948 91 140 138
-0.582947 -0.893264 3.02137 103 167 167
-0.648054 -0.884628 3.00843 102 157 164
-0.782913 -0.882127 3.0112 92 168 157
-0.703815 -0.880657 3.00963 93 165 182
-1.00038 -0.879732 3.00934 96 161 152
-0.826649 -0.878673 3.00806 172 236 224
-0.711726 -0.880791 3.01053 89 177 171
-0.667346 -0.876836 3.01221 97 161 179
-1.2591 -0.871556 2.99732 116 163 155
-1.08197 -0.869307 3.00232 170 220 218
-1.6626 -0.865428 2.99503 158 212 212
-0.793101 -0.867475 3.00583 115 179 183
-0.548878 -0.871916 3.02104 176 233 230
-1.22997 -0.863102 2.99786 161 239 238
0.987607 -0.869377 3.01828 227 255 255
-1.0901 -0.860475 3.00223 80 129 115
-0.821109 -0.861317 3.00764 70 137 138
-0.586434 -0.864005 3.02383 100 158 153
-1.37992 -0.85404 2.98189 136 195 167
-1.17027 -0.858819 3.00387 159 213 196
0.262734 -0.863128 3.02801 104 154 124
-1.38824 -0.842506 2.97327 122 202 167
-0.520052 -0.859013 3.02661 102 157 148
-1.07062 -0.851033 2.99967 98 163 147
-0.577186 -0.855199 3.02113 83 142 114
-0.43929 -0.857447 3.02883 82 126 119
-1.33281 -0.846321 2.99202 124 166 141
-0.941516 -0.850771 3.01158 94 154 146
-0.88864 -0.848997 3.01157 92 139 147
-1.10898 -0.844999 3.00094 76 138 114
-1.365 -0.830628 2.97391 163 224 180
-1.3541 -0.83206 2.97527 59 96 70
-1.07495 -0.838488 3.00344 105 168 152
-0.629238 -0.840012 3.0177 83 153 136
-0.576634 -0.839108 3.01374 86 151 130
-1.34696 -0.82679 2.98005 133 189 146
-1.20846 -0.829323 2.99215 99 154 135
-1.38605 -0.822782 2.97611 135 210 194
-0.139216 -0.831337 3.03301 158 239 230
-1.31406 -0.821873 2.99206 71 114 105
-1.10767 -0.822049 3.00216 94 148 141
-1.06481 -0.817391 3.0007 228 241 243
-1.11846 -0.81308 2.99471 169 228 247
-1.06436 -0.81564 3.00794 241 253 253
-1.1672 -0.81228 2.99866 96 139 158
-1.1456 -0.812162 2.99724 219 240 237
-1.13241 -0.808193 2.996 93 140 138
-0.939528 -0.809648 3.0116 213 244 243
-0.445373 -0.818514 3.04006 108 165 150
-1.04584 -0.804802 3.00536 182 220 225
-0.940036 -0.80942 3.01475 216 240 240
-1.2344 -0.801621 3.00561 71 112 107
-1.12128 -0.803003 3.00253 97 139 138
-0.794942 -0.804571 3.01371 98 132 126
-1.02976 -0.800862 3.01103 205 238 234
-1.08426 -0.800568 3.00327 85 116 107
-1.34307 -0.787963 2.97441 57 88 79
-0.726077 -0.797329 3.01331 236 247 245
-0.917266 -0.79554 3.0125 167 222 205
0.76554 -0.803148 3.04071 102 163 137
-0.758586 -0.794248 3.01728 99 143 136
-0.712623 -0.794213 3.01493 159 213 213
-0.690922 -0.79252 3.01573 128 190 174
0.294826 -0.797972 3.0394 101 157 146
-1.14783 -0.782679 3.0027 89 145 122
-0.661791 -0.786716 3.01651 147 214 199
-0.327734 -0.792874 3.03609 118 190 170
-1.08147 -0.782869 3.00592 133 194 180
-0.992149 -0.783859 3.00851 221 244 246
0.75505 -0.793764 3.04344 75 113 95
-1.1397 -0.779581 2.99875 130 162 145
-0.879348 -0.784146 3.01603 251 255 255
-0.495848 -0.78601 3.02862 156 218 196
-0.225389 -0.789255 3.03823 105 170 145
0.754641 -0.79367 3.04588 81 120 104
-1.02984 -0.778592 3.00007 125 156 135
-1.01872 -0.77919 3.01154 105 115 98
-0.780671 -0.781213 3.01607 177 219 218
-0.775978 -0.774492 3.01524 76 124 100
-0.421094 -0.776819 3.03485 90 136 124
-0.988629 -0.767856 3.00872 175 153 128
-0.978369 -0.769409 3.01008 62 82 70
-0.728511 -0.770296 3.01618 206 229 231
-0.487166 -0.771865 3.01667 60 103 88
1.14691 -0.775377 3.04386 96 152 141
-0.988548 -0.762138 3.00485 165 142 120
-0.425141 -0.766663 3.03482 162 209 217
0.338489 -0.769311 3.0445 91 152 138
-0.680544 -0.757395 3.01547 92 125 111
0.383514 -0.763882 3.04596 73 139 110
-0.25152 -0.76067 3.04354 108 169 155
-0.897451 -0.746339 3.00968 195 230 234
-0.876314 -0.749579 3.01369 156 204 205
-0.72281 -0.746408 3.01416 131 193 181
-0.495578 -0.749683 3.02953 120 170 152
-0.729389 -0.743419 3.011 82 111 102
0.391121 -0.750918 3.04501 89 172 133
-0.981502 -0.739753 3.00695 87 137 113
-1.3255 -0.73308 2.98467 86 114 91
0.59427 -0.747897 3.04964 169 228 208
-0.900658 -0.737662 3.01487 87 120 105
-0.387147 -0.739072 3.03295 75 132 107
-0.373869 -0.737188 3.03215 74 137 111
-1.09143 -0.727829 2.99781 97 91 78
0.317413 -0.737709 3.04894 127 175 179
0.624046 -0.740603 3.05516 82 143 109
-0.921721 -0.724702 3.00874 87 132 113
-1.54262 -0.718 2.99153 99 148 140
0.191633 -0.729451 3.0469 106 180 162
0.392711 -0.72435 3.04955 84 145 125
-0.927233 -0.709872 3.00827 177 209 208
-0.121049 -0.716017 3.0501 101 177 143
-0.0679624 -0.712691 3.05322 202 234 215
-0.913991 -0.701475 3.00831 124 157 143
-0.424245 -0.707521 3.03672 107 163 142
0.603779 -0.711848 3.05597 124 242 231
-0.77419 -0.700583 3.01152 142 149 142
-0.348152 -0.704167 3.03909 114 160 168
-0.336863 -0.705519 3.04026 110 145 165
-0.990794 -0.692989 2.99943 86 129 108
-0.984586 -0.690362 3.00162 75 94 77
0.600823 -0.699006 3.054 82 121 96
-0.312118 -0.689258 3.03991 74 137 121
-0.986738 -0.676236 3.00485 116 169 156
0.298646 -0.687283 3.0518 90 142 135
-1.62924 -0.663106 2.95603 103 172 145
-0.160005 -0.679432 3.05028 89 151 145
-1.19562 -0.642166 2.89158 250 255 253
-0.923454 -0.659784 3.00534 133 173 171
-0.113572 -0.670196 3.05622 107 178 162
-0.475901 -0.662727 3.03359 134 193 172
0.196268 -0.666316 3.06045 102 143 135
-1.5504 -0.654573 2.99625 93 145 145
-0.993792 -0.655015 3.00628 70 103 82
-0.485453 -0.655015 3.03245 162 216 223
-0.478003 -0.657436 3.03402 82 131 129
-1.68327 -0.644255 2.98302 131 182 175
-0.398143 -0.653591 3.03732 83 130 121
-0.963084 -0.645207 3.00511 122 179 154
-0.50193 -0.651364 3.03201 100 142 131
-0.431661 -0.64459 3.03908 144 179 182
-1.62871 -0.630511 2.96358 119 166 163
-0.324647 -0.638568 3.04828 117 154 162
-1.54325 -0.624312 2.98332 134 184 190
-0.393928 -0.634313 3.04426 93 121 102
-0.378877 -0.636256 3.03865 102 133 142
-0.35892 -0.63538 3.04227 69 97 97
0.0362067 -0.63771 3.06095 79 147 116
-0.968506 -0.619728 3.00081 99 130 123
-0.974314 -0.616279 3.00373 124 142 141
0.794766 -0.629582 3.082 103 169 157
1.04438 -0.631335 3.07936 95 162 141
-0.902929 -0.611443 3.012 114 152 146
-0.444013 -0.619443 3.04244 96 135 109
-0.277059 -0.620979 3.05018 77 148 121
0.306973 -0.623636 3.06651 132 176 189
0.345185 -0.622634 3.06384 133 187 182
-0.799296 -0.603335 3.0198 94 120 102
-0.636711 -0.602505 3.02617 100 131 116
-0.142621 -0.60617 3.05834 148 235 225
-0.440456 -0.588875 3.03851 98 123 109
-1.30806 -0.553984 2.87934 125 142 151
-1.67632 -0.563041 2.9625 130 213 168
-0.366153 -0.576638 3.04409 88 147 133
-0.624068 -0.570781 3.02662 114 162 134
-0.528749 -0.56985 3.03257 101 121 108
-0.816533 -0.56329 3.01811 90 111 102
-0.356067 -0.5697 3.04542 86 140 117
-1.60478 -0.554538 2.97714 134 173 152
1.10677 -0.573888 3.08901 113 188 167
-1.59934 -0.550098 2.97956 123 166 151
-1.53203 -0.550607 2.99122 121 142 150
-0.313594 -0.557647 3.04954 100 163 147
0.844622 -0.567498 3.0937 117 163 170
-0.549309 -0.550542 3.03641 116 155 140
-0.340027 -0.552824 3.04458 100 173 157
-1.54407 -0.535772 2.98081 140 178 183
-0.812756 -0.540413 3.01809 99 113 107
-0.373781 -0.541969 3.04525 70 100 87
-1.27146 -0.511813 2.88606 240 243 241
-1.68523 -0.52706 2.98111 103 154 146
-0.628854 -0.532649 3.03134 98 120 95
-0.602924 -0.534115 3.02927 91 114 100
0.346278 -0.54348 3.0859 88 156 125
-0.827685 -0.525997 3.0186 105 136 121
-0.681814 -0.521069 3.03768 118 162 156
-0.279019 -0.522226 3.05398 99 143 126
-0.840868 -0.513085 3.02199 108 177 150
1.24182 -0.52955 3.10432 89 154 132
-0.45905 -0.512964 3.03827 133 172 170
-0.321765 -0.513319 3.05178 96 166 153
-0.275789 -0.514575 3.05515 163 231 206
0.315099 -0.519487 3.08355 89 153 124
-1.54927 -0.49941 2.98223 217 255 251
-0.713333 -0.494576 3.02643 96 135 110
-0.537571 -0.495412 3.04025 123 147 145
-0.377597 -0.498328 3.05003 84 151 136
-0.407859 -0.495874 3.04609 137 210 188
-0.134619 -0.499827 3.06972 96 158 136
-0.0665364 -0.498969 3.07443 102 170 147
-0.486846 -0.489283 3.04026 114 156 145
-0.344692 -0.491435 3.04893 224 251 248
-0.68068 -0.476383 3.02991 119 174 155
-0.237295 -0.47954 3.05963 89 169 140
0.883409 -0.489275 3.11139 101 164 154
-0.64851 -0.465264 3.0335 108 148 130
-0.39016 -0.466852 3.04849 105 154 152
-1.59673 -0.456579 2.97594 164 220 215
0.756989 -0.474338 3.10912 128 178 168
-1.67067 -0.452592 2.97332 60 124 118
1.13444 -0.465568 3.11961 111 170 150
-0.501408 -0.444247 3.04418 122 148 125
-0.293165 -0.444696 3.06151 107 169 163
1.26033 -0.45458 3.11618 176 232 211
0.0198248 -0.445066 3.0813 98 147 133
-0.625558 -0.436286 3.03361 114 146 129
-0.711121 -0.43328 3.02395 112 156 125
1.25845 -0.448755 3.12102 121 180 166
-0.475278 -0.432666 3.04815 118 123 121
-0.245346 -0.434214 3.06326 89 169 138
-0.489988 -0.41862 3.0502 111 138 134
-0.105079 -0.421878 3.07513 94 169 153
-0.644745 -0.410155 3.03085 94 118 100
0.636593 -0.422822 3.11341 124 179 164
-0.65931 -0.408992 3.03388 110 140 129
1.29563 -0.422491 3.11581 228 249 240
-0.518182 -0.408504 3.04187 110 144 143
-0.444276 -0.401174 3.04766 74 140 135
-1.61946 -0.392177 2.97209 194 232 237
-0.531676 -0.398555 3.04131 140 171 168
-1.6343 -0.388898 2.97337 211 232 230
-0.709919 -0.393451 3.02194 92 118 112
-0.517162 -0.397064 3.04706 119 169 165
-0.613544 -0.391734 3.03455 131 174 171
-0.654257 -0.386741 3.02646 128 180 170
-0.654115 -0.379267 3.03331 73 126 112
-0.686325 -0.372511 3.0314 115 142 139
1.28371 -0.384414 3.13927 113 165 155
-0.596323 -0.367866 3.03794 101 151 133
-0.64852 -0.362886 3.03648 91 128 118
-0.675717 -0.354937 3.0328 67 105 93
-0.557761 -0.355699 3.04883 129 166 150
-0.539904 -0.351689 3.04627 52 78 54
-0.531302 -0.352567 3.04762 107 156 140
-1.61114 -0.339507 2.97402 220 244 234
-1.59577 -0.339902 2.97307 87 151 132
-0.57758 -0.343713 3.04265 76 111 107
-1.65116 -0.334164 2.97051 164 167 165
-0.70444 -0.338691 3.0312 58 106 100
0.0428183 -0.345579 3.09114 99 167 150
1.30038 -0.353268 3.14734 104 160 147
-0.438443 -0.339253 3.05213 100 157 142
-0.70356 -0.330565 3.03285 124 192 175
-0.668123 -0.330717 3.03112 70 122 104
0.586163 -0.339661 3.12623 212 247 243
-0.712103 -0.326885 3.03707 69 105 99
-0.713244 -0.318529 3.03795 141 198 189
-0.614318 -0.314222 3.04645 150 198 192
0.133816 -0.322883 3.10214 98 167 134
-0.597168 -0.313818 3.04173 127 174 165
-0.553125 -0.3144 3.04454 143 204 184
-0.259771 -0.313837 3.06881 79 169 134
-0.709553 -0.309476 3.0331 73 114 107
1.30113 -0.322559 3.15602 85 141 118
-0.51624 -0.309214 3.05041 203 235 240
0.0817143 -0.312144 3.10006 90 154 124
-0.641603 -0.302193 3.03897 84 131 123
-0.580249 -0.303942 3.04762 61 107 85
-0.545974 -0.304463 3.04329 162 205 196
-0.641578 -0.302095 3.03937 84 131 123
1.13696 -0.307787 3.15462 92 183 150
-0.581906 -0.294181 3.04334 134 200 188
1.02813 -0.30497 3.15036 81 143 129
1.33717 -0.306245 3.1607 116 178 160
-0.551537 -0.292728 3.04846 80 141 127
-1.64899 -0.284556 2.96946 79 139 115
-0.702785 -0.287916 3.03077 144 174 161
-0.625303 -0.284766 3.04303 169 227 216
-0.629649 -0.27785 3.04147 90 150 140
1.27052 -0.290222 3.15484 89 134 118
1.19318 -0.2856 3.15978 111 176 154
-0.569805 -0.265998 3.04408 83 144 124
1.15914 -0.269566 3.14976 237 243 242
-0.690091 -0.255509 3.03242 50 77 61
1.3539 -0.266976 3.16926 95 169 143
-0.663818 -0.25283 3.02958 58 97 72
-0.646277 -0.253124 3.04175 153 220 215
1.37793 -0.262281 3.16607 87 138 110
-0.646253 -0.247676 3.04029 104 173 158
-0.589019 -0.247997 3.04015 100 158 140
0.384813 -0.25642 3.12592 79 154 132
0.198596 -0.248829 3.11087 99 169 146
1.21608 -0.252089 3.16226 233 245 239
1.25603 -0.24984 3.16825 249 255 254
1.09461 -0.243747 3.16517 90 103 95
1.11929 -0.245098 3.16187 117 136 144
-0.643892 -0.23289 3.03612 87 132 129
0.566469 -0.24085 3.1358 100 160 142
-1.56999 -0.226735 2.96938 91 155 143
1.07656 -0.24038 3.16218 101 138 128
-0.667727 -0.228117 3.03757 148 187 185
1.22923 -0.239201 3.16901 152 155 153
0.549442 -0.234494 3.14076 101 163 147
1.07008 -0.234301 3.15772 160 221 193
1.26477 -0.228183 3.16665 185 211 218
1.29734 -0.23092 3.17121 154 201 185
-1.49098 -0.212741 2.9808 61 84 70
1.35544 -0.226781 3.17274 194 224 219
-0.707578 -0.214897 3.04056 142 179 177
1.09145 -0.221154 3.1678 214 230 219
-1.48536 -0.208158 2.98106 218 232 214
1.06911 -0.220111 3.16528 118 139 140
1.45431 -0.222811 3.1836 159 225 206
1.07118 -0.219468 3.16756 116 140 140
1.28484 -0.218965 3.16937 154 207 180
1.43947 -0.216703 3.18063 69 111 93
-0.124822 -0.204332 3.088 236 252 241
1.27405 -0.212433 3.16754 208 203 204
-1.51446 -0.198108 2.97379 227 245 228
-0.556202 -0.202645 3.05079 78 148 108
-0.762101 -0.19584 3.03018 161 210 212
-0.28184 -0.197133 3.08013 89 139 139
1.06769 -0.205076 3.17524 148 174 191
-0.66354 -0.193396 3.03587 87 158 132
1.04011 -0.200607 3.16853 188 223 233
1.50874 -0.202689 3.1918 98 160 142
-0.71722 -0.183165 3.03123 166 231 209
-1.47801 -0.17968 2.97233 89 144 129
1.28068 -0.191942 3.1633 68 93 79
-1.6131 -0.175163 2.95974 87 152 136
-1.61168 -0.174695 2.96087 94 156 140
1.30018 -0.184908 3.1649 157 234 200
0.683056 -0.181255 3.15714 90 154 132
-0.666911 -0.166082 3.03954 99 166 145
1.23601 -0.175286 3.16505 76 119 86
0.932253 -0.171026 3.16403 164 231 210
1.31592 -0.170979 3.1761 101 175 149
1.34294 -0.171269 3.17535 190 217 207
1.32115 -0.167285 3.16725 174 255 221
1.07212 -0.166235 3.17161 120 129 143
1.32833 -0.162346 3.16956 112 175 149
1.48432 -0.163123 3.20055 63 89 73
1.23286 -0.158966 3.16446 149 236 192
1.50388 -0.161014 3.20186 111 153 122
1.05153 -0.151009 3.16552 123 138 157
1.25684 -0.154184 3.16575 86 107 85
1.33572 -0.152334 3.17219 87 158 138
1.35942 -0.153477 3.1771 114 172 154
0.889302 -0.150645 3.1698 67 93 93
1.26243 -0.149009 3.17474 133 199 158
1.50092 -0.151919 3.193 65 100 86
0.964778 -0.146461 3.16819 185 204 219
-0.768648 -0.137399 3.03684 100 154 141
0.880157 -0.142474 3.16925 151 170 175
0.993897 -0.142512 3.16157 248 255 255
-0.580964 -0.132686 3.04874 82 160 129
-0.4094 -0.132731 3.06698 76 157 130
1.05358 -0.136417 3.16543 129 139 157
1.26626 -0.131683 3.16558 102 161 133
-0.574181 -0.122806 3.0488 77 147 107
0.971587 -0.129199 3.16031 201 227 244
0.885475 -0.126623 3.16971 251 255 255
1.06548 -0.128438 3.1821 179 191 203
-1.46083 -0.113796 2.96706 84 154 141
0.243872 -0.11458 3.13354 93 164 131
-0.729481 -0.11012 3.0355 92 143 139
0.278195 -0.111376 3.13798 64 131 94
1.49128 -0.111992 3.20342 142 157 149
0.916918 -0.107447 3.16778 92 89 115
0.964534 -0.106349 3.16762 108 115 140
0.91762 -0.105648 3.17451 93 95 125
0.963241 -0.10619 3.16857 98 112 131
1.06021 -0.104918 3.17758 191 210 217
1.55397 -0.105928 3.2203 172 202 207
-0.723897 -0.0930859 3.03256 70 135 110
1.09117 -0.094286 3.17754 118 138 149
0.969898 -0.0933263 3.17109 128 132 150
1.53998 -0.0905895 3.21448 82 110 90
0.241983 -0.0820354 3.13287 87 144 123
-0.0590227 -0.0720258 3.10389 202 239 235
1.1987 -0.0692018 3.18393 131 193 163
1.51785 -0.0720518 3.20509 98 112 108
1.00005 -0.0653284 3.18002 196 200 211
1.00452 -0.057224 3.18326 220 234 233
0.45621 -0.0504139 3.16084 95 165 148
0.991014 -0.0486472 3.1805 117 125 148
-0.424034 -0.0318446 3.06587 91 161 138
-0.695978 -0.0229321 3.0393 82 141 127
1.10291 -0.0196363 3.18875 182 201 216
0.31708 -0.0108354 3.15311 78 141 115
-0.636921 -0.00234084 3.04376 80 150 127
0.972814 4.3965e-05 3.18465 146 160 183
1.0449 0.00499281 3.18126 99 115 128
-1.20593 0.00877275 2.98554 89 157 126
0.928876 0.0325741 3.19358 255 254 254
0.949961 0.0309752 3.18687 216 242 255
1.03745 0.0292174 3.19744 187 238 218
-0.713616 0.0338751 3.03971 98 174 150
1.03167 0.0424301 3.19522 204 220 219
-1.25226 0.0484944 2.97652 96 137 122
1.46699 0.0528951 3.25003 121 184 174
1.00648 0.0536045 3.19086 118 133 159
1.1326 0.0571497 3.21362 182 203 204
0.374308 0.0590089 3.16496 87 147 136
-0.698377 0.0608235 3.04122 97 170 154
0.00595758 0.0624913 3.12178 81 150 123
-0.211614 0.0670834 3.09213 95 157 145
1.13768 0.0727776 3.21633 134 209 171
1.1186 0.0730514 3.21013 120 196 155
1.27646 0.0823525 3.21578 144 151 160
1.09455 0.0832283 3.20393 170 220 202
1.05106 0.0855088 3.20345 249 253 254
1.04628 0.0939917 3.21117 255 255 255
1.16739 0.0950927 3.21987 185 218 211
1.12864 0.0975455 3.21381 158 225 193
0.349592 0.0989186 3.16526 98 175 154
1.06229 0.103031 3.21601 243 252 255
-0.891358 0.0998188 3.0199 73 119 97
1.38788 0.109626 3.25451 143 151 180
-0.879812 0.104524 3.01986 72 140 115
1.12752 0.112022 3.22088 122 159 155
0.940272 0.115704 3.21399 255 255 255
1.0674 0.116598 3.21942 124 132 155
1.21511 0.117629 3.23916 173 177 182
0.983568 0.121077 3.21462 73 80 100
1.07084 0.128281 3.21942 107 125 148
1.46034 0.131081 3.26673 122 173 166
-0.989658 0.126298 3.00527 93 158 137
1.43026 0.139254 3.26803 128 174 168
-0.819595 0.132194 3.0216 162 227 202
1.11572 0.137599 3.21223 157 183 190
1.45826 0.145684 3.27376 236 255 255
-0.999702 0.135879 3.00386 75 149 121
0.794111 0.1491 3.21067 209 240 241
1.48417 0.151685 3.27618 126 182 177
-0.98423 0.143004 3.00087 56 131 109
-0.919489 0.142983 3.01404 153 224 197
1.27285 0.159033 3.2532 160 176 192
1.14082 0.162494 3.23035 115 107 124
1.15144 0.162848 3.2375 187 213 220
1.07354 0.165134 3.23027 248 252 253
1.14292 0.164382 3.23558 100 101 122
-0.859032 0.158058 3.02614 255 254 255
-0.434376 0.158711 3.06853 93 160 139
-0.50334 0.163107 3.0625 83 150 129
1.06803 0.170639 3.22841 181 188 203
-1.27077 0.15961 2.96804 96 145 125
1.30629 0.176392 3.25619 144 168 174
1.04927 0.184894 3.2321 194 184 197
1.36663 0.189233 3.27316 107 149 138
0.0903116 0.1856 3.14018 93 159 140
-0.217786 0.18939 3.0998 105 171 152
-1.12825 0.192944 2.98308 93 152 137
1.30046 0.212362 3.26561 135 158 173
0.460148 0.219391 3.19203 85 160 139
-1.11386 0.209828 2.98221 75 146 129
-0.791735 0.215113 3.02911 83 143 119
-0.822657 0.225973 3.02334 89 143 130
-0.832747 0.228282 3.01566 93 157 128
-1.37116 0.225582 2.94958 63 127 108
-0.843898 0.232395 3.01188 97 138 133
-1.02644 0.235914 2.99791 95 150 157
-0.942909 0.235254 3.00815 84 155 135
-0.844364 0.235418 3.01902 71 127 116
-0.241835 0.247997 3.09913 213 255 248
-0.556062 0.250811 3.06002 75 135 117
-1.21671 0.246286 2.96666 89 163 137
0.908852 0.267871 3.2398 253 255 254
1.09299 0.270434 3.25482 126 168 180
-1.0558 0.250044 2.98838 92 155 145
1.02278 0.276887 3.24999 241 255 255
-1.07099 0.260964 2.98672 79 146 139
1.60265 0.29981 3.32547 253 255 254
1.08454 0.298301 3.26387 254 255 253
0.465167 0.293777 3.20295 70 137 128
0.816123 0.296689 3.23566 222 252 247
-0.754927 0.283242 3.03193 93 157 145
1.13317 0.307111 3.26989 247 255 254
-0.0932196 0.296971 3.1207 91 166 145
-0.748678 0.295169 3.03374 65 127 105
1.31101 0.320568 3.29143 96 154 143
-1.09769 0.293603 2.9844 110 175 153
-1.1283 0.301341 2.9781 99 165 140
1.60048 0.338609 3.33665 105 164 149
-0.742436 0.309316 3.0269 122 188 163
1.00215 0.334799 3.25625 102 162 144
1.15405 0.352027 3.27697 94 153 139
-0.80741 0.327429 3.02166 78 138 132
-1.10579 0.324291 2.97618 86 147 137
0.955928 0.354619 3.25801 88 160 140
0.881261 0.35671 3.2429 91 160 133
-1.06114 0.335392 2.98372 99 165 140
0.895696 0.378043 3.25108 83 148 126
0.98739 0.384564 3.26127 107 166 145
-0.604529 0.361314 3.05256 84 163 136
0.883628 0.385579 3.25397 91 153 139
0.884926 0.386933 3.25709 91 153 139
1.00093 0.388482 3.26972 87 149 127
0.995798 0.391019 3.26631 159 226 197
0.98915 0.398002 3.26972 83 147 125
-0.355494 0.376138 3.08516 79 143 124
1.057 0.403667 3.26572 100 127 111
1.1602 0.406948 3.29027 89 134 117
-0.321112 0.385606 3.09446 79 156 129
1.05987 0.407229 3.27402 102 154 136
-0.761775 0.386291 3.02852 72 138 113
1.11141 0.420475 3.28084 83 147 118
-0.49548 0.402556 3.06597 101 172 155
-0.378412 0.404539 3.08703 175 226 212
0.486011 0.422358 3.21997 77 138 124
0.516386 0.424245 3.22498 78 148 135
-1.0323 0.39686 2.9793 242 255 255
0.573105 0.432494 3.22986 96 161 146
1.05158 0.440065 3.27578 90 142 112
1.1063 0.446834 3.28158 202 212 252
-0.945058 0.412256 3.00057 80 134 129
0.991126 0.455103 3.27019 91 150 129
1.14107 0.457464 3.2931 66 136 96
-1.19781 0.414781 2.96652 96 154 136
-0.919163 0.420097 3.00257 98 163 148
1.1154 0.461357 3.29622 201 237 223
1.18423 0.458186 3.2949 70 138 103
-0.398567 0.434296 3.08063 83 158 137
1.01228 0.464016 3.27395 103 170 143
1.11192 0.469535 3.28467 85 126 98
1.10681 0.473826 3.28397 153 231 194
1.18335 0.47879 3.30212 109 174 148
-0.916319 0.436997 2.99692 89 133 126
-0.50181 0.448015 3.06767 88 161 135
-1.00787 0.440777 2.99131 84 134 124
-0.629927 0.446221 3.04337 96 154 130
1.12194 0.484457 3.28674 98 182 147
0.49864 0.476873 3.22624 81 143 129
1.05747 0.488507 3.28528 96 138 127
1.17285 0.489285 3.30512 78 138 120
1.05823 0.488964 3.28623 98 143 134
-0.691586 0.455738 3.0369 84 156 136
0.501474 0.485609 3.22638 148 224 200
-0.950519 0.454701 3.00131 105 159 152
-0.992841 0.455262 2.9863 88 140 123
-0.972847 0.457484 2.99101 252 255 251
1.06137 0.507971 3.28797 91 157 128
-0.952091 0.466 2.99763 107 169 155
-0.406008 0.481369 3.0805 96 148 141
1.09723 0.51242 3.29631 98 159 131
0.872578 0.51132 3.26819 168 232 203
-0.66294 0.477821 3.04061 70 130 106
1.08111 0.520723 3.2975 75 150 122
1.08043 0.519601 3.29504 108 181 155
1.01075 0.522195 3.28396 107 175 164
1.33524 0.535956 3.34104 95 170 148
-1.00877 0.485439 2.98464 96 150 137
0.898991 0.532984 3.26624 76 107 78
-0.537577 0.502261 3.05674 61 126 105
-1.08164 0.4958 2.97307 79 141 119
0.530409 0.550901 3.23657 82 152 129
1.05417 0.570557 3.29633 105 172 151
1.3016 0.579476 3.34325 222 255 242
1.3042 0.581751 3.34799 215 255 242
-1.02206 0.537261 2.97831 100 165 144
0.112527 0.572964 3.1675 97 151 151
-0.89446 0.551446 3.00376 92 161 134
-0.587608 0.560819 3.04995 100 161 157
1.1662 0.613146 3.32899 80 146 117
1.14508 0.615396 3.32704 168 237 194
-0.581155 0.565538 3.05108 184 229 232
-0.444306 0.572333 3.07255 155 224 197
-0.450891 0.577656 3.07416 85 165 134
0.877267 0.624885 3.28605 77 134 113
0.917223 0.621099 3.28559 147 227 198
1.51012 0.642197 3.38297 92 151 123
0.911123 0.626743 3.29122 148 230 195
1.0568 0.632591 3.31239 104 179 151
0.918826 0.632171 3.29163 100 169 142
1.33177 0.655753 3.36442 76 152 128
1.48831 0.661991 3.38157 102 153 145
0.916566 0.655299 3.29492 53 108 89
1.57512 0.676948 3.40501 87 151 122
1.38388 0.672038 3.37508 107 184 157
0.751915 0.679848 3.28132 106 165 151
0.466621 0.675043 3.23625 95 155 145
1.08494 0.719989 3.3339 169 236 205
1.51062 0.736722 3.39975 108 178 172
0.151915 -1.32316 2.94867 234 255 255
-0.939241 -1.32808 2.96868 81 138 117
-0.915707 -1.33252 2.98339 115 140 166
-1.02397 -1.31489 2.95724 92 154 130
-0.838221 -1.31635 2.98182 103 144 153
-1.62218 -1.32246 2.99584 92 138 139
-0.934384 -1.3065 2.97508 72 121 113
-1.10874 -1.29609 2.96494 253 252 254
0.661967 -1.28395 2.92788 189 236 227
-0.99947 -1.28581 2.96545 76 128 104
-0.341682 -1.28343 2.97311 107 168 158
-0.890694 -1.28058 2.98564 120 149 176
-0.837995 -1.27497 2.98101 228 241 239
-0.999004 -1.26767 2.97417 66 115 117
-0.0634041 -1.25833 2.97527 230 255 255
-1.39411 -1.24436 2.97874 253 255 255
-1.19457 -1.23622 2.96483 112 170 152
0.146527 -1.23721 2.97205 220 252 255
-0.063748 -1.23704 2.97483 223 255 255
-0.292156 -1.23444 2.97691 92 157 148
0.02964 -1.2317 2.97379 236 255 255
-1.23038 -1.22792 2.97758 226 247 249
-0.651909 -1.22969 2.99532 89 146 145
0.749768 -1.20762 2.94189 112 162 152
-0.897828 -1.22023 2.98443 156 229 213
-1.01371 -1.21489 2.98536 84 135 121
-1.19522 -1.20933 2.97854 103 168 146
-1.05914 -1.21183 2.98158 63 101 89
-1.22037 -1.20887 2.98334 103 149 143
-0.853924 -1.20895 2.98723 91 147 118
-0.882316 -1.20275 2.99172 79 125 119
1.02192 -1.16923 2.92937 109 167 156
-0.0955527 -1.18719 2.98797 244 255 255
-0.733751 -1.18849 3.00238 80 161 122
-1.35014 -1.18263 3.00075 112 179 170
-1.26225 -1.18133 2.9882 127 171 178
-0.28353 -1.17514 2.9846 119 177 172
-0.0966199 -1.1755 2.98976 120 177 179
-1.03082 -1.17385 2.99339 90 139 131
-0.073465 -1.1685 2.98841 253 255 254
-1.33685 -1.16581 3.00342 223 255 252
-1.1589 -1.15811 2.99006 101 161 155
-0.325831 -1.15053 2.99722 233 255 251
-0.120172 -1.14817 2.99043 104 154 150
-1.25124 -1.14162 2.99964 149 199 175
-0.891296 -1.13714 2.98898 166 228 214
-1.0667 -1.13662 2.99004 66 124 89
-0.445369 -1.13216 3.00176 168 233 217
-0.765352 -1.13124 3.0057 92 163 147
0.922072 -1.11381 2.95345 122 175 148
-1.3412 -1.11615 2.99605 179 224 227
-1.22072 -1.10718 2.99035 151 196 200
-1.32027 -1.1114 3.00282 228 249 246
-1.22284 -1.10738 2.99637 160 203 212
-1.26567 -1.09929 2.9923 146 213 204
-0.0500714 -1.09982 2.99992 107 168 148
-1.1431 -1.09418 2.99667 172 225 222
-1.11081 -1.08778 2.99263 154 223 203
-1.30565 -1.0816 3.00093 121 176 161
-0.820576 -1.08556 3.00453 87 151 132
-0.59125 -1.08091 3.00998 102 153 149
-1.16536 -1.07412 2.99735 166 217 209
-1.31675 -1.06805 2.99893 215 229 205
-1.27472 -1.06939 2.99776 194 217 219
-1.17727 -1.07036 3.0032 113 147 141
-0.225787 -1.06328 3.00087 84 123 121
-1.32504 -1.05665 3.00141 81 133 126
-0.831585 -1.05822 3.00403 78 128 116
-1.32387 -1.0566 2.9988 97 149 142
-1.30558 -1.05419 2.99977 247 255 254
-0.791021 -1.05434 3.01051 102 159 150
-0.691733 -1.04849 3.00617 243 254 252
-0.367296 -1.05072 3.01265 94 141 132
-0.155946 -1.03908 3.00754 67 127 97
-0.571601 -1.03422 3.00495 83 139 128
-0.341633 -1.03358 3.01077 91 162 142
-0.479148 -1.03502 3.01096 105 169 147
-0.826029 -1.02549 3.01223 253 255 255
-0.28749 -1.02452 3.0064 83 145 131
-1.24317 -1.02165 2.99989 141 212 192
-0.401755 -1.022 3.01693 248 254 253
-1.06938 -1.01569 2.99342 122 165 154
-0.197344 -1.01625 3.00562 71 113 102
-0.398367 -1.01035 3.02105 255 255 255
-0.100277 -1.00633 3.01117 204 241 237
-1.20364 -1.00029 2.99668 84 126 115
-1.03687 -0.994504 2.99424 250 255 255
-0.945883 -0.99653 3.00207 68 89 141
0.180008 -1.00227 3.01154 105 168 148
-0.773867 -0.99388 3.0035 240 247 244
-0.926971 -0.988934 3.00221 93 148 145
-0.226532 -0.988945 3.01216 110 163 166
-0.346746 -0.977494 3.0182 215 240 244
-0.384116 -0.972765 3.01952 242 254 254
0.0199479 -0.965815 3.02166 255 255 255
-0.35944 -0.962842 3.02174 204 240 234
-0.202728 -0.958144 3.0136 89 147 129
-1.30275 -0.933164 2.99893 172 226 219
-0.900578 -0.932863 3.00732 87 150 140
-0.0440093 -0.938401 3.01865 85 131 109
-0.0429475 -0.932507 3.0211 105 178 156
-0.156628 -0.928169 3.01804 77 138 110
-0.393194 -0.925503 3.01733 87 147 146
-0.311655 -0.926013 3.02155 112 181 168
-0.462206 -0.919969 3.02211 110 169 161
-1.381 -0.910775 2.99621 120 160 135
-1.42147 -0.904318 3.0001 80 99 84
-0.921527 -0.902053 3.00989 221 244 239
-0.908385 -0.90009 3.00574 147 221 209
-1.02231 -0.894374 3.00117 66 100 94
-0.667068 -0.895665 3.01546 94 147 138
-1.06041 -0.891053 3.00371 128 165 163
-1.35153 -0.881013 2.99873 120 176 157
-1.33485 -0.882072 3.00059 147 200 187
-1.31409 -0.879211 3.00216 89 129 117
-1.03709 -0.881136 3.00542 116 165 157
0.89309 -0.882396 3.02232 95 172 138
-0.727371 -0.873084 3.00537 120 185 194
0.98653 -0.869414 3.01771 227 255 255
-0.856844 -0.861323 3.00592 90 149 134
-0.665167 -0.863108 3.01485 212 247 255
-0.387847 -0.867909 3.02978 188 229 238
-1.36907 -0.846256 2.96899 160 220 179
-0.579687 -0.858428 3.01164 79 138 123
-1.33065 -0.846964 2.98216 123 160 140
-1.13611 -0.851303 3.00557 78 139 125
-0.580845 -0.857768 3.02424 91 152 124
-1.32236 -0.843441 2.99435 73 109 92
-1.32234 -0.828978 2.99231 115 180 141
-1.11915 -0.831003 3.00303 118 168 166
-0.867353 -0.832903 3.01151 226 255 255
-1.3836 -0.822961 2.97225 120 197 176
-1.30295 -0.826405 2.99453 53 107 94
-1.16918 -0.826631 2.99823 110 160 158
-1.2775 -0.822672 2.99362 73 116 103
-1.04559 -0.824488 3.00962 118 162 163
-0.396183 -0.833173 3.03 96 161 139
-1.32946 -0.817355 2.98231 120 172 162
-0.312856 -0.828732 3.033 84 137 128
-1.22938 -0.811568 2.99741 94 147 138
-0.693104 -0.815175 3.01638 194 235 244
-1.12866 -0.806135 2.99708 85 125 124
-0.938959 -0.80959 3.01183 219 245 245
-0.732598 -0.809514 3.01333 170 224 231
-1.22196 -0.805143 3.00385 157 213 208
-0.693784 -0.799995 3.00858 105 153 141
-1.36037 -0.791974 2.97646 142 195 182
-1.34119 -0.792719 2.98215 144 207 187
-1.19585 -0.797032 2.99552 186 224 229
-0.274233 -0.804339 3.03784 190 234 241
-0.91727 -0.79554 3.01251 167 222 205
-1.28653 -0.786981 2.99525 91 112 90
-0.833113 -0.79196 3.01192 88 153 131
-0.67819 -0.787202 3.01816 58 94 82
-0.596221 -0.788719 3.0192 74 129 112
-1.16202 -0.779567 2.98463 112 154 136
-1.15608 -0.780923 2.99811 250 255 255
-0.878942 -0.784679 3.01166 243 255 255
-0.653392 -0.780374 3.01853 73 104 89
-0.97424 -0.774338 3.00734 59 79 67
-0.782326 -0.769062 3.01457 135 199 177
1.03719 -0.781685 3.04265 120 180 170
-0.487406 -0.771696 3.01884 61 105 92
-0.425141 -0.766663 3.03482 162 209 217
-0.713439 -0.758778 3.01675 79 134 117
-0.488714 -0.757397 3.02533 150 201 204
-0.404818 -0.761295 3.0324 185 224 232
-0.436511 -0.7614 3.03834 159 206 210
0.396338 -0.762313 3.04404 96 168 125
-0.403669 -0.75691 3.04232 97 137 126
-0.899103 -0.746253 3.0116 194 230 236
-0.889266 -0.746386 3.01249 113 155 154
-0.722105 -0.746581 3.01193 139 203 191
-0.383982 -0.753974 3.03694 111 156 153
-0.791279 -0.740551 3.01129 126 182 171
-1.57279 -0.737023 2.99298 133 181 163
-1.38911 -0.727781 2.96077 34 74 39
-0.230475 -0.748474 3.04432 108 171 139
-0.915796 -0.724685 2.99704 98 140 122
-0.814948 -0.720785 3.01268 98 145 119
-0.98539 -0.712792 2.9965 127 176 148
-0.973008 -0.715148 3.00122 83 112 97
-0.912338 -0.709864 3.00724 51 83 64
-0.986521 -0.696894 2.99996 126 189 169
0.603647 -0.711919 3.05519 122 242 231
-0.967144 -0.695366 3.00679 83 107 99
-0.987722 -0.689598 3.00951 71 89 72
-0.929247 -0.678127 3.00619 128 181 201
-0.132261 -0.686671 3.0474 104 175 159
0.592211 -0.689564 3.05125 139 211 164
-0.972857 -0.673805 3.00556 116 167 159
-0.990097 -0.665279 2.99943 50 64 52
0.909929 -0.681832 3.07032 117 172 153
-1.65284 -0.645863 2.97303 142 185 206
-0.503833 -0.657462 3.03156 138 191 178
-0.478485 -0.657271 3.03564 76 128 135
-0.48897 -0.65444 3.02919 173 227 234
-0.363806 -0.657291 3.04015 72 143 116
-1.68534 -0.643788 2.98691 128 181 172
-0.0244364 -0.658199 3.06037 89 175 141
1.39625 -0.656939 3.0624 255 255 255
-1.62871 -0.630511 2.96358 119 166 163
-0.988389 -0.63624 2.99865 89 126 106
-0.57108 -0.636078 3.02912 102 110 99
-0.403503 -0.636794 3.04484 129 176 168
-0.394457 -0.631734 3.04337 80 106 83
-1.54627 -0.615899 2.983 65 89 87
-0.989124 -0.614884 2.99697 101 113 107
-0.384375 -0.623275 3.04388 140 201 181
1.04432 -0.631342 3.07934 95 162 141
-0.417361 -0.618013 3.0399 99 134 107
-0.901843 -0.611487 3.01013 114 152 146
-0.371842 -0.610875 3.0438 59 91 72
-0.63585 -0.602412 3.0264 100 136 120
-0.616457 -0.595518 3.02904 116 165 149
1.25238 -0.607659 3.08666 98 175 147
-0.376178 -0.58805 3.04119 137 196 181
-1.57712 -0.574031 2.98325 160 202 221
-0.911262 -0.578558 3.01173 121 125 113
-1.67616 -0.563292 2.9611 138 225 181
-0.365647 -0.576587 3.04419 73 132 118
-0.626735 -0.570213 3.03148 118 177 139
-0.656827 -0.563943 3.02678 134 186 156
-0.252917 -0.565597 3.05211 92 155 135
1.10638 -0.574413 3.08997 109 184 162
-1.60448 -0.545591 2.97594 97 142 123
-0.827828 -0.548057 3.01377 95 139 122
-0.549888 -0.550831 3.03696 123 164 149
-1.5926 -0.538827 2.98073 220 249 255
-0.813383 -0.54008 3.02031 97 109 103
-0.638664 -0.539237 3.02792 144 182 164
-0.544022 -0.540126 3.03338 154 203 201
-0.628443 -0.533022 3.03021 108 131 109
-0.602455 -0.534038 3.02954 84 107 93
-0.534292 -0.527953 3.03066 147 201 202
-0.394593 -0.531478 3.04063 71 100 85
-0.681274 -0.52162 3.03138 128 168 166
-0.27998 -0.522109 3.05512 115 152 136
-0.692091 -0.509929 3.02942 105 138 131
0.438116 -0.520997 3.08862 63 119 100
-1.32642 -0.468521 2.87786 90 77 85
-0.707848 -0.490823 3.02977 110 170 139
-0.345199 -0.491348 3.04997 218 247 244
1.23661 -0.500076 3.11233 107 161 154
-1.52712 -0.467613 2.98482 133 151 158
-0.464948 -0.475732 3.04417 126 172 166
-0.693757 -0.460006 3.02689 52 77 57
-0.473968 -0.46349 3.044 131 182 154
-0.41276 -0.464896 3.03719 97 140 127
-1.59182 -0.443888 2.96742 250 252 252
-0.632986 -0.454859 3.02629 90 122 105
1.13432 -0.46397 3.11779 126 188 164
1.25725 -0.456346 3.11402 200 244 231
-0.639151 -0.442477 3.03444 118 173 146
1.22292 -0.454453 3.11822 104 168 156
1.22951 -0.448718 3.12059 113 163 153
-0.474589 -0.432825 3.04709 123 128 126
1.16713 -0.424375 3.12485 138 187 173
-0.659517 -0.408623 3.03571 97 131 120
-0.522632 -0.407868 3.04487 118 158 157
-1.61831 -0.392573 2.97011 194 232 237
-1.63433 -0.389414 2.96935 204 225 226
-0.725594 -0.38771 3.03085 52 71 50
-0.653663 -0.386175 3.02604 122 175 165
-0.518861 -0.359381 3.04434 84 124 99
-0.635681 -0.347605 3.03445 63 107 76
-0.649559 -0.343488 3.03661 120 178 160
-0.608675 -0.332459 3.03395 126 189 180
-0.581857 -0.314734 3.05226 150 194 188
-0.700798 -0.306349 3.03214 159 208 218
-0.579877 -0.303863 3.04784 58 104 82
-1.65797 -0.295231 2.96051 146 194 170
-0.697209 -0.288535 3.032 49 83 73
1.29258 -0.30271 3.15383 86 151 130
1.26698 -0.29594 3.15271 100 134 123
-0.629206 -0.278644 3.03818 89 149 138
1.36738 -0.291758 3.16669 111 155 154
-0.588458 -0.267107 3.04026 77 123 111
0.351604 -0.260764 3.12205 87 156 136
1.37793 -0.262281 3.16607 87 138 110
1.073 -0.240168 3.16 105 146 138
1.28684 -0.243831 3.17079 116 137 138
1.31986 -0.24057 3.17523 88 167 158
0.98959 -0.233806 3.16729 242 255 251
-1.45027 -0.210404 2.97184 65 144 103
1.25068 -0.224601 3.16073 115 116 130
1.28354 -0.219546 3.1671 154 207 180
1.45421 -0.222804 3.18366 159 225 206
1.48288 -0.212567 3.18903 97 164 143
-0.745274 -0.188361 3.03059 103 164 150
1.33566 -0.202963 3.17673 206 215 218
1.31744 -0.188603 3.17026 94 159 134
-1.61174 -0.174667 2.96097 94 156 140
0.100919 -0.171742 3.10894 90 164 138
-0.663648 -0.165454 3.037 97 165 142
1.2458 -0.173478 3.15941 159 231 188
0.357618 -0.168087 3.1374 92 156 134
0.236056 -0.152361 3.13107 105 160 141
1.05394 -0.150261 3.16793 93 94 114
1.47579 -0.153454 3.19248 69 118 98
-1.6488 -0.135463 2.95355 189 234 238
0.880154 -0.141816 3.17189 103 132 141
0.981035 -0.130805 3.16636 101 107 148
1.27818 -0.130126 3.17686 89 137 119
0.972713 -0.128531 3.16265 202 230 247
1.0652 -0.114352 3.17674 105 111 118
0.278984 -0.11111 3.13875 77 146 109
0.949158 -0.112513 3.16771 205 226 228
1.54798 -0.107049 3.21595 160 200 198
0.976216 -0.0980802 3.17052 223 232 236
1.50132 -0.0991912 3.19883 137 194 169
1.53873 -0.0913242 3.21186 82 110 90
1.12259 -0.0847826 3.16385 150 165 174
0.909914 -0.0810252 3.18041 112 140 164
1.19025 -0.062298 3.17739 64 97 90
1.00273 -0.0597115 3.1746 241 252 250
1.04037 -0.056123 3.16402 143 169 163
-0.402052 -0.043473 3.06597 93 153 135
1.40964 -0.047466 3.2103 116 135 126
1.22642 -0.0303618 3.17476 178 198 193
0.316166 -0.0118983 3.14983 76 137 109
-1.20609 0.00902046 2.98625 89 157 126
1.28578 0.0350756 3.21994 123 120 135
-0.640121 0.0474507 3.04423 101 163 145
1.17567 0.0474152 3.20241 212 228 240
1.35943 0.055163 3.22515 183 177 194
-1.25819 0.0549733 2.97576 255 255 255
1.11999 0.0745045 3.21454 122 203 164
0.978851 0.0771719 3.20022 129 160 193
1.10734 0.0865708 3.20911 69 98 82
1.11827 0.0906321 3.21545 146 195 175
1.28841 0.0878107 3.22811 141 141 153
1.12514 0.105877 3.21515 111 141 136
1.17235 0.10762 3.21669 108 141 127
0.980074 0.113102 3.21028 141 163 188
1.12682 0.111153 3.21831 119 153 147
1.08459 0.123738 3.22372 163 179 195
1.45826 0.145684 3.27376 236 255 255
1.48392 0.151507 3.27568 128 182 177
1.15996 0.158195 3.24045 219 235 247
0.449689 0.172937 3.18981 95 153 142
1.30823 0.178006 3.26066 152 178 184
1.12074 0.185336 3.2322 177 193 206
1.18467 0.197587 3.24104 133 149 166
1.29819 0.206683 3.27202 148 169 184
1.34389 0.217457 3.27237 253 255 255
0.892749 0.246214 3.23405 255 255 255
-0.893745 0.244268 3.01288 179 224 228
-0.153423 0.258877 3.11316 118 198 175
1.12277 0.28171 3.26622 119 147 164
1.5308 0.29575 3.31653 127 171 184
1.08316 0.297198 3.26116 251 255 254
-1.36031 0.279314 2.94632 91 146 143
-0.985131 0.291368 2.99987 92 155 129
-0.603025 0.308579 3.05192 88 158 128
-0.940844 0.322634 3.0047 147 202 185
0.880647 0.353861 3.23648 103 175 152
-1.11973 0.332501 2.97442 103 163 145
0.884218 0.385698 3.25417 95 158 142
1.05763 0.391402 3.26963 252 255 253
1.02964 0.415482 3.27466 85 135 111
1.11133 0.420473 3.28084 83 147 118
-0.0115731 0.411232 3.13759 91 167 155
1.1433 0.431339 3.29086 97 160 120
-1.03214 0.397098 2.97976 242 255 255
1.1095 0.441119 3.28303 75 132 124
1.23289 0.447953 3.30501 88 125 105
-1.11975 0.410258 2.9692 80 144 132
-1.19726 0.414752 2.96638 98 157 137
-0.809272 0.425062 3.02116 79 135 114
1.14513 0.483252 3.30186 91 157 122
1.16864 0.489085 3.3052 73 128 111
1.05569 0.486953 3.28193 112 158 146
1.29134 0.4961 3.32528 94 165 132
1.00141 0.49611 3.28114 112 174 160
-0.728629 0.460549 3.02747 100 157 142
-0.406933 0.482292 3.08036 100 157 149
1.0805 0.520737 3.29712 75 150 122
0.84491 0.516907 3.26394 243 254 244
-0.635379 0.489694 3.04716 86 147 121
1.33511 0.535978 3.34112 95 170 148
1.22869 0.542654 3.32623 110 186 152
-0.537761 0.501335 3.05493 57 125 102
1.21428 0.569158 3.32717 83 157 131
1.05417 0.570557 3.29633 105 172 151
1.22713 0.586623 3.3288 91 166 144
1.29953 0.592343 3.34746 98 176 152
1.20804 0.598536 3.33162 96 162 137
0.920213 0.626352 3.29628 136 221 189
1.05944 0.633367 3.31434 82 162 131
0.816962 0.637057 3.27798 84 165 140
0.897794 0.682413 3.29653 88 151 119
1.5105 0.736055 3.39838 100 167 162
1.52929 0.739707 3.40866 95 138 125
-0.863436 -1.31054 2.97963 195 231 241
-0.735909 -1.30108 2.98566 72 108 116
-0.180066 -1.27665 2.96577 112 162 160
-1.11697 -1.26865 2.96468 225 247 245
-0.838978 -1.27543 2.98628 241 250 247
-1.06386 -1.26355 2.96122 90 152 112
-1.47228 -1.26921 2.98382 229 255 251
-1.25837 -1.25477 2.9761 133 193 175
-1.1438 -1.25099 2.97387 86 151 125
-0.795403 -1.25376 2.98712 75 132 124
0.153801 -1.23101 2.96827 227 255 255
-1.33891 -1.23431 2.98171 246 255 255
-1.48976 -1.2304 2.99376 119 168 160
-1.27145 -1.22471 2.98573 78 143 121
-0.266815 -1.22178 2.98432 210 246 254
0.750215 -1.20777 2.94392 112 162 152
-1.33922 -1.20663 2.98489 97 156 142
-0.095251 -1.18729 2.98982 251 255 255
-1.26258 -1.1814 2.98955 121 166 170
-1.33045 -1.18113 2.99763 101 170 159
-0.283413 -1.1752 2.98594 119 177 172
