ply
format ascii 1.0
element vertex 1323
property float x
property float y
property float z
property uchar blue
property uchar green
property uchar red
end_header
9.31897 0.116899 16.191 165 187 198
8.39617 0.225463 16.7178 70 79 82
11.2656 0.147075 15.2782 127 175 163
5.92717 0.309544 17.8972 97 145 139
8.45514 0.261073 16.4383 250 254 255
8.06355 0.30178 17.0978 154 185 186
7.14219 0.317884 17.735 102 156 149
9.18709 0.262877 16.2186 104 152 158
10.5412 0.241419 15.4468 210 224 223
10.1923 0.257199 15.5553 188 196 196
10.8262 0.245212 15.5629 153 163 163
6.00823 0.438955 18.5985 151 211 177
8.92708 0.335206 16.3504 83 142 144
10.0487 0.303173 15.5501 128 123 138
6.1786 0.469913 18.4398 139 197 162
10.3134 0.350871 15.6941 184 195 199
9.03261 0.40049 16.3077 80 155 163
8.75278 0.439166 16.2249 129 164 168
8.66092 0.476534 16.6165 211 250 252
8.78327 0.476015 16.5849 86 105 110
8.79597 0.491719 16.5314 168 202 202
10.3173 0.431836 15.7517 193 210 206
8.53942 0.536018 16.467 149 178 183
8.55388 0.566743 16.7437 138 161 156
9.08061 0.546598 16.6496 150 179 186
8.60624 0.578558 16.6574 185 210 206
9.59795 0.535004 16.0631 91 114 129
11.7794 0.454013 14.8027 144 229 177
8.27483 0.666505 16.7505 183 224 226
7.52776 0.753997 17.0012 76 128 111
7.67838 0.800156 17.5483 132 180 156
7.49523 0.81157 17.4528 124 177 144
4.9323 0.953685 18.9334 18 73 80
8.60991 0.791052 16.7094 181 222 231
7.1913 0.903453 17.5055 59 77 54
7.83705 0.877074 17.3351 148 190 183
6.89209 0.943914 17.8059 148 200 190
7.54944 0.945437 17.311 152 194 187
7.61753 0.975416 17.4796 80 114 107
9.46804 0.874028 15.98 112 156 173
8.71443 0.94222 16.3773 85 133 127
8.42487 0.991392 16.6045 95 117 112
9.95006 0.954195 15.8554 119 134 153
10.5857 0.941294 15.2283 197 233 227
9.37622 1.0413 16.2096 137 163 180
9.55928 1.02328 15.854 101 139 157
7.12734 1.2577 17.5036 150 198 174
9.54921 1.10404 16.0035 116 123 143
9.16307 1.14381 16.5189 230 251 252
6.89761 1.3077 17.7365 173 215 208
8.21716 1.21834 16.8318 154 173 188
7.93636 1.33558 16.8131 187 213 227
8.768 1.41641 16.5718 119 153 152
8.84657 1.42961 16.569 149 209 208
7.30575 1.6259 17.542 138 198 168
9.27087 1.56708 16.5461 88 150 168
3.53952 2.17473 20.6905 130 216 198
8.64428 1.63121 16.3693 199 231 244
9.81889 1.56644 15.7652 106 156 146
10.6997 1.5263 15.5889 158 194 178
5.90311 2.28772 18.8394 147 218 198
7.90609 2.0663 17.1425 161 192 213
4.36143 2.47722 19.6502 84 135 127
4.86453 2.44539 19.1681 68 121 94
8.61815 2.37534 16.7891 103 140 144
10.5694 2.41046 15.7968 140 150 157
9.09293 2.57241 16.2593 121 167 145
11.6426 2.39336 14.9029 80 152 132
11.2092 2.74277 15.2642 181 193 193
11.0537 2.77716 15.3816 62 63 83
9.83492 2.9218 15.8529 95 121 133
4.4793 0.943272 8.2612 57 83 53
10.5423 -6.78765 16.6736 113 129 158
10.4942 -6.68055 16.5194 140 156 193
13.8114 -5.01015 14.2918 175 201 217
10.8182 -5.28103 15.8347 249 254 253
10.1935 -4.69319 16.363 155 186 185
10.2113 -4.59692 16.2299 193 208 204
13.5662 -3.95344 14.3575 110 169 141
11.3127 -2.93056 15.1468 210 235 237
12.0823 -2.89469 15.1055 149 162 160
12.7317 -2.83851 14.7068 84 134 122
9.5315 -2.84099 16.3677 101 154 134
10.3236 -2.75999 15.9183 165 183 194
8.60336 -2.70397 16.7928 93 132 110
11.9289 -2.41012 14.7421 181 226 223
8.82935 -2.55668 16.8517 162 224 194
12.5859 -2.27367 14.5194 92 156 137
8.68961 -2.43571 16.7746 72 113 82
10.1219 -2.29747 15.9144 254 252 251
13.0559 -2.05162 14.1944 88 84 79
11.111 -2.13504 15.3078 136 135 144
8.28485 -2.23893 17.2426 213 252 244
8.69626 -2.12431 16.4875 156 211 166
9.56369 -1.99226 16.3332 225 233 233
11.003 -1.85996 15.5555 162 162 162
10.379 -1.8252 15.5343 187 183 188
10.4064 -1.80573 15.5587 123 135 137
11.7064 -1.80117 15.2309 234 252 245
11.2658 -1.79239 15.2666 79 94 96
11.0604 -1.80167 15.4762 139 136 145
10.5621 -1.65367 15.4724 164 161 170
9.46335 -1.66129 16.2213 138 157 170
9.28598 -1.51716 16.1119 96 122 116
12.0266 -1.42811 14.8252 146 150 161
7.88263 -1.5218 17.2767 170 201 180
8.17189 -1.52775 17.3056 86 135 127
8.04193 -1.49166 17.1243 78 92 81
12.141 -1.35521 14.7793 237 245 244
7.52276 -1.48119 17.4119 153 196 187
11.9752 -1.27828 14.7156 207 217 224
11.9413 -1.24861 14.6759 225 235 235
7.55715 -1.34268 17.3258 175 225 213
7.78633 -1.31455 17.0261 149 192 181
7.46489 -1.3381 17.5004 184 224 219
7.53706 -1.28635 17.1269 84 130 124
7.82042 -1.26383 16.9628 179 232 222
11.0731 -1.18653 15.244 96 156 145
8.95484 -1.03133 16.5384 89 140 126
7.44134 -1.01107 17.3162 122 165 150
5.06072 -1.06658 19.227 95 141 122
8.92641 -0.954477 16.3167 202 241 239
11.732 -0.889244 14.8605 128 146 139
10.4185 -0.887873 15.6383 207 207 207
11.0776 -0.886614 15.4506 122 178 165
8.05478 -0.845678 16.8602 59 80 77
8.99123 -0.814792 16.495 86 118 107
8.3019 -0.787632 16.8115 63 93 98
5.16177 -0.785394 19.0045 69 131 91
8.32796 -0.722192 17.0012 52 74 62
10.0546 -0.716572 15.6814 179 181 182
5.26744 -0.735736 19.4557 46 94 68
8.46703 -0.659369 16.8273 94 160 141
4.88038 -0.653975 19.5274 61 115 98
9.14322 -0.607961 16.4711 87 116 107
9.07186 -0.569626 16.387 96 133 129
9.26402 -0.572255 16.3032 78 94 93
4.98386 -0.501846 19.2277 137 203 174
8.84271 -0.480992 16.6116 120 160 148
10.5998 -0.424507 15.5718 148 153 156
11.5081 -0.431556 15.0831 172 195 191
10.5186 -0.409826 15.4725 124 127 132
4.27214 -0.375843 19.5804 120 164 157
8.15019 -0.367861 17.0011 185 226 219
9.32676 -0.365789 16.3944 138 176 176
10.5841 -0.380312 15.5704 145 148 152
11.6601 -0.385298 14.9878 83 142 128
10.0605 -0.29276 15.5736 127 117 117
8.21838 -0.214896 16.974 174 219 210
8.2339 -0.209898 16.7094 181 219 207
9.89278 -0.223467 16.0315 225 253 247
11.4961 -0.217849 15.0034 234 239 240
3.67513 -0.0840301 20.572 125 187 163
8.31088 -0.142647 16.7025 103 124 115
9.48278 -0.124364 16.042 214 237 239
11.2454 -0.151727 15.247 217 233 232
6.54947 0.0430036 18.0386 102 167 151
6.00881 0.0895202 18.3966 78 125 103
8.54098 0.11277 16.715 73 114 107
9.79599 0.108627 15.9861 123 144 141
5.78099 0.259648 18.726 104 143 145
9.8932 0.136682 16.1604 213 231 224
8.44826 0.234657 16.7812 165 183 184
10.007 0.213919 15.5512 125 144 149
2.65101 0.480207 20.8488 94 160 141
8.07242 0.35146 17.3108 102 127 137
8.51014 0.346022 16.5018 109 148 156
10.4176 0.279087 15.6448 95 142 134
6.25126 0.455027 18.1577 143 207 178
7.90535 0.427531 17.2229 214 248 248
9.28385 0.368564 15.8907 162 224 234
5.99188 0.517127 18.3755 90 148 113
6.03379 0.52513 18.351 161 208 176
6.77991 0.497129 17.864 117 156 148
9.77466 0.395481 16.1089 254 254 248
9.82727 0.390419 16.0651 237 249 249
10.0679 0.385174 15.7571 180 186 199
8.62221 0.471146 16.6013 127 179 186
7.5183 0.515139 17.1502 97 135 129
9.63741 0.44299 15.8781 184 218 217
8.35608 0.535182 16.9108 81 121 126
8.32679 0.533035 16.7114 210 239 243
8.52623 0.511247 16.6833 110 141 144
9.43866 0.505046 16.0097 85 129 136
7.35742 0.593349 17.0004 95 134 118
9.02628 0.550798 16.4389 173 242 252
11.6974 0.438884 15.0314 239 255 249
11.6906 0.447557 14.6809 126 208 156
11.7778 0.452673 14.8005 148 233 181
9.55007 0.549911 15.9911 182 211 226
11.738 0.467397 15.0419 100 150 132
3.9369 0.836126 19.818 68 117 79
8.55479 0.620974 16.6246 199 245 246
10.8266 0.552585 15.4916 102 134 129
6.01216 0.797396 18.4768 71 122 95
7.5731 0.73083 17.3392 142 188 169
9.13308 0.683096 16.0179 186 215 230
7.42321 0.796379 17.2497 145 201 166
8.95276 0.726758 16.3752 180 243 247
6.09795 0.96555 18.1572 102 182 147
9.29143 0.875614 16.3028 86 154 159
7.58973 0.974189 17.4174 80 114 107
8.68477 0.940243 16.5787 175 209 225
10.5269 0.854736 15.5897 173 229 218
8.38274 0.985852 16.5106 94 116 111
8.39506 1.01108 16.6179 201 226 228
8.90687 1.03401 16.4693 99 159 158
9.05651 1.02031 16.3716 240 255 255
8.2974 1.18539 17.0407 96 111 130
9.66095 1.08737 16.166 220 230 240
8.24542 1.18859 16.9535 73 83 93
8.37857 1.21796 16.9257 217 242 252
7.30205 1.31258 17.5298 107 158 144
9.59179 1.14143 15.9974 85 87 105
7.33746 1.31945 17.6279 104 155 141
11.1463 1.08605 15.2723 85 142 127
7.60594 1.38694 17.4777 87 140 127
11.6517 1.11735 14.8216 99 139 127
9.65624 1.27534 16.1335 127 158 173
9.84674 1.34621 16.1933 203 238 248
4.3828 1.81393 19.4757 106 160 125
6.4714 1.631 18.0269 169 228 220
8.22767 1.47591 16.7963 143 178 191
10.9301 1.3877 15.42 95 168 158
5.8505 1.81872 18.1848 79 140 114
8.69125 1.62616 16.4012 97 150 160
9.99001 1.5436 15.5362 80 122 111
10.6605 1.5187 15.5261 157 193 177
5.16244 2.13269 18.914 82 138 109
8.43814 1.88335 16.9711 117 150 170
7.88069 2.05827 17.0797 177 208 231
9.23459 2.11644 16.2001 88 146 135
9.24905 2.15194 16.2401 117 165 166
4.26986 2.85436 19.511 161 208 199
11.3628 2.12067 15.1313 144 198 181
9.08919 2.41416 16.445 91 138 122
10.5727 2.41099 15.8022 140 150 157
10.9543 2.34241 15.2673 116 142 154
10.0663 2.78965 15.9702 58 69 66
10.9149 2.65763 15.2959 171 190 197
15.0319 2.04464 12.4195 139 208 163
6.38378 3.32757 18.0708 81 147 118
9.85694 2.80769 15.7188 139 161 186
8.21221 3.03948 16.6842 187 235 209
9.96943 2.88994 15.9124 144 168 190
10.9681 2.85942 15.4418 86 100 112
11.1072 2.85553 15.1683 95 118 134
10.7517 -8.97776 17.17 101 172 155
12.4955 -7.65402 15.5492 216 254 248
12.7881 -7.84261 15.9442 223 255 252
6.26702 -9.56379 19.9592 124 151 142
9.55586 -7.92208 17.2404 100 167 152
5.63134 -9.12201 20.0727 133 167 161
5.75305 -8.98609 20.2441 124 157 166
10.5644 -7.08873 16.513 120 155 151
13.067 -6.38805 14.8408 107 123 112
12.1994 -6.64618 15.6632 121 180 159
12.2745 -6.68507 15.7681 102 160 142
4.64342 -8.62993 20.8295 240 255 248
10.5906 -6.93984 16.6297 196 225 230
10.2726 -6.77065 16.3589 115 131 147
11.9349 -6.52748 15.9373 177 207 208
10.4975 -6.75671 16.5955 107 121 150
12.0405 -6.5486 16.0582 94 102 109
11.3233 -6.58092 16.1808 98 143 140
10.2851 -6.53797 16.3024 108 132 152
12.0596 -6.35917 15.889 120 140 145
11.8799 -6.1999 15.6104 192 221 226
11.6788 -6.22484 15.8162 98 114 151
14.2275 -5.65122 14.2647 195 229 235
11.487 -6.26934 16.0473 124 150 186
11.3107 -6.23043 16.0174 124 162 194
11.5857 -6.16325 15.8739 106 132 148
11.673 -6.21211 16.0045 113 140 154
11.4969 -6.03577 15.7319 80 111 132
11.1636 -6.06796 15.8117 126 148 183
11.4469 -5.69413 15.5461 185 192 195
9.60832 -6.11077 16.8947 103 163 163
11.0613 -5.72225 15.9315 115 148 164
11.3778 -5.69963 15.8889 130 167 195
11.3991 -5.47025 15.5841 73 93 124
11.3436 -5.4416 15.5011 72 92 123
13.8811 -5.06552 14.3228 123 137 149
4.486 -7.20341 20.8257 211 242 239
5.39598 -6.82085 19.6978 74 134 110
11.4723 -5.33886 15.3281 110 125 151
13.823 -5.014 14.3047 175 201 217
5.62259 -6.7399 19.6516 101 145 128
5.36139 -6.63156 19.3909 98 155 134
11.4087 -5.44789 15.7914 117 135 166
13.7705 -5.01764 14.4805 179 216 220
13.601 -4.93794 14.3207 76 76 88
5.59517 -6.63093 19.6126 79 144 122
10.8153 -5.33857 15.9079 254 254 254
10.8626 -5.30047 15.892 242 247 248
3.00468 -7.02637 21.3459 212 250 244
10.8973 -5.31855 15.9618 254 255 253
11.6843 -5.18891 15.6462 127 150 158
13.8821 -4.74051 14.1986 215 235 240
11.8815 -5.09998 15.4412 108 164 151
13.5954 -4.7654 14.3364 128 149 151
11.3953 -5.22217 15.9616 128 134 157
11.6098 -4.99221 15.7253 116 144 175
10.8447 -5.02609 15.9409 126 143 140
10.4472 -5.11314 16.4588 108 171 162
12.0662 -4.72959 15.3512 208 233 237
10.6674 -4.89772 16.1943 191 194 198
10.4885 -4.79848 16.2432 236 251 254
13.502 -4.21489 14.3667 129 138 148
13.5141 -4.16299 14.3989 210 224 223
5.25047 -5.40414 19.5407 85 139 122
10.6991 -4.45224 16.1346 222 230 229
10.6876 -4.42596 16.1332 148 151 159
13.8763 -3.97404 14.3718 143 172 169
14.8463 -3.61778 13.1326 96 108 142
14.8479 -3.66782 13.4723 221 244 240
10.1413 -4.19918 16.1677 87 144 136
11.9195 -3.93444 15.4087 106 171 162
9.08565 -4.2204 16.7613 100 169 149
10.5501 -4.05497 16.0233 240 245 243
11.0586 -4.01893 15.9912 164 165 175
11.6286 -3.89386 15.4438 88 122 115
10.3664 -3.93196 15.8784 244 243 245
11.6839 -3.8546 15.4999 134 180 167
4.7637 -4.80084 19.9408 79 134 131
13.8257 -3.39243 13.8681 126 148 159
8.07398 -4.10952 17.4187 84 170 158
10.4648 -3.64943 15.4737 164 167 172
9.45738 -3.83908 16.4715 78 148 112
11.064 -3.59988 15.5678 121 135 157
10.3653 -3.73209 16.2821 233 250 247
12.0829 -3.49842 15.2749 226 255 250
14.1741 -3.07526 13.5521 114 172 154
12.8208 -3.22303 14.443 67 109 91
10.5026 -3.42794 15.7768 154 166 176
11.5811 -3.32537 15.3466 125 159 159
12.5897 -3.25696 14.9222 164 170 177
12.2866 -3.24745 15.095 154 184 179
12.6235 -3.1942 14.9903 227 235 234
14.5042 -2.89047 13.4967 88 131 120
11.0655 -3.20491 15.3445 129 140 162
12.1841 -3.13107 14.8942 198 199 203
10.9436 -3.24657 15.5272 231 225 226
14.8893 -2.73889 12.7569 107 120 122
13.2225 -2.93645 13.9421 81 113 102
12.6651 -3.02573 14.6992 98 134 122
10.2631 -3.16927 15.7965 92 128 114
12.6704 -3.00278 14.665 158 218 208
14.2114 -2.72855 13.2417 92 147 132
5.40191 -3.73327 19.0635 97 160 151
12.6842 -2.97315 14.7425 105 159 136
8.82743 -3.22638 16.4465 65 130 114
12.1654 -2.83409 14.4553 123 129 128
12.7461 -2.9128 14.7904 65 108 87
12.3691 -2.88446 14.8525 140 167 164
11.5504 -2.99185 15.4978 212 238 244
8.65146 -3.20117 16.9022 206 243 233
10.5775 -3.00104 15.7495 129 145 168
12.7027 -2.81411 14.5962 190 233 222
11.4119 -2.862 15.15 176 210 210
12.197 -2.80188 15.0122 114 164 146
11.7252 -2.80267 15.225 211 239 239
10.2707 -2.86158 15.8226 175 192 219
10.3947 -2.83826 15.7896 221 237 250
11.1483 -2.76991 15.385 144 140 146
10.3128 -2.8051 15.9037 154 165 179
10.305 -2.75599 15.8867 158 173 182
10.9366 -2.67507 15.6063 248 253 252
11.7538 -2.60463 15.3605 70 109 101
11.6611 -2.55547 15.0171 141 158 171
10.7379 -2.57494 15.5273 149 153 171
10.7059 -2.58402 15.6769 167 177 184
11.917 -2.40687 14.726 181 226 223
10.6021 -2.51796 15.6893 255 255 254
10.7076 -2.49088 15.5523 128 141 149
11.6751 -2.43015 15.1536 213 242 239
12.6469 -2.34863 14.5045 95 144 128
13.4954 -2.25119 13.8009 146 187 179
1.65775 -3.39494 22.5234 88 138 120
10.372 -2.50947 15.9433 164 187 202
10.343 -2.44061 15.7412 188 188 194
10.5522 -2.38511 15.3499 106 105 121
13.8129 -2.14297 13.3503 141 174 160
8.82152 -2.45166 16.3518 84 139 106
8.9295 -2.3939 16.602 79 134 109
12.5893 -2.18976 14.7071 163 233 202
10.1596 -2.328 16.0364 151 142 152
11.5634 -2.14686 14.8408 87 86 106
8.73004 -2.31273 16.4121 79 124 98
11.1352 -2.17271 15.3062 166 167 163
13.0617 -1.99374 14.1792 221 222 218
13.4226 -1.9951 14.1926 157 195 200
7.21239 -2.36281 17.905 206 243 235
10.1881 -2.12203 15.9554 241 247 246
8.20553 -2.21614 17.0337 201 236 232
10.874 -1.98682 15.1398 177 170 177
8.8116 -2.13215 16.5746 87 117 92
12.025 -1.91692 14.6694 71 83 77
9.62429 -2.02074 16.1616 206 212 219
12.4576 -1.85182 14.476 204 238 228
10.4165 -1.9476 15.6828 210 225 221
9.77122 -1.99418 16.2669 225 237 237
10.9634 -1.88639 15.1808 126 135 138
11.9306 -1.87225 14.9532 247 253 252
10.4722 -1.91067 15.6722 212 231 228
10.4706 -1.90971 15.6697 212 231 228
8.83679 -1.96467 16.4499 169 227 203
11.102 -1.86196 15.5265 161 173 175
10.4017 -1.80248 15.5509 131 140 143
14.7246 -1.54344 12.7136 102 141 126
11.7149 -1.69278 14.7693 124 129 130
11.9342 -1.72209 15.0709 166 169 167
10.2124 -1.75484 15.8325 183 190 205
11.8863 -1.67198 15.0078 105 130 120
10.3569 -1.65056 15.6886 253 255 255
10.5587 -1.62917 15.4849 248 248 248
9.45592 -1.67283 16.2089 117 143 143
7.9448 -1.72598 17.1906 215 251 239
9.79617 -1.6396 16.0752 98 168 155
12.2462 -1.51416 14.4993 87 95 102
11.2878 -1.5559 15.2348 124 144 145
10.0049 -1.59033 15.9509 253 255 255
9.47064 -1.57461 16.0737 161 184 200
10.1487 -1.58509 15.9748 248 253 251
11.4393 -1.50011 15.1369 97 153 148
10.9625 -1.468 15.379 144 147 162
7.67586 -1.56326 17.1142 104 143 135
10.6541 -1.46125 15.5555 181 183 191
11.7976 -1.43974 14.998 146 160 166
12.5167 -1.401 14.5236 159 172 174
7.90608 -1.52749 17.3354 174 202 179
7.68904 -1.5046 17.2215 77 96 81
12.1274 -1.35293 14.7613 244 246 246
12.2468 -1.33097 14.6484 147 148 152
12.5801 -1.34883 14.6346 157 159 167
7.99442 -1.44785 16.8412 68 84 91
12.5383 -1.34352 14.6418 239 244 245
12.3014 -1.27639 14.2498 68 85 82
12.1118 -1.2624 14.6867 159 163 168
7.35669 -1.39276 17.5992 206 244 238
11.9295 -1.24664 14.6601 225 235 235
12.2499 -1.24071 14.545 148 162 161
11.5561 -1.24707 14.8796 120 159 161
2.58963 -1.5362 20.8878 84 137 117
7.23773 -1.35847 17.4815 109 166 168
7.74316 -1.28622 16.9317 174 221 205
10.3672 -1.25129 15.5612 203 201 201
12.0553 -1.20605 14.6532 156 162 169
12.1985 -1.17742 14.5077 84 87 85
12.3464 -1.19072 14.7812 211 214 218
7.4212 -1.2826 17.3839 94 151 142
8.33889 -1.30638 17.401 66 83 72
10.8447 -1.1874 15.2418 156 178 176
11.7735 -1.15185 14.9202 218 228 222
7.19501 -1.24238 17.5328 95 137 136
10.467 -1.18498 15.8062 192 191 193
8.24142 -1.2095 16.9639 185 239 232
10.9364 -1.11806 15.532 166 185 188
8.04351 -1.13914 16.7813 143 186 183
10.0133 -1.09984 15.6652 255 255 255
7.95641 -1.1063 16.6012 92 125 121
8.05583 -1.09644 17.0207 143 193 183
10.7808 -1.07278 15.5625 167 170 175
8.11734 -1.10822 17.1687 145 201 190
9.93282 -1.07274 16.0398 250 255 248
8.23995 -1.07494 16.9927 64 101 93
10.0444 -1.03557 15.6598 166 177 175
5.88984 -1.12752 18.5805 70 131 117
11.0973 -1.01144 15.1641 91 166 150
8.83702 -1.04094 16.6073 191 235 222
8.25543 -1.0188 16.7832 91 144 131
10.325 -0.981747 15.4909 193 197 202
8.99293 -1.0043 16.6004 158 213 194
9.05282 -0.990562 16.3396 198 228 233
5.06115 -1.06298 19.2286 87 137 119
7.80961 -0.972791 17.0026 111 159 141
8.29333 -0.969389 16.975 98 133 119
11.2152 -0.916431 14.98 98 174 156
4.83551 -1.03066 19.3215 70 108 102
8.82699 -0.948191 16.6561 165 218 198
10.3821 -0.921423 15.5498 190 187 189
8.28875 -0.949308 16.864 159 200 203
9.07087 -0.920269 16.4415 156 206 194
10.9739 -0.903981 15.2921 248 253 254
7.90016 -0.914261 17.0931 168 221 207
8.36153 -0.924637 16.9953 90 109 106
9.05777 -0.92344 16.7451 154 190 184
9.12808 -0.921031 16.501 174 215 207
7.9667 -0.888028 16.84 67 90 76
7.99826 -0.878783 17.0597 166 222 217
8.48975 -0.86211 16.4881 86 131 122
6.12175 -0.904278 18.1624 86 143 128
8.15883 -0.85555 16.9636 173 213 202
8.81241 -0.84813 16.7935 139 161 156
8.3519 -0.861392 16.8799 203 236 245
10.3856 -0.816477 15.4986 231 237 236
4.91326 -0.864116 18.8983 67 121 86
7.55313 -0.823336 17.1429 68 112 106
8.03826 -0.826831 17.1201 91 143 126
8.69804 -0.805679 16.6372 166 194 188
9.07392 -0.816657 16.2882 115 177 159
10.0219 -0.827666 15.9522 225 240 236
4.35666 -0.878153 19.5972 72 122 98
8.47173 -0.807383 16.5556 175 219 206
8.5729 -0.77881 16.522 52 88 72
8.05215 -0.79142 16.8012 194 246 236
8.84939 -0.780511 16.3958 150 196 184
10.369 -0.795989 15.6925 246 253 255
8.3463 -0.772696 16.4373 98 143 134
8.57138 -0.787919 16.7052 75 109 99
11.7067 -0.776876 14.9315 102 121 112
6.37353 -0.822134 18.4008 78 137 122
10.6899 -0.763381 15.4479 202 224 222
7.73162 -0.748631 16.7447 113 144 137
8.10372 -0.741954 16.7327 75 105 94
8.21422 -0.757483 16.5206 104 144 132
8.77978 -0.717802 16.392 110 134 122
10.4698 -0.72076 15.5014 219 227 227
6.55797 -0.711317 18.059 73 140 113
7.85843 -0.678498 16.8663 95 136 128
3.03541 -0.69797 20.8132 82 151 106
5.57887 -0.672626 19.0761 87 129 104
9.08565 -0.638667 16.0093 83 108 104
6.5209 -0.642701 18.0726 84 149 117
11.8671 -0.627646 14.7724 97 145 133
8.77799 -0.602634 16.4652 106 165 150
10.1229 -0.602458 15.6311 164 173 176
11.9993 -0.612861 14.9256 134 183 163
8.07905 -0.58077 16.9275 148 185 169
9.09485 -0.597523 16.348 44 57 55
9.30576 -0.591063 16.2311 67 107 96
10.1127 -0.579937 15.6809 245 251 250
11.2085 -0.593913 15.1287 203 215 219
4.66255 -0.57178 19.1633 92 145 102
8.51398 -0.549505 16.5082 69 108 87
8.94225 -0.534955 16.3259 98 113 105
11.2405 -0.560044 15.2839 253 255 252
4.48629 -0.543768 19.7206 45 87 56
9.97325 -0.512015 15.648 93 110 107
9.00982 -0.484858 16.4498 183 229 223
2.16675 -0.504348 22.0494 80 149 112
9.34292 -0.489362 16.1897 78 113 103
7.95502 -0.445382 16.918 191 231 220
9.42653 -0.482382 16.2477 111 151 149
3.58666 -0.451323 20.1807 74 150 118
9.33724 -0.461045 16.1678 155 187 192
11.9914 -0.471025 14.7114 100 148 120
8.26601 -0.426509 17.0041 140 190 180
11.1785 -0.442842 15.3468 217 242 232
3.91411 -0.381747 19.6389 77 128 108
5.40388 -0.390841 18.8787 84 111 102
5.73985 -0.388007 18.6255 80 129 101
9.34551 -0.415828 16.1519 57 79 67
4.36306 -0.379918 19.8789 151 182 185
7.86255 -0.380184 17.0819 130 180 170
5.09628 -0.370961 19.3491 86 131 115
10.3175 -0.40001 15.8531 159 171 173
4.31054 -0.346604 19.7209 76 110 100
4.75274 -0.331904 19.1274 71 126 109
9.2505 -0.365089 16.1934 89 131 130
10.1588 -0.362134 15.6729 254 254 254
10.3127 -0.382983 15.8025 222 243 245
6.16178 -0.343579 18.5 52 84 60
10.1473 -0.342282 15.9209 117 138 139
4.29909 -0.27538 19.2565 59 113 96
4.61453 -0.269311 19.3884 114 187 141
11.2316 -0.342123 15.3421 253 255 254
9.04955 -0.283273 16.0486 210 238 249
9.36216 -0.285995 16.1347 58 77 74
4.02107 -0.229557 20.2067 51 105 76
7.98439 -0.270137 16.9298 55 86 77
10.5553 -0.301342 15.3431 111 148 144
10.7121 -0.306963 15.3373 117 140 132
5.41985 -0.237238 19.1842 76 130 100
9.37216 -0.277996 16.1722 156 207 200
5.28445 -0.221044 19.2201 117 187 146
8.79654 -0.242562 16.2819 103 112 109
9.45546 -0.253384 16.3656 62 98 92
11.0601 -0.275518 14.8336 194 190 196
11.7088 -0.283155 14.9718 103 153 135
5.31514 -0.184412 19.3767 69 101 84
10.1781 -0.222701 15.732 163 182 185
8.39722 -0.166073 16.3071 64 127 111
14.707 -0.265846 12.7283 65 88 84
8.00428 -0.14 17.0097 59 89 78
6.23213 -0.11318 18.2836 177 221 220
8.09105 -0.144388 16.8047 137 193 182
8.4192 -0.121469 16.5519 107 136 120
9.34508 -0.152392 16.0699 133 178 181
11.0793 -0.186764 15.0641 245 255 249
4.57182 -0.0570578 19.421 69 114 98
9.43368 -0.148223 15.9327 119 175 162
8.45229 -0.12206 16.6162 62 88 74
11.2215 -0.165122 15.2484 136 163 159
10.1743 -0.132089 15.8701 144 153 163
6.97892 -0.0744676 17.5526 83 143 125
9.5378 -0.119183 16.1543 223 244 246
3.8149 0.00682658 20.1139 100 165 143
8.08514 -0.0528306 16.8798 201 236 239
10.4267 -0.115029 15.6338 111 141 136
9.97519 -0.085333 15.8503 136 142 153
4.70386 0.0295339 19.2076 147 213 194
6.93839 -0.0160452 17.497 66 128 106
10.564 -0.0726186 15.4603 129 163 157
10.6832 -0.085242 15.4627 92 109 105
10.5779 -0.0672422 15.4826 113 147 141
7.5306 0.00628626 17.3926 89 156 141
10.0572 -0.0473004 15.9306 152 151 171
10.3382 -0.0452744 15.8295 248 255 255
8.22616 0.0168371 16.7902 98 130 135
8.99519 -0.0111023 16.379 110 161 164
7.92319 0.0325644 16.6771 122 172 178
7.04274 0.059196 17.7526 144 218 188
8.21165 0.0462948 16.7335 206 243 247
9.30633 0.0186398 16.1406 120 149 146
10.9473 -0.0339939 15.368 200 243 232
2.87155 0.183917 21.26 86 162 138
3.81218 0.163444 20.2209 66 112 93
11.4221 -0.0262257 15.1644 153 171 172
5.94093 0.128114 18.147 150 208 183
7.9177 0.0844048 17.0846 121 157 163
10.5061 0.0197209 15.5635 113 149 149
3.87349 0.223857 19.6114 55 136 97
9.17423 0.0809993 16.3968 101 138 146
8.56835 0.139533 16.7131 148 214 202
9.85951 0.0921069 16.0415 245 253 252
10.5059 0.0937018 15.3052 119 134 126
9.18792 0.140605 16.2662 180 233 230
8.46269 0.198109 16.4895 115 142 138
9.53668 0.199398 16.2084 119 132 146
8.82902 0.220534 16.563 163 214 210
11.2809 0.15102 15.3101 113 161 149
8.51971 0.254996 16.8019 255 255 252
8.4756 0.261994 16.4947 255 255 255
8.14654 0.30474 16.9853 97 148 151
9.1765 0.253505 16.4976 63 122 108
9.09256 0.255569 16.1929 162 225 215
6.21582 0.35423 18.0826 113 171 147
9.34791 0.259466 15.9325 213 237 243
10.7987 0.204851 15.3802 165 187 182
6.97777 0.33601 17.623 99 163 151
9.33037 0.281544 16.1027 125 153 177
8.06783 0.35006 17.2996 102 127 137
6.39528 0.412222 18.1847 81 128 106
4.27144 0.517266 19.9357 141 209 198
8.73256 0.354488 16.3264 107 149 154
9.37091 0.35226 16.1654 123 168 182
4.25793 0.569411 19.7736 90 119 116
10.1257 0.318813 15.6514 103 95 106
10.8006 0.306805 15.4692 223 229 228
9.30202 0.370209 16.2743 111 150 172
5.92785 0.506384 18.1312 76 123 91
8.23079 0.413121 16.7751 205 235 236
10.1265 0.349333 15.6294 128 125 140
10.8894 0.322891 15.5085 227 244 247
10.4687 0.323294 15.2783 222 243 240
2.25612 0.696492 21.4982 136 191 164
6.77965 0.494676 17.843 103 142 134
11.3294 0.311834 14.8648 154 221 192
5.33245 0.600099 19.0272 69 101 112
6.02439 0.559342 18.0167 51 91 63
9.3506 0.411275 15.8362 150 224 212
14.9293 0.206535 12.5497 58 122 93
3.25742 0.708999 20.8479 82 126 95
8.47331 0.460594 16.6965 75 112 126
5.53856 0.612852 18.6648 144 206 160
6.04013 0.567135 18.1017 51 92 61
8.4572 0.476005 16.4068 105 140 144
7.39491 0.537436 17.3685 143 203 185
7.52896 0.518252 17.178 96 138 131
8.79239 0.47651 16.3745 177 220 217
7.88289 0.537876 17.3781 204 243 252
9.73793 0.455691 16.0004 113 153 151
8.33345 0.533895 16.7265 210 239 243
8.40102 0.523836 16.5185 85 123 127
7.68695 0.560297 17.0613 104 144 143
8.99067 0.520879 16.5652 230 213 200
9.43561 0.495866 15.9889 73 114 117
6.53602 0.629189 17.9992 87 156 135
9.3469 0.537775 16.1611 101 165 183
11.2314 0.43078 14.9684 85 130 121
8.33865 0.586214 16.8483 85 113 114
7.62738 0.622186 17.5502 69 80 70
10.4928 0.485339 15.5403 99 159 148
8.17486 0.603867 16.7949 243 255 255
8.26114 0.609938 16.7235 183 224 217
4.04097 0.841401 20.0173 140 201 163
7.3605 0.675379 17.633 63 108 82
8.73988 0.61846 16.8328 76 102 118
8.96112 0.597274 16.2216 240 252 254
8.7013 0.616173 16.4529 149 211 211
4.99232 0.820043 18.9264 76 149 133
6.68982 0.732878 17.977 85 133 109
7.8134 0.677104 17.2598 110 167 159
7.21583 0.710685 17.5653 80 150 110
7.35332 0.711466 17.237 77 127 87
10.7853 0.550527 15.4267 85 119 113
7.58057 0.707122 17.4641 128 181 167
10.7859 0.566893 15.3681 168 211 202
5.31352 0.87208 19.0559 47 85 79
7.69066 0.715743 17.63 79 107 101
8.52906 0.683728 16.5648 213 247 247
5.69903 0.828521 18.3861 63 137 107
7.56291 0.725655 17.2945 144 197 177
10.5032 0.595615 15.6896 226 242 235
11.6123 0.562983 15.0417 208 230 218
7.19181 0.807751 17.3679 92 128 114
9.31139 0.703163 16.2736 84 103 111
10.2177 0.656348 15.8583 121 161 150
11.3354 0.585865 15.0205 221 244 230
7.33727 0.813011 17.1776 75 126 92
11.6128 0.59908 14.8926 108 173 151
8.57021 0.798336 16.5913 195 230 240
6.62095 0.901853 17.8992 115 181 162
7.36842 0.859403 17.3614 146 213 186
4.41838 1.05964 19.7924 147 189 178
5.28856 0.982392 18.7871 54 100 107
8.19375 0.819256 16.8731 135 173 177
9.77078 0.757101 16.0914 187 225 227
6.44212 0.964565 18.3499 74 126 103
7.18061 0.907226 17.5034 74 96 68
11.1045 0.696807 15.1173 216 243 234
7.836 0.897543 17.3491 84 127 118
7.75449 0.920868 17.1576 125 187 171
6.67961 0.985199 17.7162 80 138 110
9.96318 0.824913 16.0111 121 137 154
5.06085 1.12665 18.8346 145 213 190
7.81906 0.979948 17.3873 80 123 112
8.63359 0.906296 16.296 102 130 141
9.86616 0.859636 15.9284 171 179 202
10.2321 0.833756 15.7172 161 176 172
4.87999 1.17809 19.4482 110 173 129
8.66361 0.93464 16.6709 129 158 172
7.62813 1.0034 17.2 205 233 227
4.79696 1.2022 19.2484 78 138 90
7.73001 1.02196 17.4632 209 231 226
6.28832 1.13241 18.2494 133 201 166
7.54964 1.04444 17.3455 152 193 195
5.21129 1.23818 18.7738 59 82 77
9.78296 0.947842 15.604 113 126 148
7.17653 1.16871 17.6339 58 92 81
8.40521 1.1151 16.7623 117 129 147
9.81467 1.03172 16.0668 125 141 164
4.44963 1.43747 19.8447 52 101 73
8.40688 1.16915 16.8302 241 249 255
7.26787 1.26281 17.6678 153 193 181
2.24918 1.66137 21.7497 84 137 110
7.5416 1.23537 17.2785 56 106 88
9.51009 1.14073 15.9916 208 224 231
7.61151 1.30474 17.4589 80 139 118
10.7798 1.07617 15.4229 225 243 242
7.27394 1.32553 17.5286 81 130 116
5.18971 1.52255 18.7425 151 217 175
7.60053 1.38469 17.4635 98 148 136
9.26413 1.27281 16.3487 74 119 130
2.85346 1.82315 20.7879 91 158 137
10.6658 1.20203 15.3313 253 255 255
14.667 0.89251 12.6201 134 195 175
2.79143 1.92472 21.3087 95 133 111
8.63332 1.4303 16.9242 250 254 255
1.58126 2.04904 22.2081 96 157 131
7.36178 1.52255 17.3688 86 133 117
6.3343 1.59924 17.7506 101 158 155
8.74858 1.43771 16.3992 64 110 104
4.0231 1.91127 20.0883 67 121 91
9.10205 1.47041 16.6571 102 166 160
14.837 1.01154 12.7874 120 194 160
4.53531 1.85575 19.3346 88 145 120
9.73388 1.43126 16.1468 77 127 127
7.52045 1.62311 17.5454 100 163 147
9.88273 1.4308 16.176 253 255 255
10.101 1.43169 16.0389 112 174 162
10.0747 1.40196 15.6778 250 255 255
7.1832 1.66225 17.4631 91 140 120
8.54122 1.53553 16.4293 102 148 165
8.9515 1.49764 16.2589 207 236 245
10.0612 1.45561 16.1043 253 255 255
4.52284 1.95251 19.6027 104 165 131
7.95591 1.64053 17.2483 84 130 124
9.23509 1.56285 16.4888 91 150 166
8.39233 1.61226 16.5996 205 246 255
10.448 1.45629 15.6426 188 225 223
10.7865 1.43124 15.4264 77 140 124
2.72899 2.22673 21.3505 79 136 111
11.6723 1.36478 14.6644 152 216 197
14.4689 1.11601 12.5591 103 177 129
4.58714 2.05697 19.6771 92 158 133
8.73629 1.61885 16.4063 163 225 231
3.61031 2.17806 20.342 72 107 93
10.0371 1.55257 15.5977 94 133 125
10.0855 1.55994 15.681 80 122 111
7.51945 1.8035 17.3749 74 139 117
7.72408 1.77398 17.0646 94 123 132
7.02144 1.84044 17.4373 86 155 128
8.1688 1.79029 16.8508 210 247 237
8.23005 1.80748 16.9942 201 241 230
9.30404 1.71514 16.3423 84 126 133
9.36729 1.72369 16.204 67 107 95
8.03395 1.89925 17.1165 99 146 150
6.04037 2.10584 18.3881 102 144 121
8.36973 1.87175 16.828 117 150 170
9.08578 1.79672 16.1999 72 139 148
10.9129 1.6552 15.3515 206 239 225
10.9431 1.6606 15.327 112 157 148
9.0399 1.90595 16.5389 122 182 206
8.76975 1.92074 16.3829 118 166 184
5.87252 2.26348 18.6446 177 234 225
9.38015 1.89754 16.1035 101 161 155
9.54809 1.91811 16.2405 214 240 240
14.7587 1.37996 12.6563 123 208 164
9.9003 1.8591 15.8134 154 191 183
8.03603 2.10467 17.2965 178 208 237
9.31979 1.97494 16.4168 69 130 132
7.85819 2.14959 17.1105 171 211 229
10.0115 1.97796 15.8181 186 220 214
9.25855 2.036 16.2392 96 140 147
10.0336 1.98591 15.8566 182 216 210
5.88907 2.45659 18.653 141 223 174
9.28041 2.1059 16.3596 97 150 163
14.8253 1.49121 12.2466 67 118 91
5.95422 2.78046 18.8651 96 161 145
4.25973 2.96207 19.4393 72 156 128
7.59479 2.62336 17.401 119 152 161
9.01691 2.46682 16.4264 168 209 194
10.5119 2.31192 15.5241 82 98 104
11.1025 2.2571 15.3276 225 253 247
8.86633 2.47088 16.2307 67 87 88
10.4283 2.34575 15.6609 152 168 174
3.01375 3.39464 21.0522 97 159 135
10.6037 2.33751 15.4958 88 109 117
9.15247 2.52329 16.2532 77 103 85
10.8309 2.29812 15.1613 79 96 99
10.379 2.41691 15.6681 87 105 112
10.9953 2.35163 15.3301 116 142 154
10.7083 2.42136 15.6356 102 131 140
10.2941 2.4265 15.5098 173 200 214
10.5911 2.44308 15.6454 179 223 222
8.60352 2.62499 16.2361 125 135 145
9.01776 2.63099 16.2819 151 203 179
11.0165 2.47174 15.3834 181 228 232
10.4483 2.55982 15.6329 97 122 142
11.791 2.42509 14.7454 147 199 182
6.55218 3.10458 17.8796 93 159 140
5.55654 3.28088 18.6933 149 214 199
10.0688 2.71194 15.8659 153 218 202
11.8152 2.5411 14.8612 143 204 184
15.0947 2.05488 12.4629 140 212 165
10.0906 2.78989 15.9427 126 178 161
11.1476 2.68474 15.3938 108 131 139
10.6834 2.7352 15.427 84 105 126
11.0253 2.66336 15.1075 63 82 85
14.9855 2.09641 12.3232 84 125 97
7.88439 3.15225 17.1396 154 231 210
10.9369 2.75419 15.2709 73 69 74
7.88787 3.16607 17.0779 71 142 122
10.769 2.76244 15.1944 79 86 101
10.9389 2.85145 15.3886 91 101 111
12.2569 -8.28866 15.8515 123 180 171
5.72943 -9.9758 20.335 110 128 115
5.35551 -10.0827 20.895 209 234 238
6.28605 -9.59902 20.0309 124 148 140
5.40981 -9.33232 20.2941 117 152 138
5.39362 -9.65981 21.4237 106 130 128
5.89263 -8.71486 19.4321 104 127 129
5.05871 -8.85398 20.4488 223 247 247
12.5463 -6.50576 14.9746 117 173 160
2.47701 -9.70586 22.8486 108 178 165
12.0861 -6.31037 14.9583 82 109 105
11.7943 -6.49134 15.9944 113 116 131
10.5293 -6.69826 16.6982 110 134 158
11.9342 -6.39786 15.9434 67 73 80
12.123 -6.31447 15.7391 109 137 144
11.7967 -6.39675 16.0155 104 133 164
12.2304 -6.26167 15.6812 147 169 187
12.0966 -6.19085 15.6742 102 126 124
11.453 -6.20203 15.9527 195 225 244
12.1631 -6.02565 15.5374 91 141 129
11.3991 -6.09808 15.8174 73 88 107
11.453 -6.05589 15.8446 207 236 245
11.5309 -5.98127 15.9239 107 132 152
8.70777 -6.44512 17.5254 108 169 155
14.4739 -5.16615 13.9603 136 155 182
10.4519 -5.82138 16.3784 246 255 255
11.1571 -5.65416 15.8983 212 235 243
13.5607 -4.95971 14.0494 114 126 144
13.6591 -4.99849 14.2116 183 220 234
11.5474 -5.46185 15.711 141 174 200
5.40317 -6.70247 19.5786 89 147 122
4.61012 -6.95444 20.5845 100 155 146
10.8811 -5.3674 16.0141 250 254 255
11.2115 -5.17943 15.7159 225 244 251
10.9799 -5.09276 16.1594 125 139 135
11.8862 -4.668 15.2794 202 224 229
14.8547 -4.07375 13.329 167 208 230
11.8407 -4.56748 15.2496 208 231 227
14.9508 -4.12976 13.582 105 114 141
11.5283 -4.60363 15.624 95 141 129
11.6123 -4.62817 15.8611 193 223 240
11.4359 -4.52151 15.518 193 218 220
10.6676 -4.48376 16.0794 139 132 139
14 -3.98407 14.0832 127 156 163
14.8463 -3.61778 13.1326 96 108 142
13.8724 -3.7998 14.042 126 159 155
14.8991 -3.51895 13.2737 135 156 188
10.2828 -4.11833 16.0916 147 197 193
10.3718 -4.03493 15.7426 255 255 255
11.5419 -3.9568 15.6259 186 201 210
13.6228 -3.61806 14.2231 97 142 133
12.871 -3.73151 14.8356 147 218 191
8.39967 -4.22172 17.3759 70 148 117
8.43999 -4.1622 17.1511 72 139 118
10.1175 -3.78269 16.0134 182 194 204
11.9242 -3.52278 15.0556 255 255 255
10.2665 -3.72366 16.3814 255 255 254
9.55647 -3.6279 16.3425 101 156 139
9.51397 -3.61942 16.4827 92 155 135
12.8951 -3.23935 14.5335 89 128 107
10.551 -3.48398 15.9209 253 251 251
10.8674 -3.39727 15.5326 103 95 106
12.1684 -3.29103 14.9574 126 144 145
12.4847 -3.22266 14.7168 253 253 253
12.577 -3.25369 14.9059 164 170 177
10.7326 -3.38057 15.7597 176 182 201
10.86 -3.30077 15.698 167 171 182
12.8053 -3.05131 14.2939 124 180 167
8.874 -3.46741 16.7485 103 165 153
10.3581 -3.30478 15.902 168 196 183
11.2668 -3.23822 15.4864 137 152 171
12.1189 -3.04879 14.8286 231 236 237
10.4253 -3.22117 15.9963 107 136 121
10.2447 -3.16512 15.7654 94 130 118
12.9968 -2.87743 14.3244 102 148 135
8.94325 -3.1679 16.3947 97 149 139
12.258 -2.95213 15.0259 154 195 187
12.2611 -2.85513 14.5726 120 131 129
12.5216 -2.84873 14.5293 67 112 93
12.0494 -2.91921 14.9758 160 172 174
11.4527 -2.96617 15.3547 221 246 248
14.021 -2.75854 13.9541 130 166 166
12.5342 -2.83724 14.6914 82 103 101
12.0702 -2.89095 15.089 149 162 160
12.0651 -2.79683 14.7101 146 160 156
1.05571 -4.1118 23.2384 73 114 93
11.7879 -2.82812 15.3728 82 129 113
13.8795 -2.60738 13.908 102 133 130
10.6605 -2.81515 15.9326 116 125 145
10.1528 -2.71119 15.8765 126 181 166
11.6177 -2.54874 14.9561 129 142 158
11.0717 -2.56745 15.3264 250 250 250
13.364 -2.40728 14.1901 211 242 233
10.8582 -2.56118 15.5433 136 148 166
10.9067 -2.52207 15.405 145 137 154
10.9713 -2.52271 15.3934 123 119 138
12.8541 -2.38889 14.5423 71 95 87
12.5329 -2.37836 14.6519 126 177 163
13.6493 -2.27102 13.8843 122 151 142
14.5824 -2.17424 13.0584 110 148 120
13.573 -2.27296 13.9313 94 115 107
8.74254 -2.55277 16.4713 91 132 104
13.7193 -2.15855 13.3073 83 127 110
10.3968 -2.46097 15.8317 204 209 212
13.921 -2.16083 13.4726 171 207 193
13.8533 -2.12973 13.4564 136 172 155
10.6647 -2.34024 15.4832 134 128 145
10.2143 -2.3508 15.8611 255 255 255
10.6924 -2.30484 15.4436 251 255 255
11.2343 -2.3164 15.5261 126 132 145
13.77 -2.13717 13.9096 48 75 59
13.8613 -2.08743 13.6022 162 203 198
10.2954 -2.32145 15.7788 190 199 202
12.5942 -2.19086 14.7133 163 233 202
13.9044 -2.10666 14.0286 154 204 180
12.0632 -2.13848 14.9133 98 151 141
13.1893 -2.05058 14.1136 114 120 119
11.6662 -2.08787 14.9481 130 144 167
8.96484 -2.23694 16.7152 153 211 187
9.44389 -2.09512 15.747 182 191 188
12.171 -1.98945 14.6863 214 234 235
12.1091 -1.97389 14.6952 91 111 112
13.1686 -1.91652 14.2604 161 167 172
8.72714 -2.09647 16.504 62 94 70
11.5689 -1.9698 15.0143 112 120 119
12.4625 -1.94629 14.7198 144 168 174
9.72205 -2.04233 16.197 152 174 172
11.6962 -1.8368 14.4107 35 66 57
8.86868 -2.01921 16.3685 90 139 117
9.72329 -1.98403 16.1783 229 241 241
9.5076 -1.92952 16.1456 252 254 254
9.59521 -1.94962 16.3779 111 150 148
11.4255 -1.84719 15.2528 198 240 252
11.0483 -1.85924 15.5721 239 248 245
9.50871 -1.88789 16.4825 120 163 148
3.30045 -2.28657 21.1261 89 156 141
11.8948 -1.69231 14.5877 119 134 143
14.9791 -1.5721 13.0198 138 215 177
11.1268 -1.67794 15.0006 57 89 78
11.7208 -1.64879 14.78 92 108 101
14.5087 -1.4357 12.6328 45 90 71
10.3681 -1.65307 15.6963 253 255 255
11.7667 -1.58462 14.9675 244 249 250
3.63932 -1.98332 20.4906 171 221 211
10.2984 -1.57463 15.5843 167 173 172
11.2385 -1.49192 15.0669 107 118 116
11.8834 -1.48306 14.8669 112 129 148
9.46237 -1.55878 16.4404 88 115 111
11.5766 -1.47071 14.9137 250 252 252
7.6618 -1.56612 17.0934 123 156 142
9.33688 -1.52775 16.2718 84 116 111
12.5433 -1.40243 14.5571 159 172 174
11.2136 -1.4019 14.946 92 110 97
9.46093 -1.47294 16.3703 138 160 155
7.65888 -1.49233 17.1439 73 89 72
12.3145 -1.35195 14.6394 231 242 234
11.3996 -1.38179 15.0878 87 153 134
11.8394 -1.35816 15.0282 145 153 166
12.5422 -1.35037 14.6386 253 255 255
12.6536 -1.36242 14.7274 210 209 211
8.09518 -1.47275 17.0832 66 74 73
12.6115 -1.3524 14.9503 115 121 132
11.8443 -1.32598 14.8026 231 239 238
12.5124 -1.34304 14.7273 153 155 166
8.18615 -1.41206 17.1151 75 83 73
7.57631 -1.39762 17.4478 93 127 120
2.6415 -1.5601 21.0147 98 149 129
12.4865 -1.22697 14.5914 106 159 145
7.68014 -1.26228 17.0292 71 90 81
12.2768 -1.15317 14.312 56 89 74
11.4064 -1.17723 15.042 124 169 160
11.6579 -1.17081 14.897 109 162 148
12.2986 -1.16165 14.7583 126 129 133
11.08 -1.14119 15.2296 99 149 147
7.44479 -1.14845 17.6248 112 165 152
12.2661 -1.05244 14.7368 212 229 226
7.93579 -1.08734 16.6107 45 89 83
10.79 -1.07504 15.5772 167 170 175
7.65998 -1.01649 16.9088 154 215 201
5.99474 -1.10957 18.4605 99 133 122
12.1065 -0.979857 14.5202 201 224 226
8.89688 -1.02011 16.503 181 235 228
9.03445 -1.0354 16.6728 88 139 125
7.84318 -0.989892 16.8822 174 227 207
8.0834 -1.03089 17.1821 150 212 196
10.3279 -0.983051 15.4959 193 197 202
5.0482 -1.05598 19.1525 86 137 117
8.32437 -0.965058 17.0258 83 92 89
10.6652 -0.956185 15.4744 254 254 254
5.70946 -0.989943 18.3345 79 112 97
8.11989 -0.949182 17.0623 175 200 186
5.05128 -0.98484 19.0948 63 109 86
10.4548 -0.90135 15.6511 175 166 169
8.6967 -0.925288 16.6786 44 65 57
9.02963 -0.916542 16.3577 162 210 198
8.39592 -0.927898 17.0744 87 102 98
6.03765 -0.927566 18.3289 87 136 120
9.08482 -0.888049 16.547 29 55 42
9.02401 -0.873374 16.1846 156 203 207
8.1398 -0.853459 16.9187 173 208 198
9.02448 -0.83897 16.4307 119 177 152
4.51582 -0.871408 19.2338 61 106 80
7.83139 -0.784535 16.8826 200 242 235
8.57538 -0.780244 16.5274 52 88 72
9.03701 -0.747035 16.3358 45 60 56
11.6188 -0.739919 14.7941 82 118 104
4.41045 -0.792972 19.6906 60 95 69
5.22789 -0.770371 19.4679 65 101 65
4.18048 -0.773594 20.0475 77 134 101
8.23225 -0.709161 16.8232 52 72 60
7.27248 -0.724697 17.9626 91 154 134
4.92983 -0.730023 19.7459 133 191 180
5.11312 -0.692123 18.9042 142 200 172
11.2739 -0.660622 15.1863 98 164 135
3.03156 -0.696522 20.7744 77 148 105
8.01483 -0.655515 17.2498 201 239 239
8.97833 -0.637948 16.6463 161 227 202
9.26605 -0.662304 16.3517 98 128 123
4.37742 -0.633117 19.6859 47 85 63
8.28951 -0.594405 16.8349 207 248 240
8.61674 -0.513146 16.3813 191 229 211
10.1548 -0.550129 15.8813 255 255 255
1.94634 -0.566248 21.7773 70 121 94
10.3262 -0.534093 15.4889 131 130 140
11.5219 -0.551009 14.9292 253 255 255
6.25591 -0.534963 18.5193 79 140 114
6.75084 -0.526345 17.8571 84 154 131
8.09283 -0.509549 17.0866 179 228 212
9.00568 -0.529189 16.4553 70 85 77
9.33859 -0.530612 16.3798 194 225 226
4.88621 -0.517882 19.353 124 192 167
8.18447 -0.503003 17.1247 48 57 54
9.9657 -0.515853 15.635 82 90 89
4.93297 -0.474793 19.3112 48 93 67
8.79131 -0.450864 16.4898 124 163 147
11.5354 -0.501841 15.0967 103 141 129
8.23141 -0.424074 16.9234 147 190 179
10.2445 -0.463071 15.9378 161 168 171
10.6481 -0.452528 15.6002 207 223 229
11.2514 -0.463191 15.2737 227 243 242
10.4265 -0.43506 15.7187 167 177 184
4.53153 -0.395493 18.9029 154 211 220
5.63814 -0.392399 18.6906 140 196 175
9.08771 -0.411449 16.2401 193 228 232
9.43935 -0.422353 16.3331 49 71 59
11.3644 -0.436653 15.2343 169 173 162
4.70975 -0.371506 19.0183 161 216 225
8.7722 -0.382038 16.3849 113 164 150
6.89881 -0.382489 18.158 94 145 138
11.6173 -0.385793 14.9402 83 142 127
14.8912 -0.41339 12.5111 159 191 186
7.8301 -0.32013 16.8955 186 235 219
11.2346 -0.3724 15.1629 191 191 197
11.2033 -0.340572 15.2998 253 255 254
11.6411 -0.338396 14.8738 131 214 169
4.79085 -0.253161 18.8702 76 108 91
11.4804 -0.325024 14.5607 84 131 109
10.5147 -0.304081 15.286 111 148 144
4.3472 -0.234367 19.8395 116 195 162
8.52984 -0.256535 16.7051 90 125 115
8.96532 -0.242071 16.5798 106 115 112
11.0587 -0.274029 14.84 188 186 192
11.6509 -0.283359 14.891 91 138 122
15.0426 -0.314993 12.6779 141 197 184
9.00445 -0.198172 16.4957 113 130 133
3.56435 -0.0961834 20.5916 140 207 178
4.09432 -0.108817 19.765 39 96 58
8.87427 -0.158137 16.3847 73 92 89
5.13594 -0.101846 18.7985 79 128 108
11.0595 -0.198624 15.4525 187 245 227
11.0567 -0.197074 15.1431 180 234 217
8.43624 -0.117575 16.5896 62 88 74
9.39798 -0.152563 16.1714 131 179 180
8.02759 -0.0933348 16.9707 177 212 215
9.05466 -0.126012 16.5345 133 161 172
4.03301 0.0238563 19.8122 64 126 86
7.49173 -0.053561 17.1239 180 226 227
10.7835 -0.119145 15.4115 233 250 253
5.93459 0.00378957 18.2979 145 197 179
5.22455 0.0460594 18.8805 102 153 133
8.23068 -0.0148679 16.8333 196 230 229
8.1725 -0.0242373 16.5509 51 72 69
10.3209 -0.0815171 15.4869 113 162 154
10.4124 -0.0640985 15.4353 210 225 228
6.06003 0.0282794 18.2345 78 136 125
9.96576 -0.0459808 15.7938 155 153 175
4.29067 0.0913155 19.8535 55 91 75
4.22594 0.0871175 19.4671 66 106 94
14.8594 -0.122162 12.5928 109 188 161
4.93301 0.10136 19.1031 29 72 51
7.62765 0.04961 17.2898 71 124 110
8.54609 0.022447 16.4951 95 150 135
1.93662 0.22611 22.4813 59 101 70
5.85634 0.107398 18.3401 72 118 95
7.8021 0.054546 17.7429 93 152 138
11.1078 0.00447 15.3102 101 155 142
2.41946 0.246566 21.2716 162 233 200
5.01128 0.221175 19.0658 159 238 199
11.5518 0.0528027 14.6149 131 205 171
2.12428 0.301954 21.1209 67 129 93
2.58141 0.316275 21.2103 91 157 122
5.87151 0.229402 18.564 83 156 130
9.87244 0.104134 15.698 158 167 181
7.85989 0.196278 16.7101 102 125 133
8.76285 0.16947 16.4075 75 116 111
5.10795 0.311477 19.1999 83 137 114
4.6776 0.363376 19.2699 85 131 125
9.44721 0.199619 16.0389 109 120 134
11.2809 0.151019 15.3101 113 161 149
6.02551 0.336569 18.3694 77 104 100
10.9451 0.155828 15.2017 108 149 141
5.87192 0.341866 18.414 99 136 128
8.46715 0.250136 16.685 255 255 254
10.5826 0.200599 15.6164 253 253 253
5.82814 0.358172 18.6335 72 117 100
8.75913 0.286495 16.5645 251 253 253
11.2458 0.208708 15.2732 243 254 252
9.45702 0.276732 16.1099 176 202 216
4.2707 0.519157 19.931 146 206 196
5.10516 0.480827 18.9851 136 216 199
9.52273 0.302081 16.0594 76 90 86
3.82996 0.588901 20.2972 116 154 136
6.24047 0.454828 18.1205 140 203 177
8.80548 0.365661 16.1452 212 240 240
4.30354 0.582177 20.0471 91 113 111
8.6518 0.392415 16.4819 70 85 87
8.95752 0.373391 16.4588 216 239 241
8.2914 0.420214 16.9105 213 242 246
4.4923 0.590026 19.5056 136 203 200
7.85307 0.444119 16.9031 56 82 82
8.52542 0.449581 16.9954 82 92 99
11.2128 0.309521 15.1642 255 255 255
9.99442 0.377608 15.5872 165 172 192
5.2485 0.620476 18.8484 52 102 98
9.37206 0.414661 15.8767 147 223 211
11.1954 0.347538 15.0508 220 232 232
3.00201 0.722267 21.0432 151 229 188
9.19102 0.452907 16.2214 187 225 237
11.0795 0.369002 15.1677 101 146 129
4.61037 0.718327 19.4291 62 110 82
7.31865 0.577952 17.2787 57 107 89
7.09926 0.629802 17.5342 64 110 91
8.39813 0.603318 16.9383 80 99 96
9.59728 0.522569 16.0254 78 94 111
7.62524 0.6399 17.3972 157 207 203
8.42856 0.633582 16.8461 78 104 111
11.7453 0.482188 14.827 101 163 133
9.00076 0.609501 16.3017 255 255 255
4.25108 0.871032 19.7545 95 132 122
8.35508 0.65468 16.4866 241 246 245
8.5779 0.685932 16.6615 203 241 243
3.25618 0.989028 20.7241 139 217 186
4.41419 0.911809 19.2423 63 120 89
8.38482 0.707354 16.4566 195 235 233
9.58947 0.663635 16.0329 203 234 243
8.2817 0.73548 16.6223 225 250 252
8.48863 0.742762 16.597 62 87 83
9.31139 0.703163 16.2736 84 103 111
6.28746 0.899562 18.2681 67 118 84
2.0863 1.15736 22.0695 90 141 127
9.63335 0.717455 15.93 207 238 241
8.96238 0.771077 16.4004 83 130 138
6.58545 0.90792 17.4375 78 133 106
9.714 0.777125 16.0738 114 148 142
7.5033 0.893925 17.4026 110 176 135
10.5235 0.787056 15.4476 211 251 249
5.05574 1.12486 18.8112 145 213 190
10.5828 0.794149 15.3827 90 162 150
8.62759 0.906422 16.2832 94 125 134
7.63618 1.00566 17.2208 223 243 238
10.5016 0.851218 15.5438 182 235 225
7.57998 1.03565 17.3839 178 219 221
3.51495 1.35299 20.509 118 182 146
7.11793 1.08653 17.574 51 88 68
6.44226 1.17607 18.3417 68 139 112
7.50601 1.07919 17.2417 84 117 103
9.78763 0.962757 16.2051 212 243 246
5.72958 1.20717 18.4297 72 113 108
7.34006 1.11659 17.252 165 229 207
5.79861 1.25341 18.4421 140 219 180
7.19903 1.17274 17.6979 58 92 81
9.54708 0.986625 15.7354 73 82 102
5.93126 1.274 18.331 77 150 118
9.80493 1.03725 16.1588 241 253 255
5.34973 1.35317 18.9803 160 224 182
5.3992 1.38339 18.8003 113 191 167
8.17023 1.18535 16.7277 103 118 134
11.0852 1.00811 15.2677 107 156 148
7.02546 1.31399 18.0015 182 213 222
8.34512 1.23601 16.8708 213 235 246
9.09966 1.1813 16.3227 106 142 158
11.9004 0.991062 14.6233 118 125 122
11.083 1.07441 15.2224 120 170 160
7.2433 1.37274 17.5699 161 214 194
10.7393 1.10527 15.4563 224 244 239
11.6755 1.04462 14.7027 206 242 230
5.8277 1.55835 19.2111 60 117 92
9.95558 1.17783 15.7446 145 172 182
4.84716 1.58474 19.0999 176 226 224
9.20329 1.28149 16.2552 69 118 128
8.60163 1.35103 16.4763 184 214 219
10.7034 1.21089 15.4033 252 255 253
8.5654 1.39774 16.3819 107 126 131
2.69689 1.94378 20.8743 96 157 119
3.17487 1.92836 20.2844 91 159 118
7.34886 1.60794 17.628 88 148 117
9.70939 1.38906 16.0343 212 248 255
6.95343 1.60383 17.415 142 215 165
9.64534 1.38651 15.7203 255 255 254
11.7153 1.23366 14.6196 94 162 131
8.54412 1.50298 16.659 111 160 182
9.89607 1.43135 16.1749 255 255 255
7.27544 1.61347 17.3576 72 112 87
7.28979 1.68806 17.7631 115 167 144
8.53952 1.53391 16.4257 100 144 161
4.52264 1.95126 19.6017 101 162 126
7.3569 1.66949 17.4153 106 173 152
4.58674 1.93761 19.2957 98 170 148
10.1244 1.49139 15.8553 93 145 135
10.7689 1.42857 15.3988 85 147 131
3.88113 2.08021 19.8918 93 149 136
5.77016 1.91212 18.8022 45 122 84
6.93665 1.7941 17.8083 89 151 121
14.5995 1.129 12.6807 119 193 145
2.81343 2.26003 21.2355 96 161 140
10.0786 1.55742 15.6692 80 122 111
8.99127 1.69401 16.5478 107 173 172
8.88643 1.74473 16.6809 152 215 223
9.93352 1.63262 15.762 130 176 164
3.41155 2.34092 20.4779 120 187 166
8.33793 1.86215 16.7557 124 155 180
6.02444 2.12664 18.3451 87 135 106
9.01993 1.86837 16.5358 112 174 192
7.6001 2.03863 17.4474 127 154 151
5.26346 2.29145 19.0239 70 124 101
5.90677 2.20555 18.3219 73 144 101
3.71651 2.5227 20.4297 77 138 104
3.79719 2.50663 20.152 92 148 119
6.04884 2.22969 18.4088 75 146 113
7.87698 2.09306 17.1543 88 112 132
9.362 1.93499 16.2123 102 143 145
4.15243 2.49056 19.51 170 227 224
6.07098 2.27631 18.0664 86 155 135
11.2897 1.79886 15.1021 78 97 82
7.88676 2.16047 17.1815 188 225 239
11.1223 1.84296 15.0315 111 140 124
14.2359 1.53617 13.0597 87 130 97
4.15864 2.69461 20.1014 164 224 213
7.36258 2.40123 17.0769 95 142 139
11.5352 1.9638 14.7186 92 146 123
8.53559 2.33869 16.5463 85 120 123
11.9922 2.00129 14.8098 105 170 154
3.70341 3.07595 20.8108 99 160 134
4.87694 2.91385 19.6676 91 165 139
5.76086 2.76298 18.7484 82 156 132
5.9102 2.7629 18.7414 94 164 147
7.53006 2.58745 17.6384 97 114 127
8.86427 2.34595 16.2677 99 130 129
5.10897 2.88078 19.0835 103 170 155
2.89052 3.21572 20.9076 89 149 125
3.20202 3.30016 21.0335 93 148 129
8.83869 2.48927 16.577 71 81 81
9.2178 2.45371 16.2751 154 207 197
9.16285 2.46064 16.2977 94 130 113
10.4717 2.30563 15.4688 82 98 104
8.61024 2.62289 16.8704 119 143 143
