ply
format ascii 1.0
element vertex 1294
property float x
property float y
property float z
property uchar blue
property uchar green
property uchar red
end_header
-1.27794 -1.18328 3.18702 132 188 167
-0.951306 -1.20053 3.23322 57 119 105
1.44961 -1.23753 3.33094 116 161 152
-0.314292 -1.20202 3.23714 90 115 89
-0.313738 -1.20196 3.23623 75 100 74
0.239791 -1.22514 3.30693 136 166 155
-1.19305 -1.19226 3.21969 173 243 212
0.276088 -1.22475 3.3093 105 134 131
0.393761 -1.22919 3.31835 85 151 122
-1.28755 -1.17795 3.18868 51 80 65
-1.12961 -1.18526 3.22326 148 221 189
-1.2968 -1.16692 3.17852 139 205 163
-0.464174 -1.1969 3.26493 93 159 134
0.550323 -1.21589 3.31524 102 132 127
-1.62986 -1.16458 3.18636 133 222 178
0.234346 -1.2104 3.31256 130 165 145
-1.29839 -1.16284 3.18089 165 214 176
-1.12828 -1.17567 3.22507 54 108 95
1.37575 -1.23096 3.37498 73 129 124
-0.4504 -1.18823 3.2633 74 128 91
-1.79611 -1.15736 3.18183 136 202 151
-0.391836 -1.18619 3.2708 46 106 82
-0.346922 -1.17998 3.25057 78 140 110
-1.29564 -1.15368 3.18967 101 168 137
-1.21809 -1.1592 3.21085 154 226 179
-1.15147 -1.16418 3.22138 51 97 68
-0.257721 -1.17567 3.26259 54 88 82
-0.485351 -1.17674 3.27087 88 134 122
-1.13385 -1.15651 3.22203 73 121 103
-0.526235 -1.16882 3.26621 82 134 124
-1.71055 -1.14311 3.19308 131 227 167
-0.475582 -1.16888 3.26984 102 158 139
-1.78984 -1.12735 3.18589 53 87 70
-1.27242 -1.13316 3.20187 125 169 130
-1.25141 -1.1344 3.21232 150 206 171
-0.310188 -1.15946 3.27421 40 108 91
0.916193 -1.18617 3.35377 109 155 142
-1.69966 -1.12495 3.1854 44 113 80
-0.494413 -1.151 3.26213 79 120 105
-1.68469 -1.12116 3.18371 62 129 92
-1.6165 -1.12377 3.19161 133 213 154
-1.55963 -1.1263 3.2104 114 199 167
-1.44262 -1.11701 3.17958 54 89 62
-1.20241 -1.13037 3.22071 153 213 172
-1.41477 -1.11506 3.18685 34 61 58
-1.85003 -1.11173 3.18342 150 240 187
-0.362839 -1.1402 3.27148 156 232 191
1.04059 -1.16797 3.36728 73 143 102
-1.32227 -1.09993 3.17519 92 110 97
-1.20105 -1.1172 3.22645 149 187 169
0.202412 -1.14902 3.31881 149 222 200
1.04821 -1.16482 3.37322 61 125 90
-0.350491 -1.12895 3.27252 65 117 80
0.458475 -1.14997 3.3437 97 129 128
0.187099 -1.14069 3.32108 82 122 110
-1.83011 -1.08987 3.18212 89 147 118
0.606903 -1.14222 3.34339 107 149 142
-1.41796 -1.08814 3.19024 161 233 203
-0.282737 -1.11745 3.28865 20 81 53
0.600585 -1.13848 3.34305 180 230 218
-1.00147 -1.10141 3.24163 76 123 107
-1.6421 -1.08269 3.20327 73 136 110
-1.00519 -1.1019 3.25748 67 126 111
-1.5059 -1.07116 3.18 75 123 87
-1.49069 -1.06925 3.17664 159 214 167
-1.34171 -1.06838 3.18084 162 229 208
-1.32688 -1.06961 3.18027 72 109 89
-1.31938 -1.0668 3.18158 158 205 173
1.25772 -1.12065 3.34952 92 128 98
-0.328577 -1.09417 3.28652 171 240 190
0.229211 -1.10812 3.33258 101 154 145
-1.38533 -1.06044 3.19202 88 142 129
-0.94072 -1.07985 3.2527 74 136 118
-1.32544 -1.05364 3.17935 96 145 131
-0.636553 -1.08131 3.27741 95 161 149
-1.43053 -1.04885 3.19205 66 114 96
-1.49336 -1.04099 3.17866 89 132 89
-0.684865 -1.07177 3.27317 64 114 96
0.608634 -1.09995 3.35501 103 140 132
0.921358 -1.10891 3.385 80 127 111
1.59892 -1.10521 3.37807 97 156 128
-1.51165 -1.0381 3.17695 79 153 117
-1.23885 -1.05238 3.22691 156 215 171
-0.413823 -1.07311 3.28993 65 125 94
-1.68449 -1.05033 3.21849 130 212 160
-1.4271 -1.04068 3.19493 51 108 93
-1.29347 -1.03661 3.17831 168 230 182
-1.19123 -1.05314 3.23763 71 94 79
-0.290346 -1.07192 3.28602 95 157 117
-0.954993 -1.05533 3.25569 86 156 143
-0.269069 -1.07103 3.29813 144 226 184
-1.22393 -1.04311 3.22397 68 94 70
-0.39092 -1.06398 3.2907 88 155 124
-1.17113 -1.04501 3.24242 115 157 169
-0.377291 -1.06525 3.30298 54 112 84
-0.0501207 -1.06512 3.31435 57 109 72
-1.75718 -1.031 3.22178 133 181 139
-1.09212 -1.03795 3.24193 89 121 110
-0.677231 -1.05203 3.28189 69 116 94
-0.0641555 -1.06297 3.31437 49 118 85
-1.49086 -1.01397 3.17327 155 248 181
-1.20913 -1.03699 3.24443 111 165 128
-1.09429 -1.03801 3.24713 73 102 93
-1.62962 -1.02442 3.21611 88 179 134
-1.78346 -1.01769 3.20961 113 198 154
-1.2714 -1.01899 3.21767 131 196 157
-1.23525 -1.02346 3.23193 45 74 58
0.448194 -1.06474 3.35965 93 161 144
-0.374022 -1.04299 3.3007 71 139 108
0.300071 -1.05846 3.34892 115 162 153
-1.77117 -1.01305 3.21067 34 67 46
-1.26633 -1.01748 3.22479 58 62 43
-0.823066 -1.03126 3.27303 88 147 139
-0.82124 -1.03125 3.27351 85 144 136
-1.71539 -1.00876 3.21347 93 148 115
-1.65845 -1.01484 3.23493 154 236 194
-1.39366 -1.00364 3.19222 85 122 178
0.167047 -1.05078 3.347 86 149 129
-1.32506 -0.997761 3.18911 77 109 98
-1.08736 -1.01534 3.24963 81 124 111
-0.059016 -1.04087 3.32429 78 140 104
1.16965 -1.06145 3.39427 74 133 118
-1.68909 -1.00888 3.22774 155 222 177
-1.40296 -1.00367 3.21421 61 125 136
-1.08839 -1.0135 3.25501 63 93 80
-1.27444 -1.00268 3.2267 184 250 199
-1.04581 -1.01167 3.25805 169 237 226
-0.0651405 -1.03689 3.33578 64 150 116
1.13928 -1.05695 3.40306 163 234 207
-0.906097 -1.01355 3.26676 74 118 111
-0.333334 -1.0274 3.31564 86 136 132
-0.290401 -1.02299 3.31005 59 105 92
-1.32003 -0.983692 3.19234 161 216 189
-1.13238 -1.00252 3.25509 72 105 98
-1.42778 -0.985796 3.21344 32 68 68
-1.02734 -1.00353 3.26738 65 115 103
-1.43544 -0.982393 3.2123 138 216 169
0.546698 -1.03556 3.38006 124 178 165
-1.36518 -0.97724 3.19824 71 120 100
-1.19138 -0.995422 3.26017 62 94 75
-1.2673 -0.983266 3.22672 135 203 156
-0.899303 -0.992557 3.26992 73 126 117
-0.244422 -1.00623 3.31616 100 160 149
-0.140173 -1.00694 3.32884 83 145 139
-0.406837 -0.996157 3.31012 98 153 144
-0.905009 -0.985282 3.26969 81 156 135
-1.63915 -0.968548 3.23788 76 141 109
-0.128404 -0.994258 3.32646 75 128 119
0.373035 -1.00673 3.36601 111 166 151
-1.08006 -0.972585 3.26838 110 167 159
1.75765 -1.02263 3.42901 87 129 112
-1.68659 -0.96597 3.24147 125 198 158
-1.3867 -0.952718 3.2147 47 81 64
1.31098 -1.00998 3.39805 43 65 53
-0.535639 -0.978017 3.30516 90 140 130
0.96666 -1.0068 3.39811 98 158 147
-0.921247 -0.970828 3.28113 94 142 130
-0.200093 -0.982511 3.33132 81 139 134
0.625776 -0.99324 3.38126 98 156 145
-1.22815 -0.952427 3.25361 50 97 81
-1.09184 -0.95515 3.2665 108 153 144
-0.837224 -0.963168 3.28994 78 134 123
-0.126449 -0.976928 3.33019 98 154 141
0.00426287 -0.978361 3.3433 96 150 137
1.34012 -0.999724 3.40991 38 51 29
-1.86493 -0.938801 3.21947 122 188 147
-1.22974 -0.948621 3.25527 62 79 70
0.00412293 -0.97832 3.34982 100 156 143
0.400409 -0.980322 3.37602 119 174 165
-1.30651 -0.934869 3.22582 107 155 119
0.420192 -0.978195 3.37945 92 132 137
0.834769 -0.984318 3.3995 111 155 142
1.03159 -0.986686 3.41353 86 123 119
0.310766 -0.971253 3.36789 89 141 131
-0.157991 -0.957168 3.34178 92 140 122
-1.75323 -0.916895 3.23574 160 207 168
-1.39566 -0.906158 3.2248 168 241 191
-1.85593 -0.892519 3.21045 157 233 199
1.05875 -0.951791 3.42484 97 154 146
-1.40646 -0.896235 3.23694 59 85 67
-1.40083 -0.899224 3.24151 49 82 61
0.828249 -0.944808 3.40625 86 146 136
0.925713 -0.945875 3.42687 121 169 163
2.06002 -0.947436 3.42138 194 233 217
-1.07017 -0.901258 3.27198 59 101 84
-0.384211 -0.915987 3.32162 89 147 129
-0.38553 -0.915641 3.33523 62 130 107
-1.74215 -0.883389 3.22926 136 214 161
-1.62539 -0.88749 3.24204 55 98 77
-1.2099 -0.893646 3.27038 76 102 86
-1.07436 -0.90092 3.28325 86 152 127
-1.39515 -0.875665 3.24227 94 130 114
-0.17762 -0.906512 3.35015 93 136 125
0.0389147 -0.904897 3.35373 90 124 107
0.142807 -0.909653 3.36884 158 237 194
-1.4007 -0.875269 3.25266 70 103 89
0.0315868 -0.903623 3.35609 76 125 109
-0.261397 -0.898783 3.34347 96 166 153
0.0381959 -0.904296 3.37523 68 130 112
-1.22815 -0.874013 3.2754 70 112 95
-1.60208 -0.867288 3.25632 53 100 78
0.859252 -0.90937 3.4231 99 147 135
-0.178055 -0.885093 3.34618 117 194 157
0.862678 -0.905549 3.42269 84 145 131
-1.67213 -0.853017 3.25107 52 79 63
-1.56158 -0.850371 3.26082 81 124 111
-1.00909 -0.855209 3.29571 71 129 104
-0.986134 -0.848869 3.30419 71 111 83
-1.01024 -0.840554 3.29331 81 117 103
-1.78693 -0.832052 3.26073 88 147 116
-1.43655 -0.834461 3.26893 78 130 112
-1.00962 -0.840385 3.29666 65 99 93
-1.88349 -0.828845 3.26062 67 141 123
-1.28367 -0.830832 3.28325 57 108 81
-1.18417 -0.832924 3.29498 96 144 132
-1.14762 -0.832973 3.29046 54 95 88
-1.61421 -0.812509 3.25711 157 230 190
-1.3073 -0.809117 3.27698 41 57 40
-1.57664 -0.803791 3.27306 74 120 84
-0.951913 -0.81334 3.31055 73 142 127
-1.80744 -0.800888 3.26503 59 82 67
0.253917 -0.835459 3.39665 79 144 128
-1.66786 -0.797472 3.26232 65 109 86
-0.693034 -0.812755 3.33355 70 126 113
-1.26627 -0.795479 3.29907 59 102 89
-0.719117 -0.802196 3.33429 62 115 112
-0.905675 -0.792406 3.32059 65 134 119
-1.68009 -0.778572 3.27528 57 122 90
2.00085 -0.833928 3.49978 109 155 136
-1.33017 -0.778853 3.28503 100 116 99
2.00153 -0.83386 3.50125 124 171 149
-0.105291 -0.796312 3.37857 70 102 121
-1.67976 -0.769057 3.26862 169 241 205
-1.44057 -0.775259 3.28873 160 232 202
-1.09406 -0.777806 3.30975 83 130 127
-1.64849 -0.771985 3.2833 76 136 118
-1.21695 -0.771584 3.2964 87 150 130
-1.61773 -0.759982 3.27463 60 97 87
-0.817967 -0.770925 3.33682 74 125 98
-1.64367 -0.756381 3.27937 67 131 109
-1.72502 -0.740047 3.28153 63 101 79
-0.7363 -0.74338 3.35135 84 148 149
-1.49151 -0.728981 3.28965 51 92 65
-1.29147 -0.736468 3.31565 74 122 110
-0.167718 -0.748391 3.38303 60 123 97
-1.36323 -0.725194 3.30575 65 105 103
-0.813221 -0.727189 3.33675 104 153 133
-0.698998 -0.728439 3.3533 50 117 108
-1.31029 -0.715796 3.31067 62 80 73
-0.174604 -0.728343 3.3872 94 150 131
-0.0578255 -0.729614 3.39959 177 242 227
1.07487 -0.742206 3.48441 81 122 125
-0.506155 -0.714628 3.36741 74 133 118
-1.7064 -0.697284 3.29441 90 161 141
-0.203159 -0.716308 3.38244 98 149 141
-0.122492 -0.706035 3.4143 92 156 144
1.30135 -0.723147 3.49066 118 154 154
0.0574443 -0.699365 3.41965 94 152 134
1.31206 -0.710171 3.49901 125 169 162
0.0447955 -0.678244 3.41497 94 152 127
0.624078 -0.685987 3.45565 101 126 128
0.0782693 -0.675785 3.41575 97 152 133
0.0798319 -0.675308 3.42063 108 162 145
1.1523 -0.689271 3.50487 101 155 148
1.88177 -0.689562 3.53434 99 152 132
-0.658852 -0.64531 3.37534 95 153 142
0.638234 -0.651151 3.45888 88 123 109
0.590346 -0.647032 3.46242 178 226 214
1.92942 -0.66716 3.55364 110 165 138
0.680301 -0.641139 3.45745 92 126 115
0.695746 -0.640103 3.4711 163 223 235
0.012082 -0.600912 3.43454 100 162 150
0.599784 -0.609467 3.46951 104 150 138
1.98922 -0.605206 3.59268 121 168 182
-0.782891 -0.56469 3.38116 57 115 104
0.785974 -0.577689 3.49238 93 167 149
1.10023 -0.565711 3.52993 114 159 150
-0.967424 -0.536727 3.36723 67 106 98
-0.0105293 -0.548213 3.43959 94 142 130
-0.0106805 -0.546566 3.45214 80 125 109
-0.362741 -0.536622 3.40915 112 152 141
-1.13057 -0.518517 3.3679 50 118 107
0.182063 -0.502586 3.4655 113 165 155
0.988619 -0.506676 3.52455 96 148 138
1.02457 -0.508102 3.53204 104 165 151
1.91681 -0.511742 3.59603 111 176 161
-0.992204 -0.475521 3.37468 89 138 122
-0.994333 -0.474785 3.37944 82 135 122
-0.569992 -0.479589 3.41193 154 214 214
-0.235965 -0.458069 3.44082 60 151 125
-0.837307 -0.441846 3.39809 64 112 94
2.06338 -0.448395 3.5822 141 223 174
-0.328443 -0.4288 3.44203 84 145 141
0.15635 -0.430417 3.47595 71 117 98
1.94515 -0.4501 3.60962 121 179 161
0.156163 -0.430313 3.47659 71 117 98
-0.0552768 -0.420808 3.46921 162 233 216
-0.846781 -0.413857 3.41251 96 154 126
1.5604 -0.431279 3.58904 103 144 137
-1.10312 -0.401629 3.38473 88 117 108
-0.792976 -0.402358 3.41396 91 162 145
1.04302 -0.416866 3.54421 58 98 86
0.858935 -0.412225 3.53439 97 143 144
-1.14297 -0.387907 3.38975 99 159 149
-1.11794 -0.384695 3.38852 80 132 115
1.02336 -0.400713 3.55047 87 150 134
-1.10523 -0.379491 3.38883 95 139 110
-0.355142 -0.383589 3.44983 72 125 112
-1.54514 -0.371677 3.36289 57 110 96
-1.54607 -0.371611 3.36326 76 132 113
-1.09702 -0.372766 3.39148 44 92 63
-1.08816 -0.366786 3.39941 108 172 142
-1.93432 -0.341953 3.35056 63 133 120
-0.971829 -0.342855 3.40536 72 137 122
1.22591 -0.351543 3.58531 95 153 148
0.995319 -0.343214 3.55408 62 101 86
-2.03078 -0.310188 3.35566 71 123 113
1.13684 -0.326182 3.59 104 180 162
-1.81076 -0.304645 3.35486 85 138 124
-1.04942 -0.30941 3.40991 71 125 108
-0.510157 -0.308426 3.45063 93 161 150
-1.71712 -0.286397 3.37405 176 245 224
-1.1564 -0.278751 3.40325 51 109 91
-1.45312 -0.27423 3.38251 216 250 244
1.03283 -0.278974 3.58433 88 110 121
-1.10943 -0.252171 3.41639 79 147 136
-1.41388 -0.223477 3.3896 104 125 117
-1.22552 -0.221088 3.41314 66 115 93
-0.992114 -0.222918 3.4262 86 145 131
0.584907 -0.226447 3.55104 110 176 165
2.11954 -0.230745 3.68244 129 187 159
-1.15942 -0.204157 3.422 104 153 145
-1.04153 -0.162806 3.43327 67 126 98
-1.17067 -0.156609 3.43073 72 118 106
2.16522 -0.16524 3.67921 97 156 128
-0.983759 -0.151883 3.43816 79 127 115
0.82607 -0.150979 3.58747 157 210 197
-0.978104 -0.143666 3.43335 60 118 94
2.18172 -0.147834 3.67486 58 106 78
-0.233177 -0.133831 3.50108 65 126 112
1.1711 -0.138799 3.62916 175 227 217
-1.60274 -0.125865 3.39971 58 96 68
-0.22045 -0.127231 3.51317 74 134 124
2.21949 -0.13286 3.67327 72 115 100
-1.23188 -0.121382 3.43345 69 126 111
-0.271272 -0.122458 3.50572 94 155 145
2.20625 -0.128127 3.67693 137 181 158
-1.06531 -0.114169 3.4394 100 178 137
1.72629 -0.120572 3.68992 100 146 157
-1.42743 -0.100532 3.4195 44 96 79
-1.28987 -0.0963117 3.42678 167 223 210
2.18167 -0.0937782 3.66095 137 182 173
-0.0789025 -0.0876678 3.52534 73 146 136
-1.75565 -0.0785345 3.40194 161 240 197
2.0163 -0.0853029 3.68868 124 202 171
-1.09695 -0.0721364 3.44844 73 131 103
1.32558 -0.079464 3.65923 90 143 134
-1.0748 -0.0668971 3.44656 77 134 103
-1.73117 -0.0585858 3.4026 62 101 79
-1.23678 -0.0588978 3.44334 157 230 190
-0.83719 -0.0581615 3.47215 68 116 98
-1.73423 -0.0571962 3.40763 61 100 75
-1.32243 -0.0578698 3.44119 78 130 106
-1.18097 -0.0546841 3.4497 56 109 89
-1.73284 -0.0472912 3.41392 172 202 159
-1.23927 -0.0472854 3.4441 54 92 70
-1.72444 -0.0444564 3.40716 72 89 68
-1.11594 -0.033992 3.44515 42 82 54
-1.42146 -0.0336558 3.42844 71 118 102
-1.34963 -0.0307983 3.44399 78 138 127
-0.0750942 -0.0297286 3.5426 68 130 118
-1.69977 -0.0235579 3.41572 69 113 90
-1.31339 -0.0237247 3.43664 172 234 218
-1.22619 -0.0244011 3.44486 62 97 77
-0.969615 -0.0179468 3.47191 64 130 119
1.28538 -0.0193606 3.66309 93 137 136
-1.54283 -0.0170493 3.42466 70 104 94
1.43639 -0.016874 3.67822 86 136 124
-1.71352 -0.013421 3.40813 91 157 138
0.823371 -0.0154862 3.61613 87 126 118
-1.09899 -0.00833264 3.45346 72 130 106
-1.22452 -0.00524893 3.44147 70 109 83
-0.685607 -0.00352208 3.49814 76 129 120
1.23453 -0.00132094 3.6676 83 135 125
0.823567 -0.00117979 3.60978 85 136 128
1.3469 0.00124883 3.67588 110 146 146
-1.75316 0.00482933 3.40615 71 120 88
0.913077 0.0115246 3.62704 80 135 126
1.73969 0.0168892 3.7207 57 133 121
1.61115 0.0213577 3.70673 79 154 138
0.722388 0.0338225 3.62035 83 139 126
0.237162 0.0348644 3.58078 253 255 255
1.33459 0.035465 3.66448 162 213 186
0.942367 0.0369991 3.63095 89 125 113
2.17546 0.0377354 3.68478 143 198 151
1.38346 0.0389131 3.67696 141 209 186
1.65672 0.0447611 3.71223 92 161 146
1.63811 0.0476579 3.71048 84 150 138
-1.4941 0.0449675 3.4448 87 116 107
1.37634 0.0473285 3.68271 132 170 152
0.609442 0.0497248 3.60857 88 152 147
0.944992 0.05169 3.63252 83 148 132
0.87936 0.0545874 3.62902 105 153 147
-1.18444 0.0591207 3.46645 104 154 142
-0.320888 0.0707401 3.54538 66 128 110
-0.895102 0.0756025 3.48555 61 130 110
-1.29021 0.0768566 3.46287 91 127 110
-1.48503 0.0796159 3.45126 91 129 117
1.44977 0.0869906 3.70346 55 111 92
-1.56109 0.0822613 3.43639 75 122 106
-1.44734 0.0852079 3.45068 78 130 113
2.0701 0.0888952 3.68933 54 118 88
0.633176 0.0899507 3.60843 79 112 98
-1.81947 0.0971423 3.42159 79 116 90
-1.44079 0.0969124 3.45625 56 94 88
-1.73554 0.100806 3.43194 59 88 65
-1.46753 0.105544 3.45897 93 132 124
1.18659 0.122492 3.67647 75 141 129
-1.61394 0.122156 3.43647 70 102 85
-1.76229 0.127468 3.42758 67 103 79
-1.85232 0.129481 3.4302 50 103 70
0.46427 0.139434 3.60821 90 133 118
2.01611 0.144179 3.71288 148 208 178
-0.18545 0.141507 3.56714 63 114 100
1.72047 0.149035 3.73573 54 123 103
-1.69844 0.139082 3.43668 77 128 100
-1.27027 0.144991 3.48298 68 131 115
1.96346 0.154332 3.72148 138 193 148
1.99261 0.156668 3.72233 136 218 176
-0.158409 0.152928 3.56462 29 89 58
-1.6856 0.15069 3.43991 83 120 104
-1.32321 0.154626 3.46327 167 225 214
0.511091 0.160898 3.61761 71 137 125
0.74142 0.162753 3.62734 77 126 110
0.824787 0.162959 3.63808 175 212 202
0.455139 0.172186 3.61287 198 243 234
1.53264 0.17767 3.72804 100 162 150
1.89691 0.179118 3.7102 133 171 141
0.74146 0.180375 3.63696 110 143 129
-1.68263 0.172478 3.4516 65 121 98
1.23625 0.185824 3.67751 89 132 123
1.98551 0.190309 3.71741 71 104 89
-1.06125 0.184081 3.49863 177 236 228
0.666431 0.193649 3.62833 46 87 66
2.01187 0.199239 3.72283 174 244 208
-1.89902 0.185017 3.43975 68 117 89
0.547258 0.198377 3.61872 158 223 197
0.745043 0.200994 3.64249 162 212 182
-1.23913 0.196982 3.4926 55 101 95
-1.33922 0.196607 3.48057 87 131 124
1.83294 0.212529 3.76071 80 118 106
0.737372 0.208972 3.63655 58 77 58
0.407434 0.215262 3.60842 60 114 101
0.408779 0.219216 3.62016 70 129 114
0.526534 0.219578 3.62125 74 111 95
-0.623478 0.224095 3.5311 73 147 129
-1.10457 0.233167 3.48933 69 116 84
-0.563345 0.233842 3.53962 88 145 136
-1.29105 0.237561 3.49675 176 246 216
-1.0816 0.239497 3.49954 54 77 55
-1.79904 0.248041 3.45568 54 109 82
-1.60627 0.253783 3.4699 96 123 113
-1.60698 0.253521 3.46919 88 118 105
0.676383 0.26439 3.63022 60 85 65
-1.63135 0.25632 3.47083 93 151 133
1.06782 0.274493 3.703 73 113 95
-0.215156 0.270811 3.57307 102 167 152
0.086881 0.271498 3.60299 59 123 117
-0.217266 0.27382 3.58159 79 147 130
-1.53934 0.270878 3.47892 94 142 106
2.25417 0.290279 3.727 144 210 169
-1.53197 0.279994 3.47868 75 124 92
-0.190238 0.29078 3.59387 32 101 81
-1.58607 0.285349 3.47272 76 127 107
-1.48985 0.291063 3.49089 168 234 185
-1.53784 0.293876 3.47791 39 81 46
1.23964 0.31565 3.72526 41 88 72
-1.50703 0.302045 3.48618 47 109 73
0.684725 0.321189 3.66373 71 97 91
-0.228085 0.32112 3.59307 67 116 102
-1.01262 0.319819 3.52071 42 99 68
-1.02036 0.327508 3.52063 154 241 191
0.486243 0.337342 3.64488 99 136 126
-1.62166 0.329464 3.4828 74 114 89
0.063909 0.345701 3.61308 81 133 116
0.256702 0.35285 3.62945 90 144 131
0.904521 0.357386 3.69573 107 176 161
-2.15121 0.3511 3.45513 76 118 111
-1.28754 0.36568 3.51081 90 146 127
-1.28877 0.366859 3.51385 93 151 133
-1.54771 0.369086 3.47806 51 95 59
-0.0492006 0.385613 3.61563 88 152 140
-1.51402 0.374598 3.48991 71 93 81
-1.11824 0.381508 3.5232 90 129 113
-1.61557 0.388841 3.46966 160 241 202
-1.3027 0.391291 3.50431 82 128 116
-1.18762 0.405289 3.52688 173 234 208
-0.483728 0.41328 3.57825 61 132 105
-1.75497 0.402644 3.48352 190 237 229
1.28723 0.434812 3.75209 89 140 132
-1.73362 0.405274 3.48305 49 93 86
1.28873 0.437488 3.75912 87 136 128
-0.339599 0.421466 3.59921 58 112 95
0.619554 0.437465 3.68307 84 119 115
0.63444 0.435883 3.68384 88 143 134
-1.23894 0.417472 3.52418 64 107 86
0.817072 0.443145 3.70774 86 153 132
1.61036 0.450003 3.77348 64 136 106
0.625936 0.442959 3.68553 202 247 238
0.415865 0.443656 3.66164 102 153 139
-1.59918 0.423985 3.49462 70 105 78
-1.12775 0.42805 3.53358 67 119 96
-1.27485 0.430231 3.525 59 101 76
0.418547 0.449078 3.67535 112 158 145
-1.74135 0.429453 3.48576 164 241 214
-1.53599 0.441777 3.49331 65 93 74
-1.70972 0.443061 3.48481 34 90 55
-1.53482 0.447286 3.51212 49 67 54
-1.54602 0.449131 3.51117 52 82 57
-1.41602 0.450282 3.51331 79 125 103
0.61897 0.477923 3.69117 79 138 124
-1.56398 0.455596 3.50145 70 109 87
-1.01348 0.467824 3.55122 55 114 100
-1.68995 0.464262 3.48951 150 214 184
0.6152 0.493563 3.68942 75 108 101
-1.67804 0.469703 3.49146 180 227 205
-1.70488 0.473445 3.48649 70 92 67
0.627583 0.503911 3.68398 102 133 134
0.622838 0.506366 3.70007 165 207 200
-1.18804 0.490853 3.53891 62 124 84
0.935322 0.518834 3.73276 80 128 116
-1.44179 0.492133 3.52142 72 143 123
0.930677 0.521311 3.73104 85 138 125
0.623596 0.534201 3.69811 57 86 77
-1.31822 0.513768 3.53462 79 121 104
-0.821536 0.525259 3.5792 81 145 123
0.692096 0.549433 3.69835 126 170 163
0.695248 0.554716 3.71094 85 136 132
0.54075 0.554968 3.69655 180 231 217
0.420554 0.558478 3.69132 157 237 200
0.474784 0.563004 3.69426 62 129 100
0.339992 0.561234 3.68084 51 96 77
0.943877 0.572056 3.74914 119 169 157
-1.6556 0.534782 3.49563 190 247 222
0.420535 0.561931 3.67936 63 116 89
0.938256 0.574377 3.74509 97 143 130
0.652657 0.567756 3.70622 113 158 155
-1.80981 0.541926 3.5078 191 235 228
0.372298 0.568216 3.68352 43 99 70
2.44042 0.593488 3.84196 83 138 113
0.521137 0.577018 3.68452 61 113 95
-1.51756 0.551681 3.51598 62 69 54
0.381824 0.584177 3.69092 80 117 97
-1.63902 0.563555 3.51869 40 74 43
0.398881 0.59729 3.69506 90 125 128
0.968992 0.605912 3.75457 85 126 119
-0.385635 0.586933 3.6293 87 137 125
-1.04313 0.587338 3.56395 84 140 111
-1.13992 0.587885 3.55048 56 107 79
-1.13439 0.591654 3.55777 118 207 163
-1.09263 0.587747 3.54963 49 99 65
0.383937 0.614035 3.69846 72 121 105
-1.91474 0.589561 3.51091 78 135 114
-1.30955 0.595428 3.55468 66 125 97
2.30221 0.650292 3.86332 122 175 162
-1.27078 0.598174 3.54981 55 87 63
-1.13381 0.602981 3.56097 40 100 70
-0.643383 0.610827 3.60177 66 99 84
0.381551 0.63239 3.70612 75 110 96
-1.80422 0.603797 3.50552 65 119 76
-1.75612 0.60801 3.51539 33 53 24
-1.07913 0.616273 3.55923 47 69 51
0.381135 0.64035 3.71097 87 152 120
0.528471 0.639128 3.7022 87 126 110
-1.80483 0.613479 3.50663 227 252 238
-1.72308 0.615975 3.52828 180 244 202
-0.0089947 0.647281 3.6655 75 130 121
-1.07269 0.629042 3.55413 82 111 96
-0.997478 0.634274 3.57074 68 94 76
2.11392 0.686723 3.87111 78 128 118
2.26956 0.684086 3.84258 147 223 181
-1.09901 0.637232 3.55687 144 206 158
-1.07253 0.639433 3.56462 111 167 148
-0.865739 0.643579 3.59396 79 132 123
-1.0754 0.647606 3.57237 58 93 79
2.17788 0.703476 3.86877 48 84 72
1.2622 0.699598 3.80769 76 115 117
-1.69355 0.647488 3.51875 56 90 60
1.50448 0.708742 3.8417 236 255 248
-1.74984 0.649947 3.51763 74 116 93
-1.24511 0.66571 3.57449 87 99 87
0.41556 0.691956 3.72349 170 226 213
-1.18341 0.672015 3.56708 83 124 93
-1.23566 0.685588 3.57304 51 89 59
1.04956 0.729447 3.79497 59 123 111
1.26185 0.728336 3.80265 93 129 117
-1.1268 0.68773 3.56625 45 80 66
-1.64482 0.684285 3.53696 83 128 102
-0.83214 0.696831 3.60755 52 114 96
1.33788 0.74649 3.81378 85 111 97
-1.26245 0.702314 3.57126 173 236 194
1.28621 0.752993 3.81609 95 128 121
-1.23468 0.705085 3.57314 61 105 76
1.00965 0.760991 3.78391 67 89 77
1.21373 0.766758 3.80543 70 114 97
0.908668 0.770718 3.78113 94 139 130
1.26857 0.778044 3.81829 83 131 113
0.357178 0.764666 3.73301 234 255 248
1.53069 0.795484 3.85593 167 221 222
1.14785 0.791919 3.81921 122 183 157
1.18174 0.796588 3.81911 74 113 97
-1.28757 0.749916 3.57546 70 111 113
-0.761576 0.75699 3.62167 93 163 132
0.981182 0.79378 3.7788 85 119 108
1.13939 0.803113 3.81242 83 128 119
2.07759 0.827433 3.91767 159 214 189
-1.10815 0.770061 3.59099 131 186 169
0.864851 0.812288 3.78782 92 109 100
-1.28673 0.772938 3.57741 40 79 57
-1.25051 0.775387 3.58685 149 198 166
-1.14922 0.780935 3.59414 57 105 81
-1.5658 0.774158 3.56479 106 166 135
-0.983083 0.784656 3.61269 62 113 106
-1.4829 0.779456 3.56707 64 120 107
0.22881 0.814446 3.72009 98 154 143
0.23 0.813692 3.72153 94 144 134
1.49884 0.858359 3.85935 81 95 93
1.57475 0.868609 3.86966 96 133 129
-1.2204 0.808706 3.59386 55 85 66
0.341907 0.848676 3.74022 56 98 87
2.19878 0.881007 3.88831 82 120 102
-1.2332 0.81396 3.58188 52 96 65
0.329029 0.854987 3.74235 74 114 102
0.614833 0.864181 3.76919 110 146 140
-0.57461 0.844711 3.6543 61 109 91
-0.427234 0.849215 3.6697 65 104 89
-0.418135 0.850549 3.681 110 165 150
-0.506348 0.850462 3.65927 49 107 72
0.628177 0.886531 3.75835 93 152 137
0.32591 0.884079 3.74172 96 120 118
-0.525661 0.864056 3.65357 21 63 40
0.352127 0.892053 3.759 89 123 116
0.311873 0.89155 3.74757 81 129 117
1.53616 0.922872 3.86377 124 155 148
-0.517315 0.878573 3.64195 174 244 197
2.27443 0.936417 3.88985 138 208 168
-0.562142 0.881698 3.64566 69 122 95
1.8236 0.944511 3.90935 135 182 166
1.28209 0.933438 3.84332 71 111 100
-0.514545 0.887026 3.64428 52 84 53
1.52681 0.95038 3.88269 53 83 84
1.51832 0.949987 3.87902 135 183 185
1.53169 0.95148 3.87698 157 208 210
-0.148361 0.912272 3.71507 87 151 132
1.37068 0.951852 3.85344 77 101 101
0.00987166 0.917749 3.71429 57 80 76
-0.540427 0.906053 3.65443 33 77 54
1.58087 0.964879 3.88468 154 200 217
1.28419 0.96131 3.847 124 169 160
0.041537 0.939209 3.72856 76 124 96
-0.0332727 0.943543 3.72698 198 236 224
-0.6908 0.941763 3.66493 79 128 120
-0.411775 0.949027 3.69586 65 114 92
1.40147 0.993396 3.86876 138 210 190
-0.43348 0.949094 3.67734 168 228 210
-0.204347 0.960828 3.71336 91 150 142
1.64346 1.01119 3.88947 141 175 165
-0.404183 0.967891 3.69586 96 136 124
-0.247728 0.969461 3.70086 81 117 103
-0.603973 0.965029 3.66965 40 81 53
1.36716 1.02263 3.87937 76 107 98
-0.473044 0.985583 3.69022 144 221 184
-0.451983 0.983787 3.68891 47 114 85
-0.804307 0.980357 3.66215 69 109 98
-0.42458 0.995724 3.69646 67 102 92
-0.728836 1.00268 3.67026 71 118 109
-0.657244 1.00378 3.68383 79 124 107
-0.639863 1.00127 3.66547 89 131 114
2.38089 1.07422 3.92724 129 214 162
-0.642885 1.00931 3.68019 70 115 89
-0.569305 1.008 3.68101 76 104 98
-0.803342 1.0119 3.6685 68 102 92
-0.631705 1.01506 3.68034 63 101 79
-0.592057 1.02498 3.68766 59 117 93
2.00993 1.09873 3.88768 48 75 65
-0.673385 1.0458 3.6847 62 126 114
-1.12617 1.04529 3.64492 70 104 93
-0.0329213 1.08262 3.74965 253 255 255
1.19092 1.12474 3.87605 122 190 173
-0.516339 -1.29038 3.23549 105 147 136
0.26084 -1.29859 3.28849 88 106 93
-1.70715 -1.24496 3.16298 89 169 134
-1.10854 -1.26114 3.20124 73 125 107
0.0173514 -1.24823 3.16476 81 106 86
-1.70985 -1.24544 3.16925 110 184 148
-1.34739 -1.25277 3.19359 151 203 180
0.375784 -1.2934 3.29463 68 114 102
-0.00387809 -1.23993 3.16655 161 227 202
0.290619 -1.28494 3.28615 153 211 193
-0.318985 -1.25673 3.2309 97 125 119
-1.21148 -1.24101 3.20469 87 115 102
0.367376 -1.27516 3.29966 61 117 104
0.0362776 -1.22056 3.17322 63 116 89
-1.72614 -1.22257 3.17837 147 236 186
-1.45629 -1.21622 3.16919 67 117 93
-0.315733 -1.24585 3.24138 159 221 203
-0.302634 -1.24145 3.23157 84 105 102
-1.17812 -1.22563 3.20303 73 116 101
-0.32832 -1.23658 3.23025 80 140 110
-1.47952 -1.2109 3.17828 160 234 192
-1.11381 -1.22602 3.2112 85 121 109
-0.0139718 -1.21339 3.17505 161 219 190
-1.41052 -1.20959 3.18675 157 245 199
-0.976626 -1.21479 3.22068 66 116 106
0.574528 -1.25295 3.32395 90 140 128
-1.2739 -1.20348 3.20599 153 224 191
0.267411 -1.23924 3.30417 95 120 122
0.815618 -1.24888 3.33056 99 164 148
-0.316194 -1.20969 3.23756 124 193 148
1.33344 -1.25508 3.35594 137 225 189
0.271846 -1.2308 3.30237 178 222 221
-1.30196 -1.17901 3.17803 73 90 86
-0.443539 -1.20947 3.25552 67 105 83
0.269366 -1.23085 3.3028 156 202 196
-1.54901 -1.18506 3.19109 105 186 137
-1.32648 -1.18261 3.18751 60 96 84
-1.27678 -1.18313 3.18441 153 207 190
-0.429164 -1.20745 3.25283 127 204 160
-1.73067 -1.1788 3.19092 63 123 93
-1.28745 -1.1795 3.1881 32 60 47
-1.25284 -1.18023 3.19311 165 222 189
-1.20908 -1.18649 3.21195 148 222 194
-1.53686 -1.17547 3.19608 135 217 165
-1.8117 -1.16335 3.18058 146 211 165
-1.64205 -1.16827 3.19269 42 72 61
0.550908 -1.21739 3.32426 117 145 145
-1.25908 -1.17806 3.21781 155 225 188
0.928963 -1.22896 3.34977 107 134 125
-1.83867 -1.15729 3.17192 76 135 97
-1.12681 -1.17585 3.22403 54 99 90
0.552021 -1.21671 3.32773 113 144 147
1.37536 -1.23098 3.37515 64 119 110
-1.39433 -1.15566 3.17499 128 185 147
-1.26697 -1.16525 3.20174 158 233 189
-1.44369 -1.14647 3.16765 127 194 143
-1.47363 -1.14912 3.17648 62 116 79
-1.25215 -1.16304 3.21125 86 122 105
0.851301 -1.21091 3.3433 92 147 138
-1.64141 -1.14297 3.17098 45 69 51
-1.26813 -1.15223 3.19772 101 137 101
-1.31089 -1.14429 3.18233 101 145 116
-0.25889 -1.17726 3.26744 53 90 82
0.249045 -1.19423 3.31904 103 134 133
-1.60713 -1.14194 3.18645 138 242 181
-1.38193 -1.14408 3.18358 66 103 93
-0.525904 -1.16873 3.26441 92 138 126
-1.65831 -1.14439 3.20238 41 78 62
-1.82008 -1.13121 3.18745 157 254 198
-1.70026 -1.12501 3.18671 44 113 80
-1.42243 -1.12934 3.1826 120 174 144
-1.34459 -1.12007 3.176 110 153 140
-0.355857 -1.15525 3.27554 167 255 217
-0.494646 -1.15118 3.26604 90 130 118
0.0470981 -1.13629 3.21949 53 97 84
0.804006 -1.17482 3.33487 109 156 147
-1.43645 -1.11284 3.1788 129 191 151
-1.37441 -1.11642 3.18757 67 106 115
-1.17914 -1.12491 3.2258 74 104 91
-1.22116 -1.11469 3.20868 115 143 114
-1.20894 -1.11818 3.21947 68 83 69
0.55856 -1.15752 3.33671 105 136 133
-1.29299 -1.1064 3.19455 142 168 152
-1.07633 -1.1198 3.23678 74 101 92
-0.511149 -1.13262 3.27518 73 114 99
1.04897 -1.16485 3.37389 81 145 110
-1.67413 -1.10751 3.2053 123 217 170
0.457913 -1.14917 3.33962 96 127 128
1.01123 -1.15812 3.36814 83 156 124
-0.367109 -1.12549 3.28694 100 181 132
0.609656 -1.14538 3.34945 103 151 139
-1.46548 -1.08186 3.18128 69 100 79
0.908512 -1.14279 3.35526 109 143 136
-1.39345 -1.07885 3.1809 178 246 211
-1.29495 -1.07857 3.17828 141 183 158
-1.20747 -1.09706 3.23618 64 84 79
-1.18722 -1.09134 3.22167 152 221 194
-0.277518 -1.11252 3.28668 162 255 201
-1.21385 -1.08537 3.2467 164 215 195
-1.1894 -1.08184 3.23642 65 100 80
-0.320324 -1.09846 3.29156 116 153 113
-1.01547 -1.07747 3.25097 186 239 226
-1.43461 -1.05719 3.19346 94 176 127
-1.18529 -1.06771 3.2328 152 223 206
-1.27573 -1.05172 3.1873 135 178 145
-0.401413 -1.07772 3.27769 56 85 70
-1.56659 -1.05025 3.19798 101 159 124
-1.11133 -1.06329 3.24318 90 138 126
-1.00794 -1.06564 3.2463 117 172 157
-1.31095 -1.0373 3.16484 106 140 123
0.399161 -1.09252 3.33933 92 122 117
0.989544 -1.10304 3.37272 170 240 210
-1.68481 -1.05033 3.21872 129 211 162
-1.67528 -1.04838 3.21463 39 88 50
-0.373486 -1.0754 3.29793 49 75 62
1.028 -1.10398 3.38096 109 153 140
-1.03226 -1.05319 3.24056 95 128 121
0.432502 -1.08253 3.34564 181 227 214
-1.67157 -1.04097 3.21922 70 109 88
-1.20062 -1.0472 3.24031 45 59 47
-1.81119 -1.02727 3.18601 140 215 177
0.416089 -1.07801 3.34485 87 126 118
-1.7541 -1.02703 3.20684 112 180 133
-1.0965 -1.03807 3.25179 77 111 105
1.65303 -1.08692 3.39413 93 140 124
1.04318 -1.08043 3.37847 95 138 123
-0.794372 -1.04361 3.27651 93 137 131
-0.392585 -1.04834 3.29502 48 81 66
-1.47321 -1.01142 3.1971 30 74 45
-1.23855 -1.02338 3.23485 58 76 63
1.68995 -1.07222 3.38051 83 160 122
-1.77222 -1.01522 3.21923 105 157 120
-1.72277 -1.01988 3.22225 134 226 175
0.500835 -1.06177 3.36027 94 142 130
-1.50602 -1.00067 3.17839 76 133 88
-1.39367 -1.00364 3.18991 63 94 149
-1.02783 -1.02748 3.26026 71 140 125
-0.044019 -1.05079 3.32656 49 104 79
-1.71532 -1.00876 3.21338 93 148 115
0.166694 -1.05074 3.3446 99 159 141
-1.85257 -1.00548 3.20429 89 139 115
-1.46872 -1.0018 3.19885 48 116 81
-0.0594082 -1.0409 3.32638 65 124 93
-1.40257 -1.00366 3.21334 61 125 136
-1.20642 -1.01425 3.2459 130 194 175
-0.370019 -1.03026 3.2996 66 106 81
0.277855 -1.04628 3.35682 97 164 127
-1.31386 -0.993445 3.19568 47 73 49
-1.04728 -1.01169 3.26351 160 226 215
-1.48483 -0.986867 3.19585 29 53 41
-1.37701 -0.991601 3.20272 70 120 108
-1.31686 -0.983733 3.18446 164 216 192
-0.29068 -1.02298 3.30886 69 107 95
-1.13232 -1.00252 3.25565 75 109 102
-0.537921 -1.01725 3.29731 64 105 84
-1.47714 -0.986681 3.21132 126 220 163
-1.32352 -0.98366 3.19907 187 237 213
-1.30891 -0.982682 3.21693 44 68 50
-1.47013 -0.972383 3.20507 46 105 67
-0.300071 -1.00447 3.31039 67 93 77
-0.177915 -1.00542 3.31499 70 103 89
1.10999 -1.03265 3.40936 81 139 128
1.92718 -1.03249 3.40676 77 103 85
-1.31095 -0.971577 3.21681 138 215 171
-0.220588 -1.00544 3.3226 85 149 127
-0.13922 -1.00694 3.32873 82 148 137
0.600105 -1.02332 3.38408 86 143 140
-1.34561 -0.965073 3.20468 97 127 114
-1.82251 -0.964288 3.21037 83 130 104
-1.55289 -0.966587 3.21449 44 105 79
-1.63846 -0.968555 3.23709 77 132 105
-1.26525 -0.973109 3.24014 30 43 35
-1.2216 -0.976571 3.25729 83 115 98
-1.80503 -0.959418 3.2149 41 87 65
-1.49812 -0.954406 3.20067 54 101 68
1.36607 -1.01989 3.41371 135 206 180
-1.46208 -0.954622 3.20939 59 132 94
1.34389 -1.01198 3.41128 157 214 163
-1.5054 -0.95423 3.21321 69 123 88
-1.38766 -0.952704 3.21568 45 77 60
1.84404 -1.00283 3.39038 129 203 161
-1.16194 -0.962527 3.26959 99 150 143
-0.535596 -0.978031 3.30326 99 146 137
-1.2896 -0.953521 3.25461 160 231 188
-1.65803 -0.942312 3.23605 93 143 133
-0.901744 -0.950834 3.28155 85 141 118
-1.27292 -0.93269 3.23402 127 175 133
-1.18763 -0.941846 3.26574 71 105 88
-1.011 -0.943311 3.27533 63 115 108
0.311296 -0.971944 3.37063 89 141 131
0.831558 -0.983003 3.40461 98 147 133
-0.916511 -0.944056 3.28543 50 133 101
-0.882123 -0.941561 3.28247 77 119 102
2.05609 -0.979367 3.43868 96 150 121
-1.85476 -0.914223 3.22336 69 115 92
-1.58288 -0.915807 3.23066 84 160 126
-1.57257 -0.910655 3.22449 134 207 161
-1.08428 -0.925778 3.27691 77 149 137
-1.4361 -0.906594 3.23029 103 124 109
-1.72552 -0.908741 3.24248 95 165 135
-1.85739 -0.893635 3.21479 157 233 199
-1.42476 -0.898415 3.23944 153 216 176
-1.37557 -0.9005 3.2401 58 80 68
-1.72215 -0.900277 3.25271 146 225 192
0.172278 -0.930298 3.36826 99 154 145
-1.20146 -0.902841 3.27123 170 232 216
-1.72469 -0.886358 3.23621 168 247 208
-1.23463 -0.89407 3.27368 61 80 65
-1.21345 -0.893304 3.28088 51 86 76
1.70432 -0.930549 3.42874 79 125 106
-0.189529 -0.900537 3.33073 166 228 212
-0.184559 -0.889007 3.34401 45 97 74
-0.148157 -0.89492 3.35608 104 155 141
-1.48376 -0.860966 3.25132 44 98 69
0.893255 -0.909059 3.43397 92 128 122
-0.603383 -0.877332 3.31514 90 149 135
-1.7871 -0.851543 3.23714 155 248 197
-1.45689 -0.854286 3.25914 137 213 181
-1.22689 -0.858249 3.27558 80 98 85
-1.62833 -0.850073 3.26057 141 233 180
-1.61033 -0.852666 3.25438 91 144 117
-1.40542 -0.840835 3.26612 121 167 154
-1.43585 -0.834515 3.26786 78 130 112
-1.4287 -0.837104 3.27568 53 119 100
0.678866 -0.875082 3.41474 101 157 144
-1.57454 -0.829906 3.26467 83 131 105
-1.45133 -0.832528 3.26541 156 234 193
-0.995257 -0.838814 3.30304 162 246 191
0.998033 -0.877118 3.44246 125 164 156
-1.1639 -0.829419 3.28586 73 125 115
-1.49736 -0.812577 3.26176 155 230 192
-1.43821 -0.816557 3.26932 143 209 190
-1.24738 -0.819495 3.28752 61 88 79
-1.4977 -0.812381 3.2651 176 248 206
-1.43383 -0.805546 3.26639 81 100 83
-1.36693 -0.808019 3.285 50 104 91
-1.66812 -0.798805 3.26716 65 109 86
1.48672 -0.824829 3.39267 80 128 110
-1.10025 -0.796394 3.30548 162 230 219
-2.0006 -0.775719 3.26436 95 161 142
-1.77835 -0.774327 3.25894 89 122 108
-1.20452 -0.781802 3.30191 60 96 90
2.01132 -0.832017 3.50188 83 120 104
-1.66658 -0.773199 3.278 116 203 170
-1.43895 -0.775509 3.28507 144 220 188
-1.12141 -0.766396 3.30491 100 153 143
-0.387438 -0.780153 3.3599 85 130 121
-1.73387 -0.756176 3.273 77 134 101
-1.69177 -0.755539 3.27459 162 242 205
-1.64044 -0.755206 3.27479 67 131 109
-1.43462 -0.748589 3.29144 63 98 72
-1.14388 -0.748874 3.31595 81 140 120
-1.26119 -0.741267 3.30332 71 112 104
-1.57416 -0.735675 3.28491 76 136 112
0.749014 -0.770984 3.44249 95 166 149
-1.79765 -0.730333 3.27746 68 107 92
-1.4178 -0.728221 3.30398 78 130 107
-0.819834 -0.73383 3.33681 76 107 86
-1.3333 -0.720564 3.30114 72 113 106
-0.81517 -0.726461 3.34564 91 144 130
-1.60285 -0.710041 3.28745 63 102 80
-1.30042 -0.718904 3.3211 182 244 228
-1.61353 -0.703375 3.29324 157 237 190
-0.130501 -0.722445 3.40523 63 114 157
-1.18818 -0.703098 3.32781 76 138 124
-1.41873 -0.695457 3.30787 68 126 101
-1.45481 -0.690804 3.30397 61 98 82
1.33838 -0.725546 3.46768 145 197 197
-1.33595 -0.685772 3.31125 78 122 93
-1.27012 -0.670044 3.32898 87 150 134
-1.2424 -0.669056 3.32198 71 101 82
1.15121 -0.68956 3.50161 113 165 158
1.32148 -0.688869 3.49333 95 163 146
0.74142 -0.665946 3.46297 103 144 136
1.73079 -0.678484 3.53846 103 153 141
0.064502 -0.649563 3.42896 103 162 134
1.92919 -0.670569 3.55197 96 152 129
0.610571 -0.624603 3.46137 95 132 124
1.90855 -0.608907 3.5856 112 166 159
0.677653 -0.57834 3.47788 105 137 132
1.02768 -0.554551 3.51924 87 138 130
1.93887 -0.537372 3.61065 113 170 161
1.97203 -0.539187 3.60072 71 146 130
-0.932499 -0.497147 3.37927 70 110 98
-1.83481 -0.480581 3.32498 102 147 150
-1.02485 -0.487702 3.37731 72 106 95
0.182078 -0.502578 3.46556 113 165 155
1.11678 -0.461731 3.54895 75 101 88
1.53875 -0.467783 3.58646 101 158 149
-0.121825 -0.434036 3.45342 255 255 254
0.14109 -0.426265 3.48099 239 255 247
1.06493 -0.431151 3.54347 72 94 82
-1.11378 -0.40865 3.38391 179 221 214
1.04111 -0.427287 3.53587 100 132 121
1.04147 -0.417412 3.54036 65 101 87
-1.55135 -0.381376 3.36059 153 233 210
-0.016405 -0.388782 3.47416 79 145 144
0.966398 -0.371791 3.53935 71 130 110
-1.93365 -0.342158 3.34951 63 133 120
-1.68965 -0.322938 3.35966 98 152 135
-0.510953 -0.308356 3.45101 72 138 127
-1.83154 -0.292501 3.35915 73 122 106
-2.07728 -0.277891 3.3585 56 115 94
0.506077 -0.27442 3.53432 90 172 150
1.03214 -0.278672 3.58384 88 110 121
-1.22439 -0.249376 3.4081 88 144 125
-1.71221 -0.246013 3.38131 66 125 104
-1.13715 -0.243139 3.41578 90 126 112
-1.397 -0.229247 3.39477 92 150 126
-1.41075 -0.220529 3.40294 253 255 255
0.585258 -0.22611 3.55259 110 176 165
-2.07003 -0.213097 3.36505 90 149 129
-1.15795 -0.212434 3.41184 93 127 120
-1.19032 -0.210305 3.41289 88 137 115
-1.05324 -0.200603 3.42199 78 136 111
-1.97357 -0.169829 3.37074 72 110 88
-1.15332 -0.143133 3.44559 92 134 116
-1.05227 -0.137899 3.43213 73 139 104
-2.05101 -0.129041 3.378 78 127 107
-1.17001 -0.13219 3.42231 59 124 108
-0.220128 -0.126971 3.5142 83 141 136
-1.23169 -0.121571 3.43272 66 126 108
2.20632 -0.128052 3.67725 137 181 158
-1.05168 -0.117283 3.43819 59 111 87
-1.21316 -0.102124 3.43287 86 138 121
2.0503 -0.0982527 3.69619 67 132 117
2.18597 -0.0943115 3.66286 128 187 173
2.25791 -0.094187 3.63961 97 142 123
-1.74667 -0.070726 3.40921 83 113 94
-1.21028 -0.0681266 3.42988 56 107 79
-1.2591 -0.0617493 3.44408 84 128 92
-1.62854 -0.0604041 3.41467 62 106 75
-1.16272 -0.0628418 3.4449 82 139 118
-1.32332 -0.0558097 3.43791 86 144 119
-1.24024 -0.0466364 3.44645 48 96 68
-1.29647 -0.0353825 3.43325 67 126 88
-0.0746684 -0.0294508 3.54236 68 130 118
-1.70086 -0.0243154 3.41475 72 114 89
0.856385 -0.0280425 3.615 112 163 155
1.94975 -0.0209681 3.7147 94 144 132
-1.27649 -0.0139714 3.44798 60 95 75
-1.17916 -0.0144056 3.45452 61 103 80
-1.69062 -0.008741 3.42181 53 100 74
-0.792846 -0.00753402 3.48894 35 109 83
-1.21753 -0.00351454 3.46484 59 111 87
1.27856 -0.00396655 3.66568 61 106 97
-1.72979 0.00946567 3.41186 61 106 79
1.19368 0.0244931 3.65978 118 168 156
1.85815 0.0265122 3.71967 88 166 143
0.962651 0.0318235 3.64001 66 100 90
0.237141 0.0343899 3.57913 253 255 255
1.34769 0.0353489 3.67509 80 116 94
1.63775 0.0475297 3.71003 84 150 138
1.38747 0.0520918 3.68067 67 89 70
2.04895 0.0514353 3.69795 73 125 102
2.20352 0.0579037 3.67102 156 232 191
-1.18415 0.0591899 3.46667 77 129 119
1.37285 0.0598476 3.6761 49 78 53
-1.49874 0.0614401 3.44159 196 245 231
0.518489 0.0716625 3.60442 95 146 142
0.65975 0.0740208 3.60747 66 105 90
1.85807 0.0728786 3.72965 81 138 117
-1.79998 0.0799052 3.42322 86 128 97
-1.74578 0.081573 3.43105 54 80 57
-1.48725 0.0809695 3.4494 84 119 105
0.615538 0.0849198 3.60773 80 125 108
-1.79609 0.0986901 3.43658 84 123 98
-1.73683 0.100876 3.43219 47 84 58
-1.93134 0.111951 3.42196 77 125 99
0.556798 0.117602 3.59818 191 234 225
1.21154 0.121563 3.68 50 105 88
0.775938 0.124666 3.6423 68 111 98
2.08888 0.125221 3.68163 91 156 124
1.72156 0.149968 3.73878 54 123 103
2.15783 0.147802 3.68756 140 216 174
-1.23883 0.14394 3.47662 74 127 117
1.95259 0.162657 3.74361 164 233 183
-1.32788 0.158449 3.47475 163 229 204
1.97363 0.169632 3.72061 139 190 152
-1.33525 0.16699 3.46431 80 142 124
2.03484 0.177191 3.71532 42 67 47
0.07895 0.177613 3.58601 105 161 150
0.9893 0.185216 3.67291 106 150 144
-1.77377 0.182943 3.44016 72 127 100
-1.90019 0.185833 3.44212 68 117 89
0.512486 0.197565 3.62395 89 129 117
0.695752 0.197477 3.62333 158 210 187
0.745147 0.201361 3.6436 162 212 182
-1.33922 0.196607 3.48057 87 131 124
-1.23713 0.197476 3.47888 69 110 103
2.01348 0.21237 3.70331 88 119 104
1.48127 0.229053 3.73673 81 166 144
0.715251 0.21996 3.61493 57 86 70
2.2978 0.23079 3.70317 75 126 106
0.755652 0.229665 3.64176 74 110 88
-1.08295 0.240033 3.50107 58 84 60
0.816172 0.258353 3.6781 93 143 131
1.77251 0.26663 3.76084 150 219 206
0.609401 0.260125 3.61005 97 133 117
-1.60774 0.254454 3.47173 91 124 110
1.06406 0.274992 3.69547 85 119 108
-0.897934 0.265089 3.517 86 133 117
2.19468 0.288737 3.74639 70 118 94
0.743066 0.287771 3.65145 74 116 91
0.361775 0.296916 3.63419 77 130 121
-1.54777 0.283524 3.46545 130 209 168
-1.64716 0.29003 3.47642 72 98 85
-1.56372 0.289103 3.47112 33 73 45
-1.69942 0.29455 3.45259 52 86 62
0.684363 0.319823 3.65993 73 98 88
1.01161 0.320787 3.69805 83 142 128
-1.29666 0.310949 3.50085 70 119 105
0.518455 0.321472 3.64227 63 104 89
-0.228301 0.320212 3.58835 67 116 102
0.48663 0.338609 3.64833 96 140 127
-1.05495 0.334644 3.51483 71 141 100
0.063937 0.348061 3.61751 65 120 103
-0.481374 0.346716 3.57383 77 148 132
-1.58473 0.343995 3.47946 71 106 79
-1.45285 0.343381 3.50069 83 110 106
-1.54988 0.369726 3.47971 46 93 55
0.971535 0.398525 3.71137 114 172 171
-1.55986 0.386479 3.49758 147 215 180
-1.61553 0.389279 3.47075 166 245 204
1.61101 0.426321 3.77689 108 177 150
1.28763 0.436099 3.75453 89 140 132
-0.339434 0.421496 3.59928 58 112 95
0.619102 0.437472 3.68311 84 119 115
-1.5991 0.424303 3.49539 70 105 78
0.626872 0.442818 3.68514 200 247 238
-1.75334 0.424437 3.48355 51 102 75
0.415992 0.444306 3.66329 102 153 139
-1.73957 0.429003 3.47995 162 241 214
0.587605 0.452829 3.6765 99 135 123
-1.12582 0.439469 3.52991 70 137 108
0.500773 0.463295 3.67969 93 133 108
-1.72726 0.437899 3.47886 59 95 71
-0.459292 0.452045 3.59466 86 140 111
-0.117456 0.456038 3.62003 98 159 145
0.461278 0.458555 3.66285 68 121 94
-1.73501 0.441137 3.48679 69 115 92
-1.19145 0.450752 3.52807 60 107 75
-1.69259 0.450036 3.4817 51 60 40
-1.77584 0.471437 3.49407 74 106 87
0.564135 0.502896 3.68028 81 111 100
0.626067 0.505926 3.68795 95 128 124
-1.18783 0.490839 3.53888 43 108 69
-0.238031 0.507911 3.62532 64 107 104
0.399936 0.523932 3.689 89 147 119
0.504688 0.52712 3.68702 57 109 99
-1.65192 0.500025 3.49525 66 104 82
-0.82215 0.525812 3.58051 81 145 123
0.574204 0.555531 3.68613 137 190 176
0.474376 0.5611 3.68976 59 123 94
2.13921 0.599508 3.87457 91 144 131
-1.44623 0.556407 3.53403 81 116 102
-1.16625 0.563714 3.55963 87 137 105
-2.06604 0.553664 3.49199 74 108 132
0.326083 0.59866 3.68878 83 134 107
0.398512 0.597374 3.69526 85 118 121
0.236625 0.602759 3.68225 72 138 113
-1.09051 0.583827 3.54709 33 96 57
-1.04157 0.585916 3.56074 89 140 112
0.353331 0.605936 3.67945 82 144 108
0.384736 0.613297 3.69719 72 121 105
0.619581 0.626442 3.71705 61 109 97
-1.26816 0.602205 3.5546 104 136 117
-1.07913 0.608327 3.56705 164 225 199
0.381451 0.632013 3.70527 75 110 96
-1.80427 0.60358 3.50505 65 119 76
0.528093 0.638332 3.7004 87 126 110
-1.63261 0.611378 3.5186 96 113 99
-1.8061 0.616436 3.50442 250 255 254
-1.35285 0.63231 3.55436 73 132 87
-1.228 0.632181 3.55531 88 127 101
-1.00537 0.642543 3.58324 54 85 64
-1.32255 0.636759 3.55238 75 114 92
-1.08612 0.639246 3.56273 49 57 40
-0.8655 0.643074 3.59285 96 147 139
-1.78006 0.635612 3.51146 145 235 199
-1.18433 0.642951 3.56482 93 137 106
1.50436 0.708583 3.84134 236 255 248
-1.21088 0.661858 3.55459 52 93 65
2.30577 0.718359 3.85975 63 90 80
-1.1813 0.670643 3.56413 63 107 70
2.32373 0.725776 3.85882 172 234 204
2.15844 0.725049 3.84732 158 229 203
-0.922554 0.684006 3.5911 28 84 63
1.50877 0.731632 3.84303 60 118 90
-0.817114 0.689943 3.60461 91 131 120
-1.75945 0.686657 3.51301 127 197 160
1.28635 0.752683 3.8154 75 101 95
1.96184 0.769579 3.87612 80 121 94
1.96377 0.768876 3.8745 69 104 78
-1.86394 0.701806 3.52028 76 129 102
-1.90073 0.705293 3.52416 59 105 93
2.01524 0.780089 3.89243 91 125 108
-1.74444 0.713623 3.53201 56 85 62
0.763103 0.758443 3.75759 81 120 112
2.02134 0.78501 3.8875 71 102 93
0.34122 0.757581 3.71423 241 255 252
0.666726 0.767878 3.75447 86 136 124
0.987455 0.771674 3.78004 65 101 95
1.56896 0.788425 3.85315 152 200 212
1.97005 0.796885 3.88862 255 221 164
0.911617 0.78147 3.78279 184 237 228
1.5318 0.794528 3.85957 165 217 217
1.62325 0.800647 3.85664 158 208 208
-0.761009 0.752693 3.61285 68 128 97
1.13742 0.795261 3.7982 107 142 132
1.57111 0.80797 3.85206 93 99 94
1.47301 0.810171 3.84148 131 174 195
2.1093 0.815647 3.88931 58 66 65
2.07688 0.826526 3.91571 162 219 194
1.61265 0.831238 3.87103 162 222 221
2.06352 0.832895 3.89213 53 83 64
2.08399 0.836537 3.90837 58 79 64
-1.39708 0.771576 3.57419 57 104 82
0.882152 0.818315 3.78054 95 112 101
-1.23772 0.780577 3.58572 95 150 123
0.230035 0.817053 3.72844 89 141 131
0.906054 0.826107 3.78773 183 231 225
-1.2237 0.785749 3.58468 37 85 61
1.83105 0.851447 3.88523 67 95 75
0.522784 0.831141 3.75406 107 148 141
2.15946 0.859273 3.88802 141 213 171
1.49451 0.86006 3.85212 83 100 91
-1.25826 0.805309 3.58722 36 80 51
-0.555157 0.819328 3.65176 87 121 115
1.50682 0.864311 3.85229 149 200 192
1.53972 0.866398 3.86994 121 173 163
1.57221 0.86532 3.86284 95 124 121
0.600824 0.846658 3.75566 86 120 113
1.38 0.872827 3.84497 97 145 146
1.58289 0.87506 3.86545 152 204 197
2.07383 0.876419 3.88379 145 217 175
2.20171 0.88279 3.89197 68 97 82
2.21351 0.885704 3.89132 62 96 79
0.614886 0.863527 3.76786 116 148 143
1.45946 0.890468 3.83793 136 192 179
-0.428046 0.85643 3.6636 40 85 52
-0.543851 0.860165 3.64731 20 71 34
1.60191 0.909536 3.87473 158 224 205
0.322289 0.888656 3.74973 74 91 88
0.535734 0.889842 3.76996 106 145 137
0.628112 0.886864 3.75901 93 152 137
1.64995 0.91877 3.89091 118 166 148
0.0317132 0.877494 3.71284 100 176 145
1.63211 0.919441 3.87995 80 97 86
0.154659 0.889638 3.73706 93 144 136
1.54147 0.930831 3.87979 130 169 153
1.76011 0.931365 3.89251 90 125 111
2.29197 0.928303 3.88936 60 77 64
2.17655 0.932718 3.88997 148 243 193
-1.29295 0.873477 3.61106 252 254 254
-0.496924 0.882003 3.64406 42 56 38
-0.0447024 0.894199 3.69856 55 110 83
1.28141 0.932713 3.84188 65 108 95
-1.80209 0.869425 3.55739 65 94 68
-0.244092 0.901506 3.70049 75 135 117
1.52359 0.946473 3.87492 68 94 94
1.37322 0.949321 3.85954 78 97 94
1.97382 0.957301 3.87971 60 96 82
0.0315851 0.920964 3.73029 23 70 61
1.26592 0.955364 3.84109 59 99 88
1.28631 0.963208 3.8507 138 195 180
2.13872 0.969822 3.87992 61 113 89
-0.647349 0.919533 3.65179 69 130 102
-0.405532 0.928792 3.68124 159 232 206
1.2236 0.967435 3.8385 78 105 101
-0.454392 0.927256 3.66297 66 118 101
2.05816 0.989981 3.8998 50 89 74
2.38557 0.999251 3.88546 55 104 82
1.35009 0.998563 3.86036 79 102 98
2.11119 1.01351 3.90122 152 216 181
1.75511 1.0202 3.90374 124 156 137
2.39987 1.01419 3.89238 56 92 75
-0.493268 0.977274 3.67741 111 147 130
2.36981 1.04016 3.93261 57 93 77
2.03366 1.03805 3.89037 59 88 63
-0.707524 0.983619 3.67418 65 110 101
-0.620635 1.00719 3.67649 55 81 65
2.10703 1.08063 3.90486 42 57 43
2.11462 1.08899 3.87099 135 231 190
1.93414 1.10277 3.90206 150 235 190
2.00807 1.09699 3.88447 58 79 70
1.92766 1.11022 3.91458 70 133 113
1.92716 1.11625 3.8908 149 232 200
1.76799 1.18183 3.9053 127 183 162
-0.31814 -1.25695 3.23373 136 163 159
-1.53802 -1.22986 3.17699 138 232 177
-1.55344 -1.22915 3.17013 97 156 125
0.0371606 -1.21972 3.16121 63 126 94
-1.25387 -1.23373 3.20463 167 231 209
-1.45905 -1.21652 3.17347 61 108 86
-1.52111 -1.22504 3.20697 151 231 194
-1.29328 -1.22247 3.19645 91 120 94
-1.68011 -1.21505 3.18193 78 129 102
-1.41087 -1.20969 3.18843 160 245 200
-1.26598 -1.21156 3.19007 135 189 152
-1.47907 -1.18791 3.16536 74 149 117
0.94366 -1.25697 3.34492 91 147 136
-1.28978 -1.19166 3.19847 80 83 98
-1.42693 -1.18957 3.19661 52 91 89
-0.333298 -1.20246 3.24194 99 158 127
