ply
format ascii 1.0
element vertex 1248
property float x
property float y
property float z
property uchar blue
property uchar green
property uchar red
end_header
-0.516916 -1.23033 3.80564 104 168 156
0.585284 -0.97295 3.00794 42 69 96
1.19758 -0.830318 2.56189 180 218 236
-0.537264 -1.23355 3.82286 86 144 119
0.376837 -1.02085 3.16069 71 139 122
0.490445 -0.991727 3.07429 64 119 110
0.54936 -0.978312 3.03301 97 162 160
0.495512 -0.990004 3.07087 93 160 157
-1.19316 -1.3864 4.30787 89 157 134
0.300131 -1.0345 3.21633 87 158 138
1.21272 -0.820753 2.54996 105 124 145
1.25621 -0.813513 2.52562 182 219 239
0.671636 -0.950296 2.95803 175 236 216
-0.678769 -1.25978 3.92933 203 252 238
-0.409167 -1.19295 3.72432 179 226 247
0.173042 -1.06059 3.30836 163 228 212
0.592056 -0.962107 3.00008 182 241 233
0.630992 -0.956889 2.98381 93 161 150
1.15376 -0.833853 2.59958 187 244 236
0.346104 -1.01809 3.17987 84 139 120
0.608217 -0.960246 2.99647 106 174 163
1.18889 -0.825283 2.57441 132 159 196
1.21565 -0.818039 2.55023 160 184 206
0.465639 -0.989704 3.09519 113 177 165
1.18376 -0.827192 2.5815 86 126 168
0.0180077 -1.09282 3.42092 87 149 149
0.366919 -1.01191 3.16552 96 157 147
-0.334183 -1.17082 3.66859 103 164 160
0.481863 -0.985605 3.08659 108 162 163
-0.535467 -1.21868 3.82372 114 175 161
-0.00270856 -1.09454 3.43441 81 150 139
1.19575 -0.819789 2.56752 153 181 212
0.593334 -0.956832 3.00137 154 213 205
0.197721 -1.04688 3.29086 87 158 148
0.597567 -0.956402 3.00288 91 155 136
-0.967507 -1.31397 4.1405 103 174 148
0.174809 -1.04996 3.30789 80 151 141
0.285119 -1.02425 3.22456 81 150 130
0.860489 -0.898825 2.8294 163 218 209
1.21137 -0.813071 2.55669 157 192 195
0.196778 -1.04275 3.28904 82 151 138
0.405696 -0.995654 3.13892 75 148 132
0.93963 -0.875304 2.75675 174 226 238
1.18919 -0.818378 2.57592 155 192 230
-0.567942 -1.21887 3.84523 157 218 192
0.440276 -0.985658 3.1107 94 148 148
-0.0334578 -1.09408 3.45487 85 154 143
0.559102 -0.956967 3.02331 103 164 144
0.476841 -0.975872 3.08502 100 159 151
0.581383 -0.952213 3.01109 88 136 138
1.0757 -0.840503 2.65548 242 254 254
1.15772 -0.822781 2.59703 197 234 232
0.351721 -1.00561 3.18196 77 135 124
0.838736 -0.897492 2.84077 94 162 145
1.17779 -0.817541 2.58287 223 239 251
1.19813 -0.81276 2.56859 97 140 167
-0.416526 -1.17638 3.73063 96 148 148
0.0670272 -1.06613 3.38036 183 242 228
0.46763 -0.976909 3.09321 78 142 130
0.578229 -0.951189 3.01286 164 220 215
0.584527 -0.950655 3.0108 162 212 210
-0.394304 -1.17077 3.71617 109 162 159
0.208958 -1.03494 3.28136 89 171 149
0.552164 -0.956111 3.03201 137 209 197
0.234118 -1.02705 3.26287 166 235 214
0.460274 -0.975356 3.09786 71 139 122
0.856582 -0.891721 2.83074 79 143 131
1.22623 -0.803419 2.54574 213 221 234
-0.41768 -1.17224 3.72757 166 218 211
0.195337 -1.0344 3.29 77 154 140
0.31392 -1.00786 3.20437 176 237 223
0.418111 -0.9843 3.1292 144 217 191
0.490851 -0.967532 3.07381 102 162 156
-0.35166 -1.15784 3.68434 106 162 139
-0.345957 -1.15594 3.67995 147 206 185
0.475814 -0.969724 3.08428 100 158 147
0.531082 -0.9564 3.04715 97 160 144
1.08156 -0.833594 2.65385 187 197 204
-0.479296 -1.18388 3.77578 94 133 131
-0.400302 -1.16504 3.71732 101 172 156
-0.36328 -1.1596 3.69673 246 249 247
0.26046 -1.0175 3.24212 71 137 118
1.26965 -0.79059 2.51772 197 229 235
-0.897255 -1.27721 4.08695 93 167 141
0.845762 -0.888673 2.83708 142 214 191
0.539312 -0.949571 3.03879 103 167 155
0.721586 -0.916112 2.92726 227 254 250
1.03083 -0.841705 2.68824 173 238 229
1.10307 -0.826019 2.6385 77 140 130
-0.898416 -1.27749 4.09105 93 166 140
0.0955209 -1.05029 3.36444 89 164 150
0.479507 -0.962541 3.08016 90 137 128
0.504008 -0.955941 3.06337 78 147 127
0.545306 -0.94725 3.0344 169 231 213
0.706016 -0.915806 2.9351 153 226 210
-0.489594 -1.17893 3.78281 171 224 215
-0.451618 -1.16929 3.75204 171 231 213
1.22478 -0.79535 2.54936 157 215 204
-0.347662 -1.14601 3.6843 91 161 138
-0.107532 -1.09254 3.51099 94 164 147
0.344985 -0.990307 3.18043 107 149 138
0.446297 -0.967484 3.1061 93 165 152
-0.211003 -1.11547 3.58658 77 149 136
0.453338 -0.964835 3.10195 80 143 123
0.458411 -0.961769 3.09582 146 204 176
0.62233 -0.926562 2.98456 90 138 132
0.0780546 -1.04613 3.37412 151 226 205
0.490137 -0.951313 3.06978 146 204 179
0.596346 -0.931813 3.00448 86 125 133
-0.384022 -1.14662 3.70409 106 170 158
-0.0821191 -1.08069 3.48974 98 153 144
0.451795 -0.960571 3.10109 158 223 202
0.456659 -0.960759 3.10306 68 123 104
1.15727 -0.8063 2.59874 162 227 202
1.16384 -0.805013 2.59594 186 228 240
-0.365055 -1.14134 3.69447 71 134 124
0.49024 -0.95129 3.07146 146 204 179
0.285599 -0.995529 3.22295 201 243 220
0.447999 -0.958272 3.10296 85 154 141
0.778238 -0.889787 2.88321 210 243 239
-1.41091 -1.37658 4.46645 85 160 128
-0.567495 -1.18473 3.84606 171 227 216
-0.475395 -1.16412 3.77629 98 161 151
0.702944 -0.905521 2.93749 101 161 150
0.375078 -0.972171 3.15976 194 248 225
0.637855 -0.917127 2.97861 154 165 157
0.555412 -0.932876 3.0337 68 144 126
1.18824 -0.792982 2.57682 193 238 235
-0.598099 -1.1867 3.86768 150 212 196
0.639488 -0.914011 2.97523 179 229 205
1.17561 -0.795238 2.5868 175 228 215
0.625952 -0.914492 2.98855 101 134 127
0.689407 -0.901749 2.94498 167 230 210
0.0203235 -1.04438 3.41527 86 146 138
0.446348 -0.949063 3.10459 168 221 194
0.45918 -0.94735 3.09622 69 108 93
0.621238 -0.91662 2.99607 94 150 139
0.636275 -0.91087 2.98042 151 173 168
-0.277454 -1.10911 3.63159 107 180 158
0.352302 -0.969876 3.1769 88 143 128
0.47186 -0.943872 3.08921 100 159 151
0.443361 -0.948075 3.10553 91 140 126
-0.288275 -1.10866 3.63786 103 178 156
0.454025 -0.944848 3.10031 166 219 205
0.132823 -1.0148 3.33039 89 157 146
0.47877 -0.939205 3.08373 81 140 125
-0.542519 -1.16312 3.82793 95 160 139
0.632555 -0.905204 2.98 101 163 147
0.446597 -0.941289 3.10368 140 209 188
0.450324 -0.941838 3.10357 66 114 102
0.469541 -0.937872 3.09071 98 145 149
1.19641 -0.782213 2.57425 81 115 115
-0.0521525 -1.05131 3.46961 170 223 214
0.627958 -0.906217 2.98825 79 124 107
-0.149616 -1.07208 3.5434 87 159 146
0.154465 -1.00478 3.31959 166 230 211
0.216221 -0.991245 3.27628 96 159 143
0.604471 -0.908849 2.99879 92 126 150
-1.02073 -1.26344 4.1794 101 176 160
-0.922348 -1.24004 4.10277 75 152 131
-0.541026 -1.15641 3.82571 165 233 210
0.157084 -1.00276 3.31719 99 161 147
-1.30241 -1.32292 4.38412 176 236 218
-0.136046 -1.06708 3.53181 93 159 147
0.636866 -0.90053 2.98154 157 215 187
-0.0200565 -1.03818 3.44261 93 164 148
0.608199 -0.906578 3.00067 199 237 241
0.639723 -0.899788 2.97947 86 146 112
0.455993 -0.93454 3.10212 173 213 231
0.477612 -0.929533 3.08386 159 204 201
0.269398 -0.974716 3.236 70 145 124
1.18659 -0.777191 2.57801 158 233 205
-0.443097 -1.12872 3.75285 100 159 155
0.607829 -0.903016 3.00043 82 141 167
1.11285 -0.792645 2.63153 100 151 167
0.476212 -0.926236 3.08259 98 142 143
-0.767012 -1.19519 3.99012 164 224 214
0.0339007 -1.02113 3.40713 83 151 140
-1.2824 -1.30535 4.36785 99 172 140
-0.803487 -1.20078 4.01659 113 171 170
-0.593242 -1.15508 3.86138 165 217 193
-0.493966 -1.13222 3.78894 86 153 146
0.298508 -0.962157 3.21601 79 145 120
0.888213 -0.838909 2.80083 134 198 179
-0.501622 -1.13415 3.79593 97 162 153
0.346415 -0.949747 3.18153 95 161 149
0.4696 -0.921315 3.08706 165 225 237
0.876997 -0.840334 2.81192 150 198 192
-0.512536 -1.13437 3.80534 99 166 159
-0.0472289 -1.03185 3.46263 83 154 134
0.620764 -0.8925 2.99478 87 131 155
-1.30354 -1.30351 4.38618 147 216 189
1.19611 -0.766071 2.57272 157 224 197
0.480866 -0.914137 3.07412 83 133 123
0.365225 -0.939068 3.16569 84 151 130
0.554331 -0.899394 3.02994 156 222 210
0.47598 -0.91272 3.07793 93 129 139
0.656233 -0.880555 2.96814 81 143 119
0.616374 -0.887628 2.99406 211 245 251
0.913973 -0.823778 2.77949 150 207 208
0.913957 -0.823787 2.77933 150 207 208
0.475137 -0.910217 3.08258 180 228 230
1.05483 -0.789901 2.67063 186 242 229
0.634353 -0.882176 2.98667 143 197 162
0.614763 -0.883145 2.99667 108 162 173
0.627662 -0.881315 2.98785 172 228 217
1.05662 -0.789654 2.67353 183 237 224
0.215056 -0.9643 3.27628 94 166 146
0.286634 -0.949972 3.22553 160 221 201
0.379688 -0.929626 3.15491 77 147 124
0.603679 -0.884686 3.00113 90 160 137
1.20353 -0.756967 2.56695 158 208 206
-0.547833 -1.12634 3.82923 182 229 221
0.34901 -0.934211 3.17647 75 143 126
0.615097 -0.883113 2.99739 98 147 161
0.357728 -0.932906 3.17312 90 150 132
0.274469 -0.948386 3.23229 78 146 129
0.598448 -0.882993 3.00654 81 144 135
1.1969 -0.755866 2.57175 196 234 238
-0.749539 -1.16629 3.98037 168 236 219
-0.976901 -1.21152 4.14524 91 172 145
-0.0712981 -1.01808 3.47938 97 169 146
0.257705 -0.949025 3.24382 81 152 132
0.364384 -0.926439 3.16864 91 157 138
0.48146 -0.899728 3.07548 81 144 124
0.634927 -0.873002 2.98213 143 204 176
-0.621881 -1.13306 3.88081 191 255 231
0.276361 -0.945337 3.23309 152 217 201
0.439346 -0.90882 3.10801 77 131 132
-0.519867 -1.11072 3.80683 106 175 155
-0.0346712 -1.00778 3.45433 106 169 160
-0.23487 -1.0491 3.59905 174 235 215
0.484187 -0.896218 3.07365 153 222 202
-0.77204 -1.16187 3.99358 89 170 143
0.28481 -0.93938 3.22604 149 214 192
0.602525 -0.875368 3.0056 160 215 224
0.60957 -0.872129 2.99372 153 223 210
0.64221 -0.866756 2.97613 90 152 134
0.860156 -0.824346 2.82684 90 145 136
-0.547538 -1.11424 3.83156 73 142 121
0.344883 -0.92499 3.18078 70 144 120
0.659967 -0.862468 2.96444 103 153 143
0.842775 -0.826706 2.83908 84 159 131
0.428601 -0.902944 3.11555 143 214 197
0.657309 -0.858953 2.96311 184 229 213
-0.88319 -1.17734 4.07401 70 147 120
1.04404 -0.775962 2.68064 84 150 139
0.63858 -0.862446 2.98445 168 221 207
-0.420926 -1.07725 3.73544 96 175 162
-0.117764 -1.01327 3.51325 77 160 138
0.321478 -0.92252 3.19937 213 244 235
0.595984 -0.869445 3.01006 145 209 204
-0.552675 -1.10367 3.83254 85 160 122
-0.279387 -1.04597 3.62989 85 156 139
0.0664246 -0.974922 3.38175 84 142 147
0.310164 -0.924151 3.20707 79 143 124
0.349563 -0.917417 3.18104 199 255 232
0.831994 -0.820121 2.84459 135 203 180
-0.630821 -1.12009 3.89084 81 136 119
0.291602 -0.925871 3.22012 169 233 204
0.867626 -0.811895 2.82028 146 198 175
-0.251255 -1.03502 3.60581 85 156 136
0.238433 -0.936647 3.26028 159 224 208
0.32351 -0.919046 3.19873 227 255 251
-1.20117 -1.23434 4.31086 80 150 127
-0.50101 -1.08662 3.79202 165 233 210
-0.210528 -1.0252 3.57923 176 240 221
0.196087 -0.942338 3.28933 74 153 134
0.432965 -0.89209 3.10984 151 218 191
-0.304032 -1.04334 3.64923 177 252 231
0.375986 -0.903468 3.15996 68 142 116
-0.468905 -1.07693 3.77166 119 169 169
0.227279 -0.933189 3.26549 155 214 199
0.266854 -0.924043 3.23717 185 253 230
0.464885 -0.882494 3.08722 90 137 129
1.03948 -0.768271 2.68474 73 130 139
1.07186 -0.760698 2.66161 170 226 215
-0.330174 -1.04714 3.67063 93 159 140
-0.0856422 -0.994832 3.48663 106 174 157
0.215495 -0.933729 3.27252 114 150 136
0.433284 -0.887538 3.11044 57 120 100
0.855174 -0.808454 2.83026 59 119 108
1.16218 -0.741712 2.59636 166 219 206
-0.482483 -1.07621 3.781 176 235 237
-0.469114 -1.07302 3.7697 176 224 228
-0.438394 -1.06532 3.74825 93 147 142
1.11803 -0.74982 2.62979 87 147 139
0.919424 -0.789946 2.77439 86 137 163
0.633271 -0.848539 2.98689 187 234 202
0.875332 -0.799895 2.81431 73 124 110
-0.800491 -1.13812 4.01459 150 219 198
-0.460661 -1.06661 3.76436 85 145 137
-0.255776 -1.02549 3.61432 86 158 138
1.17244 -0.736119 2.58994 87 152 136
-0.0957572 -0.990889 3.49772 86 148 130
0.0711626 -0.956466 3.37652 154 230 206
0.0750041 -0.954289 3.3736 91 158 143
-0.191029 -1.00715 3.56391 100 172 152
-0.0848579 -0.9871 3.48895 179 247 230
0.0101586 -0.967402 3.42131 156 219 203
0.276422 -0.912666 3.23026 73 140 119
-0.0920817 -0.985531 3.49012 73 142 122
0.450271 -0.874559 3.09755 102 158 147
-0.92303 -1.15713 4.10545 93 168 147
0.615633 -0.843954 2.99322 245 254 255
-0.158211 -0.998866 3.54648 100 169 156
0.547849 -0.85383 3.03075 93 175 132
0.215958 -0.922078 3.27587 138 210 187
0.617257 -0.843667 2.99846 254 254 254
0.0778804 -0.947895 3.37293 83 154 158
0.90486 -0.784009 2.7873 144 200 195
-0.639724 -1.09098 3.89286 65 132 103
-0.0908198 -0.977524 3.49134 79 144 123
0.15056 -0.929464 3.32107 82 150 139
0.396792 -0.87945 3.13858 138 202 183
0.619551 -0.839235 2.99421 98 109 136
-1.33302 -1.23155 4.40513 81 158 131
0.425714 -0.871458 3.1166 142 213 193
0.858328 -0.792594 2.82927 252 252 252
0.422286 -0.871281 3.12025 80 153 137
-0.128748 -0.982673 3.52352 85 149 130
0.0659185 -0.943714 3.38254 85 154 139
0.557896 -0.844397 3.02805 92 159 144
-1.23544 -1.20427 4.33078 96 167 141
0.169127 -0.920567 3.30813 168 228 220
0.441941 -0.86433 3.10388 134 195 181
0.0428275 -0.944251 3.39826 84 155 138
0.302308 -0.89207 3.21306 161 223 201
0.309261 -0.889939 3.20443 75 151 119
0.562682 -0.840839 3.0261 100 162 150
0.368296 -0.877047 3.16022 75 151 133
-0.447021 -1.03916 3.75154 85 148 138
0.304425 -0.888754 3.20994 42 84 66
0.324406 -0.884567 3.18859 76 137 111
0.631523 -0.827919 2.98517 94 157 147
0.959977 -0.758543 2.73591 162 220 225
-0.836997 -1.11797 4.04079 78 139 113
-0.821738 -1.11558 4.03237 160 233 207
0.342173 -0.880459 3.18103 163 220 199
-0.814351 -1.11031 4.02055 87 159 139
-0.788402 -1.10644 4.002 84 160 129
-0.398146 -1.02632 3.71567 106 172 160
0.386158 -0.870915 3.14874 72 134 118
0.845339 -0.784373 2.83611 142 204 186
0.84864 -0.784004 2.83506 69 135 116
-0.676873 -1.08163 3.92082 86 155 140
0.188919 -0.909372 3.29415 87 152 137
0.290156 -0.88948 3.2234 191 242 215
0.380076 -0.86913 3.15294 66 132 113
0.0847209 -0.927801 3.36691 98 158 157
0.621345 -0.824338 2.99028 145 191 202
1.10998 -0.726557 2.63552 101 161 160
0.303087 -0.884162 3.21585 56 114 96
0.386237 -0.866363 3.14919 118 188 171
0.489501 -0.834788 3.03403 108 143 116
0.564712 -0.831727 3.02312 164 229 213
0.626653 -0.822335 2.98833 158 216 205
-0.0842586 -0.958213 3.48711 99 164 155
0.607631 -0.824156 3.00212 102 154 184
0.622197 -0.820731 2.99036 62 112 110
0.657684 -0.812781 2.9627 154 216 194
0.225444 -0.892071 3.26431 217 251 250
0.294903 -0.87864 3.21278 79 144 129
0.342364 -0.867084 3.17257 78 148 125
0.950682 -0.750541 2.74278 152 205 215
-0.623058 -1.05944 3.88334 163 228 212
0.542261 -0.82961 3.03816 86 157 131
0.609851 -0.821018 3.00517 162 214 226
0.444714 -0.846583 3.10142 137 195 177
0.632784 -0.814076 2.98299 93 154 128
0.23924 -0.888225 3.25846 84 148 129
0.393119 -0.855051 3.13987 220 255 249
-1.08313 -1.14684 4.21782 99 168 148
-0.0614569 -0.943982 3.47039 169 240 223
0.323823 -0.870306 3.20066 74 121 112
0.85962 -0.769167 2.82654 68 130 114
0.363504 -0.860941 3.16516 143 221 190
0.607283 -0.815727 3.00017 102 150 156
-0.522084 -1.03377 3.80843 82 157 141
-0.331978 -0.993395 3.66396 107 170 154
-1.06835 -1.13907 4.20622 88 152 133
-1.03781 -1.13189 4.18116 100 177 150
-0.411566 -1.01016 3.72929 167 234 219
0.301591 -0.870253 3.21101 84 130 131
0.318444 -0.867442 3.19987 228 255 251
0.837071 -0.770548 2.8401 153 220 189
0.553645 -0.82121 3.03091 144 207 198
0.833497 -0.770457 2.84385 74 133 113
1.19212 -0.699512 2.57864 156 224 199
-0.472665 -1.01995 3.77446 89 157 134
0.633623 -0.806952 2.98245 70 130 99
-0.689681 -1.0607 3.92941 117 166 164
0.229892 -0.881359 3.26339 102 159 150
0.439026 -0.839621 3.10685 86 152 133
0.602425 -0.812369 3.00578 101 139 169
0.447086 -0.837562 3.10097 125 170 154
-0.460907 -1.01364 3.76222 68 147 126
0.620982 -0.805596 2.98865 156 231 217
0.248535 -0.875166 3.2512 159 230 214
0.594078 -0.810608 3.01305 219 254 240
1.20064 -0.692789 2.57169 176 242 217
-0.768067 -1.07006 3.98752 118 167 169
-0.748568 -1.06601 3.97376 174 236 218
-0.0602168 -0.932175 3.47075 218 255 245
0.230021 -0.875749 3.26073 71 115 128
0.355348 -0.852643 3.17278 76 142 131
-0.741523 -1.0638 3.96657 78 125 122
-0.360873 -0.987504 3.68851 99 172 156
0.221332 -0.876954 3.26891 91 146 149
0.599476 -0.806625 3.00758 170 227 218
0.604616 -0.806059 3.00496 144 185 208
0.619499 -0.802662 2.99328 98 160 144
0.895586 -0.748919 2.79276 166 238 216
-1.18132 -1.14657 4.29191 93 173 144
-0.797081 -1.07069 4.0046 109 157 151
-0.736312 -1.05962 3.96317 177 233 228
0.29363 -0.860044 3.21531 67 130 110
0.307758 -0.856147 3.20338 72 134 112
-0.704566 -1.05219 3.9417 85 150 134
0.187169 -0.880048 3.29423 101 164 154
0.872302 -0.753482 2.81671 77 139 125
0.902973 -0.744587 2.78745 153 205 198
0.0576244 -0.901859 3.38511 88 157 147
0.231511 -0.86946 3.26204 91 143 155
0.939414 -0.734236 2.75601 95 152 167
-1.16897 -1.13628 4.2786 91 154 138
-0.258663 -0.959638 3.61051 105 179 143
-0.0833583 -0.926216 3.48638 99 165 154
0.594935 -0.800319 3.01126 205 245 233
0.60444 -0.799325 3.0063 89 152 143
0.658928 -0.789139 2.96392 88 148 138
0.881708 -0.746584 2.80727 71 133 121
0.610141 -0.796184 3.00079 65 133 122
0.891846 -0.742965 2.7982 155 219 207
-0.141248 -0.934967 3.52773 155 224 197
0.206705 -0.869206 3.28129 91 151 151
0.304254 -0.850806 3.21008 77 145 128
-0.766917 -1.05446 3.98941 170 234 204
1.02348 -0.712687 2.69152 251 249 249
0.832259 -0.751698 2.84364 96 152 139
0.362397 -0.834667 3.16402 85 145 127
0.635151 -0.786846 2.98146 80 143 117
1.0549 -0.705398 2.67545 72 137 138
0.669454 -0.778207 2.9543 175 237 221
0.904406 -0.734278 2.78575 93 119 119
-0.405459 -0.977783 3.72079 84 158 134
0.421155 -0.819808 3.12168 149 202 189
0.744816 -0.760315 2.90308 112 164 157
-0.15597 -0.923815 3.53403 66 136 106
0.630586 -0.780282 2.98326 172 234 216
-0.399792 -0.971231 3.72186 86 160 142
0.305891 -0.837364 3.20896 73 152 131
0.743822 -0.758001 2.90217 101 158 150
0.945581 -0.719093 2.75158 95 142 170
0.569137 -0.788762 3.02407 149 212 196
0.892269 -0.72932 2.79746 96 86 86
-0.65789 -1.01664 3.90965 93 171 140
0.330792 -0.830632 3.19051 167 224 239
0.459601 -0.804523 3.08901 95 122 113
0.248472 -0.845154 3.25213 91 153 135
0.453153 -0.804886 3.09618 100 133 126
0.886767 -0.728592 2.80267 177 216 208
0.888858 -0.728507 2.79827 95 125 112
0.491345 -0.796045 3.0626 126 160 150
0.126366 -0.864734 3.33621 73 142 139
0.344364 -0.82354 3.17621 98 155 157
0.350858 -0.823946 3.17935 80 144 139
0.515186 -0.790729 3.04811 74 110 93
0.522381 -0.790077 3.04491 65 100 80
-0.804496 -1.03896 4.01489 97 171 135
-0.128033 -0.910555 3.51383 87 164 137
0.74617 -0.752379 2.90272 125 170 174
-0.138697 -0.909732 3.52309 86 150 128
0.385547 -0.812541 3.14787 89 139 139
0.461482 -0.797553 3.08819 102 134 129
0.891442 -0.72271 2.79618 95 150 131
0.44592 -0.798568 3.10076 145 194 180
0.525105 -0.785956 3.04584 52 111 96
0.370815 -0.813545 3.15999 147 211 192
0.892725 -0.720237 2.79574 142 202 178
0.896807 -0.719644 2.79391 128 196 179
0.119043 -0.858087 3.33961 80 143 133
0.456438 -0.794214 3.09284 146 189 180
0.480349 -0.791159 3.07983 118 158 153
0.517433 -0.784295 3.05157 89 144 117
0.427978 -0.800771 3.11806 153 214 200
0.60331 -0.771703 3.00619 69 137 114
0.340314 -0.815812 3.18143 107 166 186
0.51953 -0.782091 3.05065 142 194 176
0.902705 -0.71525 2.78947 81 131 121
0.502978 -0.782353 3.05652 227 243 236
0.477724 -0.787293 3.0778 158 210 193
0.893596 -0.714935 2.79497 122 183 173
-0.982694 -1.05752 4.14204 107 179 149
0.513686 -0.779572 3.05623 79 117 111
0.523695 -0.779272 3.04935 19 111 116
0.382715 -0.804245 3.15232 196 232 215
0.467571 -0.788417 3.08838 40 66 82
0.551458 -0.774136 3.03406 101 161 153
0.880851 -0.716484 2.80567 126 188 176
-0.0629771 -0.883422 3.46834 89 161 148
0.519785 -0.776462 3.05012 165 246 251
0.419947 -0.794844 3.12346 64 112 106
0.471924 -0.785597 3.08857 135 179 192
0.524878 -0.775063 3.04711 185 253 252
-0.991321 -1.0537 4.14932 109 185 154
-0.607222 -0.982373 3.8682 95 166 140
0.142369 -0.844901 3.32534 159 219 209
0.179032 -0.83764 3.29882 96 157 137
0.367977 -0.802488 3.15934 143 209 190
0.379701 -0.801323 3.15203 100 143 130
0.516194 -0.776043 3.0529 93 159 154
0.422661 -0.791688 3.11967 157 216 208
0.429253 -0.791121 3.1179 187 229 222
0.387872 -0.798333 3.14872 132 173 152
-0.407477 -0.939941 3.72176 81 158 131
0.903718 -0.704813 2.78969 60 126 121
-0.456509 -0.947552 3.75939 99 165 146
0.472883 -0.778371 3.08782 142 185 182
0.475387 -0.777456 3.08224 41 78 76
0.892959 -0.704052 2.79616 127 189 173
-0.829914 -1.01204 4.03148 80 150 133
-0.511991 -0.955167 3.80136 159 233 199
0.379496 -0.792848 3.15286 149 204 177
0.446975 -0.780273 3.10573 97 155 137
0.863839 -0.708555 2.82159 92 146 139
0.357588 -0.794567 3.16768 153 218 203
0.878279 -0.705607 2.81024 151 206 197
0.375355 -0.789772 3.15237 132 169 153
0.434466 -0.779201 3.1124 74 128 111
0.505593 -0.765414 3.0622 159 221 205
0.851466 -0.709225 2.83133 168 230 208
-0.910789 -1.01966 4.09057 141 228 192
-0.0199975 -0.858122 3.43873 97 162 146
0.415448 -0.781293 3.12544 37 120 95
0.474297 -0.770245 3.08674 130 176 163
0.631235 -0.742793 2.98075 80 138 120
0.043423 -0.844022 3.39506 160 233 217
0.285742 -0.80077 3.22189 162 225 205
0.569219 -0.753047 3.0242 255 254 255
0.578534 -0.751276 3.02023 85 143 114
0.0636154 -0.8389 3.38007 94 168 162
0.612874 -0.744798 2.99769 157 216 201
0.883119 -0.696522 2.80722 136 216 187
0.442401 -0.769696 3.10766 85 149 127
0.463332 -0.766521 3.09454 71 125 108
-0.748923 -0.982024 3.97262 69 140 114
0.633204 -0.739241 2.98509 168 229 215
0.87772 -0.695403 2.81051 133 198 182
0.893013 -0.692723 2.79665 135 196 176
-0.0576445 -0.854742 3.4641 91 155 143
0.599838 -0.743835 3.00931 193 249 226
0.520434 -0.752451 3.05116 157 221 199
0.617115 -0.738349 2.99742 184 231 215
-0.00718541 -0.843192 3.42737 138 220 197
-0.461467 -0.922721 3.76146 167 229 211
-0.26939 -0.886288 3.61756 88 160 140
0.419147 -0.765832 3.12332 78 134 121
0.852574 -0.694865 2.82966 78 135 120
-0.553254 -0.938643 3.83038 158 227 194
0.354365 -0.777511 3.17076 105 152 130
0.845568 -0.695153 2.83241 168 235 203
-0.324267 -0.893879 3.656 96 160 148
0.419495 -0.765667 3.12551 75 136 122
-0.545378 -0.933102 3.82041 57 128 108
0.883412 -0.686243 2.80497 159 224 208
-0.562445 -0.934912 3.83525 98 162 140
0.843417 -0.69284 2.83664 89 145 122
-0.809438 -0.977247 4.01186 104 150 138
-0.804454 -0.978162 4.01351 248 255 255
-0.690288 -0.956296 3.92559 92 161 141
0.188241 -0.80291 3.29096 95 158 142
0.343664 -0.77485 3.17391 85 134 118
0.82831 -0.694794 2.84844 210 252 241
0.294437 -0.783451 3.21803 93 154 144
0.879927 -0.684258 2.80633 63 117 112
0.888765 -0.681221 2.80023 54 110 105
-0.172776 -0.859255 3.54326 96 170 142
0.20071 -0.796771 3.28255 94 158 139
0.602858 -0.731255 3.00671 173 228 209
0.833155 -0.690726 2.84315 91 159 142
0.947005 -0.668773 2.75042 145 203 208
-1.01571 -1.0096 4.16559 91 171 140
0.275367 -0.783488 3.23191 150 219 199
0.333602 -0.772134 3.18588 94 156 138
0.511971 -0.742185 3.06206 173 235 219
0.561229 -0.736001 3.03362 185 237 227
-3.16155 -1.38965 5.74752 166 241 220
0.690829 -0.710843 2.93744 123 170 174
0.85394 -0.685829 2.82982 162 217 208
-0.572978 -0.927998 3.84068 106 173 152
-0.813377 -0.969131 4.01667 76 144 121
0.146689 -0.802335 3.32225 175 239 220
0.295508 -0.775888 3.21403 200 232 227
-0.833061 -0.970783 4.02901 158 221 195
0.364346 -0.762045 3.16323 168 214 202
0.384139 -0.759184 3.14955 191 243 233
0.585131 -0.728809 3.02222 60 124 105
-0.544488 -0.920896 3.82194 146 213 192
-0.232572 -0.862821 3.58666 87 155 138
0.934849 -0.665777 2.76198 100 142 154
-0.136002 -0.84548 3.51843 154 228 200
0.275592 -0.775371 3.2293 75 134 120
0.837201 -0.681482 2.8386 96 167 141
-0.22814 -0.85776 3.5867 147 222 200
0.964378 -0.656172 2.73425 151 215 196
-0.556054 -0.91419 3.82642 166 236 206
-0.193645 -0.849453 3.55664 97 174 147
0.546617 -0.726376 3.04138 80 142 130
-1.73924 -1.11788 4.69851 99 173 155
0.276617 -0.769449 3.22691 148 210 192
0.35413 -0.755722 3.16931 131 178 176
0.42976 -0.74397 3.11751 88 154 143
0.523627 -0.729976 3.05728 92 165 149
-0.558507 -0.910741 3.83132 63 138 116
-0.0454094 -0.820955 3.45577 85 156 139
0.47527 -0.734659 3.08575 83 157 139
-0.190445 -0.845065 3.55952 76 162 132
0.279829 -0.766863 3.22621 166 218 201
0.490691 -0.730149 3.07492 88 161 145
0.505098 -0.72873 3.06594 151 226 212
0.670739 -0.701284 2.9526 244 255 253
0.885373 -0.666828 2.80437 73 132 118
-1.33756 -1.0427 4.39746 92 176 148
0.918936 -0.658063 2.77088 167 215 233
-0.580058 -0.910413 3.84141 176 241 209
-0.561253 -0.90586 3.82982 195 248 228
-0.202436 -0.843852 3.56532 93 173 150
0.587183 -0.716242 3.02083 76 148 125
0.489864 -0.726984 3.07531 78 148 135
-0.172485 -0.836249 3.5453 80 148 125
-0.0406706 -0.81385 3.45339 90 152 138
0.593204 -0.710639 3.01241 84 154 131
0.935537 -0.651087 2.75861 151 195 189
-0.687649 -0.92109 3.92196 76 143 128
0.6064 -0.706157 3.00222 73 139 127
-0.370688 -0.86742 3.6935 76 154 137
0.357522 -0.742668 3.16745 77 138 128
0.336175 -0.745682 3.18257 126 167 160
0.339456 -0.745493 3.17987 47 84 104
0.603469 -0.704246 3.00629 146 201 192
0.469961 -0.722065 3.08898 170 227 224
-0.576439 -0.896887 3.84039 82 157 136
-0.456437 -0.876165 3.75874 84 149 134
-0.456482 -0.876252 3.75631 81 145 133
0.573468 -0.706171 3.02545 99 155 136
0.297511 -0.748383 3.21179 80 148 123
0.34773 -0.734874 3.17056 177 224 222
0.472899 -0.716332 3.08612 104 166 154
0.90248 -0.647836 2.78859 94 154 148
0.569664 -0.701833 3.02697 63 116 96
-0.720178 -0.912933 3.94841 73 144 124
0.595755 -0.696306 3.01134 200 246 240
0.831398 -0.656837 2.84342 92 158 146
0.350857 -0.731511 3.17358 205 239 239
0.583652 -0.695543 3.01608 223 249 255
0.238441 -0.750034 3.25695 90 161 141
0.58993 -0.693676 3.01654 247 252 253
0.654939 -0.682323 2.96147 80 115 118
0.938532 -0.634186 2.75577 158 208 198
0.52945 -0.700548 3.05216 93 152 144
0.593689 -0.691406 3.01098 164 204 202
0.186171 -0.755147 3.29197 150 214 195
0.289571 -0.736764 3.21615 82 137 120
1.22537 -0.586327 2.55061 193 216 211
0.577919 -0.692425 3.02191 82 142 118
0.587039 -0.691726 3.01702 245 255 254
1.19447 -0.590247 2.57404 168 230 218
-0.859268 -0.924188 4.04768 158 227 200
0.56028 -0.693409 3.03203 75 153 130
-0.703101 -0.898809 3.93876 75 144 123
0.589656 -0.688824 3.01345 89 126 122
-1.95803 -1.10548 4.85328 197 253 234
-0.0122818 -0.782186 3.43073 153 225 212
0.129289 -0.758379 3.33151 85 150 135
0.288499 -0.733268 3.21832 153 208 193
0.886766 -0.640187 2.80347 74 137 128
0.926497 -0.631317 2.76716 172 218 229
-0.691172 -0.891867 3.9241 66 126 108
-0.418569 -0.848187 3.7265 62 137 116
0.576117 -0.688128 3.0234 102 155 135
0.578564 -0.685429 3.02064 249 254 252
0.458721 -0.702049 3.09556 98 168 155
1.21032 -0.583198 2.56516 212 243 228
-0.307049 -0.823375 3.64319 85 150 129
-0.242193 -0.811722 3.59508 91 150 136
0.593719 -0.679961 3.01056 169 211 204
0.139349 -0.749391 3.32112 88 150 138
0.278136 -0.726498 3.22381 149 208 188
0.580099 -0.681147 3.02412 251 255 252
-0.12905 -0.789306 3.51949 88 153 137
-0.449586 -0.841446 3.74993 80 162 140
0.464703 -0.694688 3.09161 81 150 135
-0.359721 -0.823697 3.67809 93 165 142
-0.0708253 -0.776879 3.47269 82 167 147
0.850366 -0.634598 2.8314 57 125 108
0.875846 -0.629447 2.81171 85 147 141
-0.215293 -0.797872 3.57407 145 215 192
1.04052 -0.600477 2.68522 79 122 111
-0.627815 -0.865339 3.88096 172 234 212
0.936888 -0.616022 2.75895 95 143 144
0.120572 -0.741426 3.33564 86 154 137
1.40643 -0.539155 2.41582 94 112 129
0.835558 -0.630842 2.84038 86 139 130
0.58466 -0.669833 3.01676 240 255 242
0.579934 -0.669002 3.02058 155 211 190
0.825961 -0.630727 2.84786 99 150 146
-0.837383 -0.889894 4.03112 83 159 127
1.01446 -0.597791 2.70074 93 156 140
-0.580971 -0.84783 3.84453 156 230 206
0.283323 -0.710796 3.22244 135 194 179
0.42311 -0.689521 3.12488 212 241 232
0.585225 -0.665381 3.018 81 135 118
0.954427 -0.606127 2.74584 104 154 166
-0.236414 -0.788412 3.58625 231 249 242
0.925134 -0.610055 2.77434 180 227 224
-0.307842 -0.796135 3.64239 88 160 138
0.279388 -0.704181 3.22113 197 239 228
0.615131 -0.654549 2.99165 193 230 228
-3.07845 -1.23972 5.68443 186 234 222
-0.236327 -0.784113 3.58959 104 147 134
0.272764 -0.705315 3.22865 142 190 178
0.317206 -0.697665 3.19685 194 242 218
-0.727743 -0.860008 3.95414 84 163 136
0.53402 -0.663664 3.05097 86 117 116
0.842471 -0.618419 2.83554 86 152 140
-0.108772 -0.759806 3.49822 77 147 130
0.146207 -0.719568 3.31772 80 147 148
0.95619 -0.59556 2.74339 156 201 215
-0.299215 -0.785918 3.63452 93 155 141
-0.262141 -0.781232 3.61048 150 211 191
0.387138 -0.680445 3.14456 97 137 125
0.964366 -0.593499 2.73838 107 158 168
-0.451295 -0.810455 3.74984 158 230 207
0.310837 -0.692005 3.20002 80 148 131
0.323513 -0.68952 3.19014 88 153 138
0.275072 -0.695674 3.22734 145 207 189
-0.282406 -0.777923 3.62307 75 144 124
-0.251697 -0.773545 3.59968 99 161 147
-0.146713 -0.75753 3.52363 103 173 156
-0.0941221 -0.749281 3.48548 91 170 143
0.277603 -0.693096 3.22284 81 145 126
0.82431 -0.613581 2.84871 80 140 140
0.9198 -0.597526 2.774 173 227 244
-0.0442946 -0.739432 3.45217 161 225 206
1.40524 -0.520199 2.4168 165 177 201
-0.74694 -0.849275 3.96785 100 171 151
0.0943641 -0.718756 3.35446 99 166 159
0.108689 -0.71577 3.34396 163 224 220
0.440965 -0.666399 3.10928 90 163 155
0.295885 -0.686177 3.2099 79 146 125
0.867745 -0.602742 2.81587 156 224 207
0.867651 -0.602746 2.81587 156 224 207
-0.0409389 -0.736088 3.44824 100 163 147
0.420539 -0.667058 3.1238 92 151 136
-0.195999 -0.757158 3.55776 155 219 200
-0.160694 -0.751665 3.53328 164 226 208
0.598822 -0.638858 3.00746 69 133 114
1.21121 -0.546691 2.56437 157 206 190
-0.1177 -0.744142 3.50632 102 164 146
0.410137 -0.663915 3.12979 179 246 231
0.613569 -0.635693 2.99482 91 152 138
0.875671 -0.597293 2.81338 66 135 115
0.877766 -0.595348 2.80517 218 255 236
0.924119 -0.589369 2.7729 79 138 153
1.21493 -0.544406 2.55836 144 199 180
-0.588378 -0.814077 3.84801 70 148 124
-0.281458 -0.766536 3.62162 61 144 106
0.181093 -0.698067 3.29172 137 192 177
0.285961 -0.68096 3.21821 81 145 123
0.569362 -0.642132 3.02755 97 162 146
0.832702 -0.602513 2.84192 81 143 129
-1.14447 -0.897025 4.24594 86 164 140
0.242257 -0.686785 3.24711 142 198 185
0.604929 -0.635417 3.00053 149 209 191
0.878365 -0.595185 2.80623 218 255 236
1.24179 -0.537138 2.53366 104 156 133
-0.290459 -0.766326 3.62877 96 160 141
0.28073 -0.680309 3.22234 85 150 129
1.22698 -0.539377 2.5538 98 104 81
-0.00599957 -0.719954 3.42231 88 167 153
0.24911 -0.683013 3.2435 148 213 187
-0.461197 -0.786639 3.75264 98 182 153
0.276774 -0.676821 3.22536 89 148 128
0.289056 -0.674511 3.21546 201 244 231
-0.294523 -0.758602 3.63345 66 138 116
-0.731491 -0.824247 3.9537 99 171 148
-0.473802 -0.784071 3.76269 157 233 209
0.229199 -0.677517 3.25616 131 193 179
0.270634 -0.673246 3.23099 93 150 135
1.05703 -0.557498 2.67378 96 164 139
-0.230846 -0.745143 3.58559 100 147 139
0.249714 -0.674829 3.24456 69 129 111
-0.478664 -0.781153 3.76871 75 147 127
-0.292978 -0.753695 3.6338 161 225 203
-0.0806711 -0.719556 3.47589 84 146 134
0.386966 -0.651146 3.14456 200 255 241
1.23888 -0.526778 2.54194 96 150 137
-0.905663 -0.841899 4.07898 100 177 149
-0.200001 -0.735231 3.56233 103 164 150
0.509138 -0.632429 3.06336 88 147 143
-0.441552 -0.767212 3.73646 99 170 144
1.21857 -0.52499 2.55818 189 194 163
1.22722 -0.524473 2.55348 143 194 174
0.41148 -0.639647 3.12788 152 213 199
0.574979 -0.619152 3.02575 97 116 107
-0.469064 -0.763914 3.7594 86 172 148
0.594578 -0.612736 3.00878 86 128 117
0.954315 -0.560598 2.74617 186 238 231
1.217 -0.522839 2.55992 141 145 110
1.40576 -0.492369 2.41397 118 153 139
0.808635 -0.580519 2.85891 170 227 218
0.824536 -0.578976 2.84764 189 242 229
0.317304 -0.647565 3.19462 87 149 131
0.858558 -0.572323 2.82475 79 144 135
-0.219928 -0.724136 3.57644 105 160 141
-0.170523 -0.715692 3.54176 80 144 132
0.213758 -0.659437 3.26722 148 215 194
-1.05437 -0.841983 4.17787 103 162 154
0.61578 -0.603362 2.99106 218 253 249
0.660198 -0.595237 2.95863 99 153 140
-0.897379 -0.814704 4.06921 111 184 152
-0.274892 -0.724069 3.61382 74 142 125
-0.170617 -0.708132 3.5405 86 156 143
0.9268 -0.555811 2.76753 105 167 175
-0.196124 -0.712643 3.56153 89 149 141
-0.0105066 -0.685397 3.42879 75 147 127
1.4087 -0.484443 2.41647 150 186 174
-0.2573 -0.717975 3.60158 83 154 134
0.200788 -0.655649 3.2789 145 220 199
0.828622 -0.568123 2.84658 87 143 122
-1.05605 -0.829713 4.18343 79 166 140
0.0554793 -0.671103 3.38006 94 162 145
0.863333 -0.561191 2.81928 220 254 254
0.155559 -0.655389 3.31033 83 161 138
0.404783 -0.61908 3.13124 165 236 219
0.860359 -0.559188 2.82174 60 98 110
-0.100499 -0.687977 3.49264 102 171 161
0.407944 -0.617225 3.12907 81 147 135
0.843804 -0.560241 2.8338 214 229 208
0.359611 -0.619169 3.1637 92 152 144
1.22425 -0.501672 2.55564 148 203 188
-0.642369 -0.757005 3.88062 112 183 156
0.495262 -0.599169 3.07175 168 223 226
0.825647 -0.555685 2.8476 66 125 105
1.23414 -0.498394 2.54983 83 152 137
0.965383 -0.533725 2.7376 139 203 208
-0.61307 -0.749285 3.86265 73 157 129
-0.200959 -0.689856 3.5632 82 155 129
1.22657 -0.496217 2.55448 147 210 194
-0.720142 -0.761732 3.94097 86 163 136
0.831431 -0.550618 2.84292 78 150 130
0.67887 -0.569103 2.94489 89 147 136
0.818716 -0.550769 2.85021 76 143 128
0.358529 -0.609919 3.16389 69 144 130
0.544075 -0.586108 3.04122 97 162 140
0.849653 -0.546085 2.82963 68 133 111
0.977359 -0.526758 2.72691 116 170 181
0.241516 -0.623673 3.24695 74 144 121
0.0291293 -0.650862 3.39742 83 157 145
0.0678429 -0.647803 3.3747 95 171 160
-0.482838 -0.721243 3.76876 75 145 132
0.130581 -0.634656 3.32764 89 151 133
-0.232279 -0.680586 3.58184 84 162 138
-0.0907909 -0.661763 3.4819 98 173 145
-0.534427 -0.721299 3.80101 88 165 137
0.274504 -0.612615 3.22412 135 199 180
0.422503 -0.593156 3.11974 77 133 138
0.534614 -0.579799 3.0482 89 155 144
0.580406 -0.574407 3.01876 156 228 206
0.879911 -0.533274 2.80481 75 139 120
-0.0504156 -0.655207 3.45351 84 156 134
-0.0490954 -0.655166 3.45274 80 152 130
0.310849 -0.606759 3.20004 96 161 139
0.430855 -0.591443 3.11447 85 137 143
0.874887 -0.533478 2.80818 78 131 118
-1.28851 -0.822492 4.34557 86 156 139
-0.729109 -0.747154 3.94786 102 171 150
0.389685 -0.595906 3.14336 92 146 146
0.708969 -0.554643 2.92316 234 255 252
0.787698 -0.544961 2.87692 217 246 255
0.851298 -0.53629 2.82836 65 141 100
-0.0285441 -0.649904 3.44011 100 162 144
0.1755 -0.623652 3.29604 222 255 246
0.29269 -0.608441 3.21334 85 151 132
0.43414 -0.58925 3.11548 78 133 136
0.552237 -0.572237 3.03485 84 161 140
-0.120223 -0.658615 3.50057 72 147 125
0.15248 -0.622955 3.3114 97 167 161
0.851793 -0.532427 2.82635 169 236 209
-0.0279226 -0.645717 3.43646 76 144 127
0.846288 -0.532026 2.82842 71 120 92
0.901745 -0.524388 2.78867 86 138 151
-0.426815 -0.698756 3.73038 83 154 127
-0.174432 -0.663103 3.53974 74 147 131
-0.0113069 -0.641889 3.42777 78 165 145
-0.0114429 -0.64192 3.42751 78 165 145
1.36688 -0.461675 2.45463 133 184 157
-0.0825705 -0.650518 3.47746 91 161 144
0.447585 -0.580961 3.10424 177 237 237
1.08747 -0.497925 2.65293 93 153 153
-0.45721 -0.700041 3.74608 72 147 125
-2.94798 -1.03618 5.57257 99 163 151
-0.372699 -0.687251 3.68638 67 146 119
-0.119326 -0.652959 3.50427 161 226 204
0.846798 -0.528231 2.83032 149 209 179
-0.115755 -0.650295 3.49939 61 122 108
0.557164 -0.564814 3.03435 93 165 145
0.564807 -0.563919 3.03102 84 158 140
0.881486 -0.522769 2.80342 167 211 204
0.181649 -0.611248 3.29448 153 228 207
0.879225 -0.521635 2.80503 70 125 116
-0.399983 -0.686614 3.7038 66 148 125
0.181646 -0.61133 3.29377 153 228 207
0.20931 -0.605923 3.27068 72 140 133
0.278242 -0.597089 3.2218 194 247 234
1.03589 -0.49849 2.68903 151 220 200
0.808604 -0.527626 2.85269 86 150 131
0.840369 -0.525198 2.83903 148 213 191
-0.0570063 -0.637237 3.45855 86 148 134
1.16865 -0.478525 2.59248 106 154 128
1.17053 -0.477681 2.58895 133 209 177
1.36103 -0.454463 2.45787 140 199 168
-0.695388 -0.720189 3.9201 160 231 205
-0.585608 -0.704912 3.83897 153 220 211
-0.48376 -0.690091 3.76559 87 161 137
0.142861 -0.607942 3.31447 92 151 136
0.81251 -0.524268 2.85602 156 224 201
-0.28106 -0.663174 3.61972 154 227 205
-0.256033 -0.659364 3.60067 86 173 139
-0.201532 -0.650247 3.55898 92 168 134
0.939806 -0.50511 2.75781 74 148 150
1.14173 -0.478391 2.61528 139 203 184
-0.516457 -0.689357 3.78809 169 238 205
-0.405325 -0.673005 3.70742 82 148 123
-0.317134 -0.662199 3.64569 151 228 201
-0.416878 -0.673612 3.7139 156 227 201
1.17383 -0.471368 2.59237 139 215 184
1.38067 -0.44497 2.44322 187 221 210
-0.527852 -0.685037 3.79582 96 167 150
0.568959 -0.548803 3.02763 71 152 133
-0.324873 -0.659732 3.65047 86 170 146
-0.917557 -0.733317 4.07501 77 145 120
0.879362 -0.504156 2.80372 86 140 127
1.02261 -0.485461 2.69652 87 157 144
0.475479 -0.55436 3.08454 98 163 172
0.825067 -0.510928 2.8442 144 208 189
0.0840983 -0.602354 3.3606 101 176 168
-0.239189 -0.640217 3.5832 83 160 132
0.825622 -0.51058 2.84624 150 214 195
1.0428 -0.480754 2.68289 157 232 210
0.376079 -0.563283 3.15405 94 155 157
-0.504096 -0.674834 3.78281 75 159 130
0.395071 -0.559172 3.13771 102 159 151
0.886029 -0.499818 2.7994 73 141 124
1.162 -0.464173 2.59792 95 160 145
0.0442872 -0.603222 3.3874 91 151 150
0.883617 -0.498831 2.80029 158 230 207
1.05575 -0.475428 2.67243 149 219 202
1.17202 -0.460891 2.5915 94 156 138
0.352321 -0.56172 3.16925 165 226 216
0.575645 -0.536015 3.02439 57 131 113
1.35831 -0.436717 2.46223 222 222 192
-0.40453 -0.652883 3.70559 83 156 124
-0.378201 -0.650023 3.6858 104 181 147
0.387848 -0.553707 3.14323 178 231 228
0.816896 -0.503022 2.85074 157 222 207
0.257019 -0.569591 3.23806 90 156 144
0.595933 -0.527556 3.00502 221 255 251
-0.553073 -0.66828 3.81286 76 152 128
0.215585 -0.570001 3.26548 93 158 142
0.190779 -0.573226 3.28549 82 152 139
0.347382 -0.55302 3.17153 105 156 158
0.621762 -0.520781 2.98585 96 161 152
-0.239663 -0.62332 3.58789 78 163 131
0.315095 -0.555289 3.19385 84 144 126
0.0271842 -0.590291 3.39624 83 145 131
-0.273997 -0.624925 3.60633 87 158 131
0.821317 -0.494197 2.84829 86 149 129
0.0758746 -0.582088 3.36639 78 150 127
-0.155464 -0.608117 3.52618 151 226 204
0.0792329 -0.580461 3.36069 152 220 195
0.593465 -0.519432 3.00499 140 205 189
-0.428169 -0.640616 3.72257 87 159 137
0.0436735 -0.582711 3.38308 82 140 145
0.595649 -0.517703 3.00271 81 144 128
0.608525 -0.514504 2.99192 183 237 232
1.17303 -0.445895 2.58632 71 126 131
-0.483631 -0.642933 3.7596 106 173 152
-0.017012 -0.58708 3.42779 150 228 211
-0.00589637 -0.585674 3.42005 95 174 155
1.25954 -0.436259 2.53573 165 227 213
-0.020361 -0.58545 3.42897 94 164 151
0.00631387 -0.582986 3.41198 88 148 140
0.0952661 -0.572916 3.34963 74 152 135
0.811305 -0.488966 2.85713 146 211 195
-0.145307 -0.597952 3.51556 87 153 118
-1.04433 -0.707936 4.1689 92 168 144
0.855162 -0.480976 2.82411 66 115 107
-1.70011 -0.787439 4.64626 97 167 150
0.0715518 -0.569039 3.3636 160 219 205
0.820939 -0.481228 2.8489 62 124 112
-1.26911 -0.728934 4.33003 89 161 141
0.0910509 -0.565648 3.35308 91 160 145
0.363304 -0.532682 3.16055 92 158 147
0.942592 -0.464824 2.75571 72 100 147
0.178792 -0.551104 3.28878 188 235 233
0.0721403 -0.563135 3.36956 80 140 129
0.367153 -0.527765 3.15709 83 152 139
1.03835 -0.449201 2.68549 142 216 198
0.0690543 -0.561052 3.37008 179 236 228
0.947409 -0.458944 2.75118 71 106 149
0.0892332 -0.555604 3.35475 154 220 191
0.437408 -0.51447 3.1065 87 143 160
-0.431547 -0.615071 3.72078 96 170 144
-1.16385 -0.698694 4.24863 83 158 130
-0.0189957 -0.56298 3.42712 89 165 153
0.860032 -0.463217 2.81943 154 198 185
-1.0882 -0.685615 4.1989 100 173 151
0.0860112 -0.549832 3.35704 153 207 190
-0.0272332 -0.560438 3.43383 99 171 165
0.0156247 -0.557312 3.4088 74 145 129
0.0816305 -0.548915 3.36073 74 133 113
1.07914 -0.434593 2.65609 176 234 229
0.0939365 -0.546831 3.34951 104 166 152
0.425444 -0.508778 3.11501 95 153 159
0.58942 -0.491042 3.01091 75 135 117
-1.95398 -0.784469 4.83213 86 165 146
0.0507568 -0.550465 3.38128 99 162 153
0.0885188 -0.546765 3.35863 87 144 129
0.97865 -0.445052 2.72805 202 234 255
-0.0660317 -0.561672 3.46035 81 158 144
0.872763 -0.456013 2.80935 76 135 131
0.588348 -0.487147 3.0098 78 116 104
1.20347 -0.415806 2.56851 102 159 144
1.27621 -0.408153 2.52283 85 146 136
0.563535 -0.487158 3.02706 152 217 201
-1.24372 -0.689531 4.30725 166 239 213
0.595823 -0.483102 3.00785 94 159 138
0.839755 -0.455961 2.83837 62 125 115
0.0291791 -0.543922 3.39614 94 160 148
-0.384523 -0.587134 3.67969 154 232 191
-0.0560645 -0.551166 3.4528 67 151 139
-0.288698 -0.575035 3.61223 97 177 142
0.0520566 -0.537601 3.37946 76 148 128
0.143109 -0.528353 3.31809 71 146 132
0.35939 -0.50303 3.16216 85 149 144
0.2036 -0.517835 3.27178 93 167 149
-0.0872544 -0.547194 3.47185 82 166 142
0.17931 -0.51902 3.28888 75 157 139
0.204165 -0.516983 3.27753 75 154 135
0.924526 -0.437119 2.76738 159 201 224
-0.29277 -0.568009 3.6153 173 244 217
-0.133502 -0.551116 3.50453 66 141 119
1.16997 -0.407834 2.58964 131 191 173
-0.398738 -0.578445 3.69246 96 170 144
0.852971 -0.444032 2.82563 77 137 127
-0.278859 -0.562923 3.60489 74 150 132
-0.038321 -0.537879 3.44615 97 184 170
0.00943104 -0.532519 3.41141 79 149 142
0.670507 -0.461022 2.94858 95 146 196
1.18228 -0.403995 2.57937 141 194 180
-0.0971237 -0.541388 3.4784 43 133 104
0.319017 -0.496736 3.19006 93 158 149
-0.297509 -0.561978 3.61547 79 149 136
-0.0190142 -0.533266 3.43014 85 163 146
1.29223 -0.391946 2.51292 134 205 188
-0.157524 -0.545943 3.51945 98 173 145
1.31232 -0.388966 2.49617 174 236 214
0.59263 -0.465824 3.00538 77 139 109
0.54657 -0.47025 3.03772 82 149 134
-0.0145743 -0.527406 3.42298 85 162 148
1.17846 -0.399508 2.58459 134 211 183
0.232188 -0.499604 3.25099 97 175 158
-0.160299 -0.540233 3.52339 75 160 128
0.816065 -0.438591 2.85227 69 132 116
-0.0961252 -0.532876 3.48292 73 159 129
0.134414 -0.508392 3.32141 88 161 145
0.874154 -0.431272 2.80912 164 220 221
1.39149 -0.375523 2.43984 180 197 194
0.0324449 -0.518702 3.39184 94 167 165
-1.16482 -0.645694 4.24483 80 156 125
0.837989 -0.433611 2.83886 57 112 97
-0.000658999 -0.519727 3.41322 61 138 124
0.164057 -0.502675 3.302 94 163 150
0.859241 -0.430834 2.82364 98 161 145
0.574599 -0.459391 3.01828 89 158 137
-0.29308 -0.547582 3.61209 248 255 252
0.877122 -0.425186 2.80439 83 137 137
-0.101206 -0.525935 3.48113 78 168 139
0.867068 -0.424675 2.81471 92 161 146
-0.00716817 -0.513959 3.41963 89 154 145
-0.0384676 -0.51684 3.44106 93 170 143
0.00559209 -0.512293 3.40846 79 143 131
0.0829826 -0.504107 3.35727 102 170 159
0.57061 -0.454537 3.01956 73 125 102
-0.042656 -0.512105 3.44232 99 180 153
0.85507 -0.421201 2.82435 146 215 194
0.957583 -0.408058 2.74087 90 139 171
0.569327 -0.44886 3.02279 73 126 113
-0.0481085 -0.510127 3.4486 88 166 142
0.011171 -0.503923 3.40862 146 208 192
0.0283923 -0.502707 3.39687 92 164 144
0.229841 -0.481462 3.25179 84 155 135
0.591318 -0.445176 3.00662 146 208 192
0.610373 -0.443138 2.99152 100 159 145
0.893653 -0.414366 2.79186 79 140 126
-0.0172398 -0.506019 3.42759 167 236 223
0.588494 -0.444731 3.0085 80 149 129
-0.0575972 -0.508048 3.44977 148 227 200
0.858193 -0.416408 2.82128 87 149 131
-0.104684 -0.51098 3.47777 74 160 130
-0.0142458 -0.501677 3.4237 77 150 118
0.998344 -0.398207 2.7108 170 239 218
-0.0553221 -0.503717 3.45136 51 129 98
0.0195196 -0.496591 3.40038 137 204 183
0.46496 -0.45104 3.08855 82 128 152
0.480339 -0.449723 3.07693 185 229 246
0.533985 -0.444081 3.04302 108 156 192
-0.077931 -0.503919 3.46356 62 146 121
0.351915 -0.461156 3.16549 184 234 230
0.605975 -0.436222 2.99682 100 155 146
-0.215383 -0.516967 3.55994 89 175 145
-0.183122 -0.511588 3.53554 135 222 184
0.0828578 -0.486254 3.35721 171 233 217
0.933757 -0.3994 2.75872 88 134 151
-0.0400462 -0.494607 3.43619 78 162 133
0.549805 -0.436742 3.03382 92 148 159
-0.0490487 -0.494075 3.44509 82 152 121
0.473984 -0.441804 3.07994 77 113 137
0.539219 -0.436623 3.04244 62 112 142
-0.151712 -0.501472 3.51504 95 161 132
0.0284834 -0.486024 3.39599 249 255 246
0.839298 -0.406241 2.83389 79 138 118
-0.052653 -0.490962 3.44607 141 214 188
0.824469 -0.406639 2.84438 148 204 191
0.232392 -0.462977 3.25045 68 140 127
0.83974 -0.404438 2.83193 78 135 114
-0.102369 -0.492886 3.47636 153 227 193
0.5703 -0.429914 3.0213 80 136 123
0.573222 -0.428478 3.01745 84 143 129
1.29831 -0.357941 2.50926 210 248 230
0.559606 -0.429659 3.02831 157 219 203
1.17202 -0.36732 2.58922 82 146 147
0.0179409 -0.47846 3.39807 152 217 196
-0.115698 -0.489626 3.48977 142 224 181
-0.0491002 -0.48458 3.4507 151 235 201
0.0334925 -0.476231 3.39119 157 219 207
0.190274 -0.460901 3.28014 183 243 233
0.533059 -0.428049 3.04297 88 158 141
1.31193 -0.352762 2.49889 162 229 208
0.604228 -0.420285 2.99508 88 146 141
1.20296 -0.360722 2.5703 86 145 130
-0.102951 -0.485873 3.47526 80 152 130
0.000425112 -0.47885 3.42344 234 226 213
0.417336 -0.43615 3.11883 110 165 178
-0.0318971 -0.478071 3.43312 68 147 114
0.598701 -0.418313 2.99775 84 143 129
1.14605 -0.364466 2.60808 138 204 175
1.15864 -0.362685 2.59942 91 151 140
1.27499 -0.35299 2.523 152 227 205
-0.0394854 -0.477962 3.43809 40 117 83
0.938486 -0.384398 2.75635 114 151 201
0.948108 -0.382799 2.74716 171 206 220
0.0267324 -0.47083 3.39531 101 158 155
1.38235 -0.340875 2.44671 157 204 182
0.82486 -0.394595 2.84323 153 219 207
0.945744 -0.38077 2.74936 82 114 149
1.20476 -0.357565 2.5711 80 133 120
-1.53168 -0.62216 4.51345 103 170 155
0.0930913 -0.46203 3.34985 87 166 147
0.59847 -0.414195 2.99865 143 196 186
-0.186227 -0.486169 3.53387 144 230 196
1.28802 -0.347717 2.51587 156 226 209
-0.13111 -0.478914 3.49696 81 143 113
-0.220989 -0.483418 3.55876 93 168 122
0.567079 -0.410677 3.02433 139 193 180
0.832735 -0.384808 2.83958 144 214 197
0.038756 -0.456172 3.38346 92 172 149
0.38829 -0.424111 3.1371 173 236 227
0.576545 -0.407095 3.01663 73 134 114
0.815353 -0.385583 2.85111 83 148 133
-0.0976851 -0.467891 3.47508 88 181 136
0.257062 -0.434898 3.23221 89 161 148
0.538722 -0.409203 3.03908 89 158 138
0.60199 -0.402846 2.99505 170 225 206
0.846818 -0.379227 2.82528 80 139 125
0.457792 -0.414193 3.08997 174 228 223
1.11866 -0.351649 2.62851 102 163 149
-0.00248946 -0.453367 3.4122 110 181 155
0.14601 -0.440159 3.30882 190 232 221
-0.218904 -0.470971 3.55401 137 223 189
0.016796 -0.450931 3.39689 71 145 117
0.928592 -0.367316 2.76219 164 201 245
0.0125767 -0.450269 3.40096 154 224 194
0.931197 -0.365611 2.7612 101 129 163
-0.0211279 -0.45192 3.41773 109 182 156
0.0851338 -0.442046 3.35145 96 177 152
0.147517 -0.435701 3.31012 99 158 144
0.646675 -0.391583 2.96608 158 218 208
1.39187 -0.322735 2.44037 176 211 185
-0.0276833 -0.449749 3.42524 71 148 121
0.0117569 -0.446581 3.39852 122 198 166
1.39322 -0.32029 2.43394 94 108 90
-0.220777 -0.462779 3.55487 70 138 115
0.143904 -0.432215 3.31275 167 229 211
0.610954 -0.389102 2.98836 87 136 120
1.15821 -0.339742 2.59981 80 140 130
0.0118314 -0.442277 3.40585 68 137 134
0.149676 -0.428301 3.30882 104 174 151
0.834983 -0.367664 2.83253 70 131 117
0.905574 -0.360765 2.78321 87 148 144
0.122821 -0.429559 3.3268 87 144 143
0.566579 -0.389328 3.0211 86 157 137
0.105209 -0.42864 3.33808 68 146 123
0.168605 -0.422909 3.29322 107 166 151
0.297473 -0.412408 3.20416 168 227 219
0.594044 -0.384161 2.99877 72 136 117
-0.0460291 -0.439316 3.43795 203 252 232
0.0580515 -0.431131 3.37206 164 238 208
1.00595 -0.346472 2.70401 151 216 201
-0.135601 -0.445802 3.49613 62 136 106
-0.0367087 -0.436727 3.43015 86 158 138
0.172036 -0.419088 3.29316 253 251 251
0.858937 -0.359513 2.81662 91 154 138
0.880829 -0.358215 2.80165 148 208 197
1.13203 -0.335345 2.62021 88 160 147
-1.74472 -0.59205 4.66701 91 165 141
0.561094 -0.386015 3.02658 177 242 227
0.573032 -0.384261 3.01876 153 218 202
0.618064 -0.37985 2.98334 181 236 227
0.0450793 -0.42872 3.37886 89 164 143
0.932799 -0.350651 2.75597 85 114 165
0.807565 -0.362437 2.85593 156 223 202
0.0605034 -0.425741 3.37398 99 168 155
0.601265 -0.378021 2.99548 69 126 111
0.934936 -0.348549 2.76056 66 94 148
-0.179448 -0.44296 3.52435 92 163 147
-0.118403 -0.438277 3.48344 166 231 209
-0.0799927 -0.435939 3.46325 78 160 131
-0.0295079 -0.431257 3.42634 91 156 134
0.283218 -0.403865 3.21111 97 162 147
0.0192001 -0.424906 3.39168 89 155 150
0.189315 -0.410868 3.28022 168 209 218
0.427512 -0.389885 3.11404 160 204 211
0.962758 -0.343405 2.73418 110 153 156
0.161175 -0.411579 3.29787 168 225 204
0.16775 -0.411824 3.29662 230 245 241
