ply
format ascii 1.0
element vertex 751
property float x
property float y
property float z
property uchar blue
property uchar green
property uchar red
end_header
1.56429 -0.244824 4.23166 118 147 122
0.621209 0.284729 4.17305 106 141 121
2.36582 0.5362 4.20864 102 143 122
2.49703 -1.19568 4.24672 135 160 162
-1.8482 0.138751 4.15273 115 162 146
2.16179 0.323556 4.23063 96 127 112
1.91924 0.443287 4.21451 141 190 188
2.10627 0.505 4.21375 159 206 173
2.00007 0.676749 4.05057 151 171 188
0.255914 1.08033 4.15049 252 254 254
1.27251 -1.68574 4.181 160 166 185
1.31895 -1.66465 4.16797 175 214 236
2.00806 -1.68012 4.21054 106 151 164
1.06062 -1.66477 4.17232 177 174 170
1.20223 -1.64993 4.17436 153 148 149
0.304359 -1.53616 4.15348 90 145 130
1.63926 -1.5186 4.19082 131 178 156
1.65859 -1.49407 4.18867 142 203 167
1.68012 -1.46445 4.19013 102 145 136
1.63515 -1.40355 4.19328 106 118 146
2.09586 -1.3932 4.2293 98 156 131
1.78161 -1.36957 4.20649 191 230 222
1.54091 -1.36425 4.21062 191 188 183
1.63754 -1.35413 4.19774 193 219 235
1.58498 -1.34107 4.21196 198 199 203
1.60148 -1.32857 4.20092 182 185 199
1.65159 -1.31235 4.21802 183 210 214
1.66943 -1.29931 4.20981 136 147 185
1.65817 -1.28162 4.21232 165 172 199
1.59855 -1.21542 4.20362 157 145 145
2.50485 -1.19872 4.23548 121 154 147
0.802113 -1.10234 4.19949 122 176 163
2.26558 -1.05808 4.24147 102 143 165
2.11585 -0.991428 4.21012 128 181 154
2.09484 -0.992872 4.22128 163 216 196
2.14262 -0.965575 4.21248 91 142 128
2.14971 -0.949063 4.22039 103 160 152
2.26607 -0.815936 4.24331 115 152 172
2.4175 -0.785037 4.24262 88 117 122
1.24238 -0.734713 4.22193 82 93 77
2.47252 -0.727179 4.24188 103 167 155
2.50241 -0.70105 4.25395 70 119 105
2.51981 -0.675228 4.22664 124 203 170
1.20366 -0.659643 4.20562 114 184 153
1.32776 -0.593511 4.20723 44 80 63
1.41817 -0.485135 4.2147 98 146 122
1.42007 -0.48413 4.22294 117 156 135
1.52091 -0.368637 4.23295 131 204 178
1.53954 -0.355754 4.20807 135 183 147
0.714315 -0.313432 4.18792 94 147 137
1.62173 -0.311532 4.19614 111 165 135
0.628007 -0.302738 4.16782 107 152 190
1.5898 -0.30581 4.19335 109 157 128
1.59938 -0.28112 4.22478 124 181 150
1.6748 -0.272445 4.20824 148 179 142
-0.409413 -0.201024 4.1432 203 252 232
1.70551 -0.0880096 4.12571 134 160 137
1.47674 -0.0715276 4.22214 122 171 155
-2.23859 0.055408 4.17871 116 142 136
2.03524 0.195924 4.24311 140 174 168
1.80757 0.201038 4.23409 83 154 137
2.16685 0.239111 4.23211 149 198 178
0.783248 0.275568 4.17208 116 158 151
0.781453 0.278439 4.18145 135 179 172
2.20853 0.317342 4.22727 115 154 133
1.16818 0.340693 4.18746 211 249 237
2.20776 0.359848 4.22335 137 184 168
2.33306 0.36395 4.24142 101 140 155
2.19781 0.384961 4.22535 103 148 131
1.35747 0.394351 4.21631 156 215 200
1.13114 0.43779 4.20081 51 72 69
2.33364 0.447758 4.22098 61 86 90
1.1307 0.449759 4.20436 109 137 137
1.93321 0.458829 4.19969 69 90 88
1.13816 0.467295 4.2004 98 155 140
0.268804 0.473543 4.16401 85 144 136
1.14986 0.49776 4.22155 56 80 68
2.15326 0.500986 4.20824 47 81 64
2.37004 0.510429 4.21965 107 146 138
1.98261 0.515134 4.20448 116 146 127
2.09769 0.533318 4.2132 158 207 185
1.20039 0.494169 3.74784 67 81 69
2.53707 0.565994 4.24698 165 224 220
1.06619 0.592836 3.71643 88 119 92
0.989389 0.603233 3.73709 86 117 88
1.13226 0.599348 3.6591 88 105 84
2.05105 0.696226 4.05494 136 145 155
0.974789 0.64444 3.73006 41 50 37
2.07624 0.727306 4.04112 141 158 167
1.14929 0.664837 3.65168 100 150 132
2.43529 0.76658 4.20216 59 87 68
0.952117 0.696726 3.72616 79 101 76
1.15091 0.785007 3.60118 99 122 94
0.990368 0.815506 3.68834 87 100 84
0.466455 0.938462 4.18159 255 212 164
1.39157 0.784561 3.50478 96 154 136
-0.0454582 0.928795 4.12007 199 243 237
0.482678 0.943191 4.17861 255 194 139
-1.04328 0.959535 4.13205 91 145 128
0.401809 1.00463 4.17446 130 117 103
1.28822 0.91342 3.51864 24 54 41
0.257134 1.08606 4.16191 255 254 255
-0.163222 1.1548 4.11068 82 158 146
1.34577 -1.69635 4.18234 183 229 246
1.33923 -1.67507 4.17261 122 138 167
1.31744 -1.67678 4.17787 149 170 202
1.04216 -1.67321 4.17353 138 125 117
1.21513 -1.66514 4.17213 196 205 202
2.47568 -1.61174 4.23301 254 254 254
2.47988 -1.60415 4.2404 217 235 234
0.360307 -1.56893 4.16037 133 229 189
0.241783 -1.56775 4.16204 135 215 184
2.30963 -1.55681 4.23468 201 208 227
1.54343 -1.50641 4.17747 148 208 174
1.64855 -1.51638 4.20432 142 212 175
1.63381 -1.49673 4.188 101 151 127
1.65326 -1.4928 4.18527 129 191 161
1.56178 -1.47833 4.1715 87 127 116
0.621697 -1.44179 4.17097 90 107 93
1.54677 -1.39215 4.19043 162 162 186
1.60935 -1.38537 4.2006 191 212 233
1.52114 -1.38069 4.1968 202 211 208
1.75557 -1.38242 4.20271 100 139 148
1.75143 -1.32585 4.19429 81 112 121
1.70824 -1.32291 4.19805 136 171 191
0.77382 -1.29356 4.17219 61 69 58
1.4631 -1.30438 4.22234 164 156 157
1.64639 -1.27997 4.19763 134 127 132
2.24619 -1.29725 4.24238 143 166 181
2.40435 -1.2785 4.20921 100 152 122
2.38245 -1.27447 4.23689 95 129 119
1.64504 -1.2549 4.20244 195 196 200
1.5399 -1.23878 4.20682 156 149 146
1.57137 -1.24309 4.20086 158 150 143
2.46234 -1.2488 4.22964 237 245 244
2.49223 -1.24429 4.21695 85 135 111
2.65643 -1.23848 4.20099 76 140 111
1.56878 -1.22491 4.19386 146 137 134
2.56642 -1.22542 4.22391 68 167 117
1.60543 -1.21777 4.21248 151 137 138
1.66801 -1.21825 4.20946 134 119 123
2.53861 -1.20134 4.2423 100 150 140
2.40162 -1.17208 4.24053 244 252 251
2.03325 -1.10966 4.21185 151 211 177
2.63722 -1.10505 4.2524 131 164 173
2.13848 -1.07673 4.23189 128 198 157
1.9686 -1.06108 4.22023 161 191 220
2.0372 -1.01571 4.18946 147 197 173
2.27046 -1.01511 4.23998 108 155 159
0.903859 -1.00123 4.19794 79 115 93
2.36243 -1.00059 4.24038 114 146 151
2.14975 -0.949062 4.22048 103 160 152
2.36973 -0.923935 4.22607 94 144 134
1.02243 -0.902701 4.22013 121 147 129
1.15027 -0.870912 4.19727 28 48 35
2.42241 -0.868925 4.23491 53 88 74
2.23865 -0.839987 4.23601 167 207 232
1.20272 -0.826988 4.20821 42 53 51
1.21661 -0.801581 4.1989 51 65 61
2.25372 -0.787394 4.25611 183 217 233
1.16774 -0.775663 4.21154 225 176 126
2.4175 -0.785037 4.24262 88 117 122
1.1546 -0.776495 4.21813 240 200 151
2.23146 -0.780761 4.24648 161 179 210
2.44128 -0.744919 4.25272 171 217 228
2.64447 -0.736592 4.26062 120 162 169
2.31552 -0.704756 4.24131 146 179 199
0.825289 -0.687905 4.21017 253 255 255
2.51523 -0.672652 4.22285 132 207 175
2.468 -0.641389 4.25635 106 153 167
1.28013 -0.609841 4.2262 59 116 91
2.55602 -0.607503 4.23941 91 133 115
1.32679 -0.59404 4.20175 45 73 54
1.38762 -0.547435 4.21974 106 133 113
1.47485 -0.531038 4.19957 134 163 202
1.36585 -0.526058 4.21587 88 116 97
2.60513 -0.507461 4.22488 151 206 187
2.67339 -0.494487 4.20901 81 108 104
2.62874 -0.458217 4.23623 79 114 110
1.59937 -0.358704 4.19134 67 109 91
1.52552 -0.35154 4.23791 57 84 64
1.54882 -0.348217 4.20792 81 111 76
1.60269 -0.344857 4.21128 133 180 147
1.63714 -0.333081 4.20935 72 96 86
1.80164 -0.317648 4.22583 103 87 134
1.39716 -0.305931 4.2292 76 119 104
0.437784 -0.29688 4.16638 88 144 125
1.56639 -0.276904 4.20485 122 181 153
1.64155 -0.265418 4.2271 48 67 46
1.71447 -0.249846 4.17919 138 178 160
0.6043 -0.217898 4.17032 95 123 187
1.55468 -0.163798 4.22398 86 139 112
1.68891 -0.159047 4.237 76 106 81
1.38168 -0.156483 4.23157 94 148 135
1.4931 -0.138582 4.23034 144 203 183
1.52455 -0.0885703 4.22622 110 169 141
1.56679 -0.0849335 4.22653 219 198 166
-2.04954 -0.0397224 4.16312 114 170 159
1.64953 -0.0293556 4.22605 58 80 61
-2.22694 0.0155058 4.17255 98 143 127
-2.21248 0.0709061 4.17452 113 157 128
-2.20422 0.107178 4.17636 151 205 198
-2.01654 0.125761 4.13823 157 187 192
-2.23662 0.16615 4.17495 99 126 106
2.057 0.178078 4.24475 59 90 87
2.10529 0.179603 4.25197 87 124 120
-0.0166888 0.190889 4.14303 82 145 153
-2.22655 0.198538 4.18458 134 188 171
0.751632 0.246053 4.19587 128 190 178
1.0263 0.259234 4.18667 89 125 103
2.20322 0.2971 4.21793 45 51 50
1.07929 0.297327 4.1905 86 122 106
0.551441 0.304516 4.18171 84 116 99
1.10233 0.304719 4.19463 77 112 86
2.29599 0.310551 4.2377 148 185 213
1.12545 0.319826 4.19677 79 127 103
1.11862 0.340406 4.21149 54 62 51
0.367608 0.3766 4.15791 126 179 152
0.362686 0.393757 4.17262 84 128 105
2.31977 0.403925 4.22906 169 216 224
0.00271696 0.414178 4.14989 249 254 255
2.06127 0.429174 4.23429 98 145 123
2.03421 0.438102 4.22281 58 89 68
1.90035 0.443835 4.20654 100 136 119
1.92097 0.451047 4.21308 76 84 77
2.03697 0.459954 4.21203 94 136 113
1.95638 0.484113 4.21625 55 75 46
2.1151 0.484087 4.19817 55 81 65
1.19676 0.491692 4.21043 132 184 177
1.97979 0.512836 4.19811 119 150 129
2.3819 0.519697 4.19604 118 160 159
2.37942 0.558633 4.19633 57 90 75
2.01486 0.562967 4.20049 91 133 115
2.39241 0.593902 4.2022 147 194 162
2.58753 0.632054 4.23605 215 239 231
0.988912 0.602697 3.73793 86 117 88
1.12129 0.619354 3.6473 88 119 90
2.39861 0.736852 4.22179 71 113 102
0.982364 0.673215 3.69753 48 54 37
1.07725 0.665685 3.65205 35 45 28
1.20309 0.707973 3.6051 24 36 24
1.33925 0.71045 3.52819 81 133 123
1.1539 0.758197 3.60968 109 121 101
2.55002 0.903575 4.17562 78 106 86
0.993612 0.819472 3.6964 100 110 97
-1.04342 0.959365 4.13169 95 145 127
1.66654 0.815904 3.50171 81 139 121
1.44599 0.825296 3.49378 66 130 118
0.380795 0.981492 4.16047 175 144 99
0.123428 1.00361 4.12987 89 150 136
0.0091971 1.03102 4.11987 191 228 224
-0.32458 1.15349 4.10787 162 220 215
1.21761 -1.6667 4.18186 191 202 199
1.83652 -1.66716 4.2051 112 183 163
2.38865 -1.65893 4.19753 252 252 252
2.25521 -1.6433 4.20344 218 238 243
1.22715 -1.61953 4.1821 157 148 151
0.24666 -1.58587 4.15366 71 93 74
1.97547 -1.60825 4.21725 108 160 160
2.06031 -1.59032 4.21882 82 151 138
1.65673 -1.57343 4.20812 52 91 70
2.32414 -1.57224 4.21719 136 171 175
2.37391 -1.57679 4.22094 117 186 173
0.293448 -1.54231 4.15373 63 84 69
1.62133 -1.55782 4.18458 163 215 205
2.51772 -1.57786 4.24121 141 185 186
1.67242 -1.55454 4.18746 53 112 81
2.38265 -1.53735 4.2227 193 230 234
2.37224 -1.52341 4.22898 123 160 168
1.69069 -1.48181 4.17454 112 173 137
1.96153 -1.49135 4.2144 112 166 167
1.66968 -1.46233 4.20406 105 158 149
1.79196 -1.45325 4.22246 74 119 100
2.41999 -1.40648 4.22535 118 174 169
2.56929 -1.4059 4.22858 137 201 182
1.54851 -1.39281 4.19749 144 138 157
1.61102 -1.38564 4.20351 190 211 232
1.56006 -1.37466 4.20957 217 228 232
2.5115 -1.35945 4.23554 240 247 240
1.45911 -1.3377 4.21077 210 217 214
1.62458 -1.33317 4.20403 182 208 224
1.69084 -1.33216 4.21571 219 238 251
1.70916 -1.32302 4.19948 136 171 191
2.1204 -1.33062 4.23841 104 153 133
2.44483 -1.32386 4.22664 181 229 223
2.34257 -1.31173 4.22989 109 138 143
2.24068 -1.29668 4.2343 154 176 188
2.69158 -1.28819 4.24521 216 248 231
1.54639 -1.25341 4.22544 209 216 213
2.50498 -1.24621 4.20997 67 128 100
2.49184 -1.24251 4.20958 63 112 90
1.57847 -1.2317 4.20995 140 131 128
1.60735 -1.23865 4.20942 179 182 180
2.6568 -1.23705 4.2018 72 143 110
0.819353 -1.21706 4.17624 92 127 100
1.65104 -1.22662 4.21546 210 221 218
1.66945 -1.21948 4.21438 134 119 123
2.34325 -1.23257 4.24994 117 137 138
2.51521 -1.22454 4.22265 97 162 136
2.56855 -1.22558 4.22685 68 167 117
2.70572 -1.22345 4.23249 103 173 143
2.61604 -1.20817 4.24459 105 169 147
2.54254 -1.2018 4.22783 81 134 120
2.44168 -1.20668 4.25925 135 166 165
2.717 -1.18947 4.25375 239 246 241
2.07322 -1.1589 4.23305 156 228 206
2.5842 -1.14936 4.25051 210 234 224
0.841096 -1.12867 4.2002 205 170 127
2.11893 -1.11041 4.20657 103 148 129
0.798945 -1.1051 4.19746 119 184 169
2.57347 -1.10957 4.24813 228 254 254
2.63137 -1.10487 4.2449 130 157 171
1.99141 -1.08929 4.21448 164 205 214
2.22775 -1.08549 4.21839 92 129 127
2.00101 -1.07291 4.2244 106 150 143
1.99593 -1.07258 4.20541 105 141 129
2.37678 -1.07079 4.23001 243 255 255
2.0255 -1.02653 4.19525 158 207 175
2.65612 -1.03949 4.24897 127 162 166
2.2255 -1.03227 4.23826 121 176 167
2.01485 -1.00874 4.20145 108 140 145
2.18391 -1.01092 4.22999 111 161 149
2.10885 -0.980482 4.22324 86 118 113
2.14024 -0.969161 4.23303 87 135 129
2.35883 -0.967184 4.23629 109 136 150
2.39239 -0.950986 4.24289 166 225 217
2.29048 -0.939176 4.2397 106 156 152
2.18938 -0.936216 4.24263 127 178 171
2.59721 -0.936227 4.2617 113 147 153
2.31423 -0.918951 4.23809 115 184 171
2.1471 -0.905893 4.23142 93 140 132
2.43294 -0.911817 4.25447 185 235 217
1.00236 -0.874305 4.1946 118 182 163
2.57082 -0.873787 4.26433 112 139 135
2.59877 -0.86781 4.27074 108 141 134
2.37883 -0.855211 4.24811 151 183 206
1.19765 -0.827505 4.19774 37 41 42
2.2423 -0.839724 4.24297 160 200 228
2.38227 -0.829812 4.25557 117 135 164
1.84005 -0.822802 4.23988 207 213 212
1.22188 -0.800856 4.21424 47 57 51
1.873 -0.793906 4.22957 183 175 168
1.21908 -0.773496 4.20633 97 103 86
1.8818 -0.778533 4.23434 209 214 213
1.87936 -0.76196 4.24227 141 118 110
2.26714 -0.755601 4.22672 89 116 130
2.43026 -0.743803 4.26471 115 152 166
2.29876 -0.730524 4.24473 135 177 196
2.48031 -0.733882 4.2818 80 126 120
1.16401 -0.711889 4.19627 96 160 124
1.18779 -0.679435 4.2082 105 178 146
2.48193 -0.682464 4.24229 78 119 114
2.54929 -0.686164 4.2458 94 155 135
2.43826 -0.667323 4.2446 92 119 133
1.23677 -0.65443 4.20239 48 67 48
1.34024 -0.584522 4.2064 97 158 130
1.43736 -0.578579 4.20111 149 184 217
1.33895 -0.556975 4.21425 81 120 104
2.64105 -0.542758 4.25484 89 127 121
1.36049 -0.543448 4.2421 117 173 150
2.60598 -0.507334 4.22597 142 201 180
1.44548 -0.445043 4.1983 46 65 62
1.46463 -0.44344 4.20256 113 174 136
1.56879 -0.435293 4.20396 147 191 198
1.60726 -0.392176 4.18864 121 169 173
-0.681532 -0.378803 4.14005 254 253 255
1.57704 -0.360657 4.23413 171 178 157
1.5281 -0.350461 4.24496 58 86 66
1.0187 -0.333838 4.19991 94 144 120
1.70149 -0.286215 4.20223 166 198 227
1.45675 -0.278626 4.23038 80 115 101
1.46613 -0.28084 4.23182 81 105 93
1.64492 -0.270931 4.19498 125 178 138
1.65062 -0.260574 4.21219 132 168 138
1.54966 -0.248029 4.23003 115 175 141
1.69564 -0.229106 4.18549 129 175 139
0.562703 -0.219616 4.15543 198 232 231
0.605716 -0.216819 4.17607 95 130 194
1.43302 -0.212453 4.214 71 133 103
1.67024 -0.211845 4.17897 85 116 89
1.55555 -0.163296 4.22651 89 142 115
1.52032 -0.15766 4.21728 107 166 138
0.868286 -0.133198 4.18457 91 140 154
1.59217 -0.12512 4.22391 97 117 94
0.489858 -0.112618 4.16433 254 255 253
-1.97769 -0.115121 4.16547 255 255 255
1.46567 -0.102657 4.23259 140 195 180
1.57627 -0.0900747 4.21388 224 218 205
1.5055 -0.0794414 4.22904 64 85 70
1.45723 -0.045007 4.21167 129 191 175
1.49846 -0.0359507 4.20481 123 185 169
1.65172 -0.0282262 4.23096 66 89 67
-1.93787 -0.00746968 4.14291 103 126 121
-1.72921 0.0132595 4.15124 108 143 133
-1.69529 0.0347873 4.14912 97 148 140
-1.81946 0.0416684 4.15393 147 198 190
-1.65795 0.0532722 4.17272 119 179 169
-1.53677 0.104075 4.10151 112 163 159
-2.29214 0.142726 4.18272 116 163 141
-2.37621 0.177864 4.18694 125 169 168
-2.36057 0.193344 4.19147 187 233 240
0.626841 0.206335 4.15978 92 131 109
0.705492 0.208377 4.18888 143 193 205
-2.31095 0.237967 4.18989 95 134 119
0.739774 0.236342 4.18941 95 141 128
0.756861 0.243843 4.184 136 199 183
0.914765 0.248063 4.19055 69 106 90
0.637967 0.257455 4.17465 112 158 145
0.814857 0.284234 4.18935 156 214 196
2.20236 0.29658 4.21624 45 51 50
-2.22878 0.300668 4.17993 111 154 127
0.451299 0.313075 4.16742 101 139 117
2.22996 0.325022 4.21814 46 59 61
1.11968 0.340887 4.213 58 66 56
2.22196 0.337554 4.18757 98 146 122
1.00018 0.344572 4.19109 97 134 114
2.15769 0.345001 4.22698 120 183 157
0.394793 0.353878 4.15612 128 191 175
2.12556 0.358589 4.23531 88 143 118
2.19896 0.361488 4.21781 100 148 130
2.24205 0.361036 4.22092 56 81 61
1.48544 0.366155 4.21912 85 154 139
0.379055 0.366812 4.16716 87 129 104
0.400742 0.366093 4.15802 133 182 162
-2.19789 0.383196 4.15368 142 193 189
2.20809 0.39231 4.22333 55 78 64
0.362611 0.393553 4.17201 84 128 105
1.07526 0.394316 4.19592 80 106 92
-2.20004 0.404421 4.16642 113 154 149
0.361861 0.414358 4.16456 110 179 159
1.11728 0.41824 4.20494 99 133 122
-2.1925 0.418944 4.15165 187 221 237
0.31433 0.428318 4.17133 99 164 139
1.99134 0.43154 4.21186 79 126 100
1.07354 0.439588 4.19305 95 127 122
1.12334 0.437997 4.20156 55 72 68
2.05182 0.442635 4.22318 143 197 168
2.39065 0.44665 4.21945 155 188 204
1.24172 0.451137 4.22204 69 126 105
-1.25138 0.44496 4.13163 255 255 255
0.288717 0.453039 4.17295 81 137 118
2.03588 0.45941 4.21046 93 132 110
1.95309 0.464531 4.21051 130 191 155
1.13151 0.475218 4.16985 59 83 73
2.34752 0.475499 4.22108 76 113 111
1.05195 0.486337 4.18775 141 147 142
1.14184 0.488582 4.20763 59 79 66
2.09627 0.488468 4.22002 128 181 161
2.07183 0.512202 4.21793 146 219 193
2.0124 0.517386 4.21739 79 121 104
2.10039 0.520199 4.16818 51 61 48
2.12493 0.521979 4.20656 52 67 53
0.315569 0.526658 4.16914 135 205 192
2.00727 0.532599 4.19691 137 201 172
-0.92104 0.524698 4.12421 251 253 254
2.06937 0.558777 4.1998 71 96 86
2.03711 0.574005 4.18881 120 171 137
2.40525 0.576716 4.19432 74 100 86
1.21946 0.524442 3.73726 104 136 112
2.36579 0.610876 4.22558 60 88 75
2.52493 0.631467 4.23745 166 200 216
2.71697 0.663091 4.2563 157 154 186
0.290223 0.648676 4.12226 81 113 89
2.48322 0.687562 4.18984 77 125 107
-0.232284 0.69816 4.12692 255 255 255
2.4366 0.710163 4.21396 105 141 127
0.186467 0.707103 4.10181 101 153 135
0.820639 0.716774 4.18216 81 113 88
1.1341 0.66663 3.65404 28 35 22
2.4157 0.76477 4.20281 65 119 96
0.963472 0.712378 3.72393 37 37 25
1.40553 0.661946 3.48268 44 86 69
1.18735 0.700756 3.63173 89 116 90
1.54301 0.6895 3.56316 55 98 83
1.21213 0.699059 3.58628 90 111 96
0.540792 0.819313 4.17193 175 154 122
1.00159 0.782778 3.68319 122 168 146
2.51917 0.893286 4.19258 96 121 107
1.03509 0.825644 3.68269 83 111 81
1.36671 0.784567 3.49356 113 171 146
1.33467 0.800397 3.53598 70 115 96
0.463851 0.943763 4.18152 181 118 67
0.416656 0.968386 4.17622 209 164 121
0.895379 0.959322 4.15488 99 136 128
1.66445 0.813477 3.49854 76 137 117
0.380754 0.979512 4.15632 172 141 96
1.25942 0.831945 3.52226 108 187 166
1.23616 0.876643 3.53397 80 142 124
0.329262 1.03749 4.14364 107 139 122
0.275434 1.0759 4.163 242 255 254
0.247711 1.08655 4.15481 253 255 255
-0.231935 1.09479 4.10047 91 152 132
-0.187234 1.16268 4.10522 90 146 133
0.781577 1.18199 4.15104 97 146 114
1.89834 -1.64388 4.21454 247 254 255
2.58028 -1.64588 4.23385 112 131 138
1.8018 -1.61352 4.20687 89 144 127
2.06851 -1.60876 4.20274 128 179 181
2.09183 -1.60371 4.21152 123 183 172
0.233573 -1.5592 4.1437 136 216 187
1.65724 -1.55149 4.16442 58 109 82
0.286441 -1.54112 4.14706 68 96 73
1.51223 -1.54809 4.16712 197 241 234
1.54722 -1.54469 4.1759 127 171 164
2.64747 -1.55425 4.21828 98 129 138
1.87273 -1.54118 4.21333 102 130 137
1.55445 -1.48383 4.18045 90 112 110
1.97116 -1.48823 4.24154 120 182 170
0.585942 -1.45609 4.17405 102 120 103
0.645131 -1.43572 4.13644 133 185 192
1.67815 -1.44561 4.19171 151 221 204
2.09559 -1.446 4.21245 105 153 141
0.666011 -1.41874 4.15065 80 116 104
2.62635 -1.44495 4.26023 85 105 116
1.62001 -1.41872 4.19729 109 124 127
1.54342 -1.40068 4.21532 174 167 174
2.41168 -1.40566 4.21821 126 177 170
1.58744 -1.38146 4.20276 142 155 187
1.64655 -1.36486 4.20119 217 244 255
2.30705 -1.36953 4.22013 160 177 198
2.50955 -1.36132 4.23265 247 252 250
2.4273 -1.35134 4.21365 142 184 196
2.31154 -1.35277 4.23359 223 233 250
1.61398 -1.33567 4.20571 186 210 228
2.47833 -1.34554 4.24505 69 103 103
1.68228 -1.32625 4.20817 209 238 253
2.44405 -1.32593 4.24238 201 245 238
1.76672 -1.29961 4.18847 77 106 111
1.52223 -1.29099 4.20701 215 222 225
2.2345 -1.29301 4.22798 160 185 195
1.73967 -1.27261 4.19976 131 163 182
1.65437 -1.26876 4.21674 189 205 217
2.15801 -1.28496 4.29021 91 125 124
2.33056 -1.27689 4.23199 253 255 255
1.69204 -1.25656 4.19308 141 168 205
2.13874 -1.25266 4.22535 97 137 136
2.52569 -1.24366 4.25662 123 182 154
1.61335 -1.21759 4.20512 120 104 98
1.64816 -1.22268 4.22298 207 215 214
1.65784 -1.21841 4.1923 157 149 149
2.40822 -1.18765 4.21603 132 159 156
1.87809 -1.11729 4.20885 146 182 206
1.99782 -1.11947 4.21982 99 140 133
0.802851 -1.08485 4.18887 110 150 148
2.62978 -1.10495 4.2505 136 165 179
2.22388 -1.08784 4.23193 110 148 148
2.46993 -1.09458 4.24758 91 137 125
2.39813 -1.08513 4.2405 164 183 191
2.37161 -1.0687 4.24422 235 246 255
0.961645 -1.04043 4.20231 223 202 187
1.99945 -1.03269 4.22651 134 164 193
2.02104 -1.01236 4.18318 125 172 146
2.21511 -1.03388 4.2396 116 179 170
2.36816 -1.03873 4.25996 107 132 142
2.02226 -1.01886 4.23555 129 161 174
2.06966 -1.00678 4.23516 108 155 146
2.08429 -1.00218 4.22416 117 171 154
2.10842 -0.980477 4.2245 93 131 125
2.3606 -0.967132 4.24342 106 131 151
2.38862 -0.951073 4.23532 169 226 218
0.956422 -0.93323 4.22148 135 209 183
2.1905 -0.939492 4.24783 124 175 168
2.28621 -0.940063 4.24555 99 146 150
2.58968 -0.93786 4.26401 124 140 156
2.13122 -0.913225 4.24768 92 144 134
2.29584 -0.910156 4.23366 120 184 179
2.12901 -0.900875 4.23293 112 160 154
1.76743 -0.863217 4.23415 144 122 111
2.57864 -0.873366 4.27344 115 137 135
2.59086 -0.867387 4.27054 110 141 132
1.77048 -0.832863 4.23437 211 213 213
1.80683 -0.831313 4.23263 183 175 175
2.38368 -0.82973 4.25762 107 124 151
1.6726 -0.814642 4.22729 220 222 222
1.84338 -0.814176 4.23376 210 215 214
2.25514 -0.811854 4.24014 145 187 206
2.40095 -0.811581 4.2079 126 210 175
1.22555 -0.796643 4.21539 44 54 48
2.58393 -0.803531 4.24887 90 138 126
1.87382 -0.791772 4.23836 171 164 161
1.8425 -0.781129 4.23437 140 118 106
2.28062 -0.78248 4.24677 103 125 137
2.46551 -0.779964 4.25682 94 167 129
1.87503 -0.762327 4.23575 147 124 116
2.2701 -0.758703 4.24439 118 144 160
1.15432 -0.717631 4.20411 106 183 146
2.44533 -0.728749 4.23906 71 115 114
2.66225 -0.729156 4.27081 116 162 150
2.30939 -0.706161 4.24087 168 203 217
2.39486 -0.707469 4.24954 137 175 187
2.53282 -0.689576 4.23708 94 148 135
2.47948 -0.682934 4.23599 78 119 112
2.43011 -0.669901 4.25308 113 139 156
1.22896 -0.65445 4.19191 57 75 58
2.52644 -0.665149 4.23926 107 182 150
2.55206 -0.638987 4.23416 45 62 51
1.37848 -0.618658 4.16144 136 179 164
2.63076 -0.618806 4.23927 112 177 151
2.54525 -0.599122 4.24091 65 96 89
1.27547 -0.583177 4.2164 99 151 121
1.40779 -0.585115 4.19299 53 72 55
1.44793 -0.560797 4.19646 151 192 185
2.38039 -0.559947 4.21155 135 139 150
1.46747 -0.539962 4.18778 149 181 216
2.64128 -0.54265 4.25585 77 124 115
2.54496 -0.526027 4.25105 124 179 162
2.60255 -0.506012 4.22983 120 169 147
2.6182 -0.462189 4.23064 55 79 77
1.43796 -0.453356 4.19898 53 66 58
1.58427 -0.386893 4.23683 60 70 53
1.57587 -0.343177 4.20717 131 168 128
1.56718 -0.336876 4.24781 64 101 69
1.51807 -0.320196 4.23703 133 206 180
1.76153 -0.324715 4.26004 138 163 197
1.3825 -0.311082 4.23099 93 132 111
1.58327 -0.309164 4.22967 52 77 57
1.45707 -0.278556 4.2308 85 118 104
1.64108 -0.272215 4.1876 111 160 122
1.35171 -0.255164 4.23408 102 155 145
1.57371 -0.255778 4.22218 54 68 44
1.682 -0.249957 4.19997 50 59 39
1.78096 -0.248392 4.19339 103 97 122
1.53529 -0.234426 4.24565 89 108 91
1.21238 -0.219786 4.21318 100 147 131
1.101 -0.155822 4.19821 255 255 255
1.53108 -0.132813 4.21034 70 92 68
-1.97436 -0.116401 4.15946 255 255 255
1.52154 -0.0971778 4.22227 122 178 157
1.52223 -0.0957458 4.22897 123 179 156
1.54445 -0.0780725 4.22682 70 90 61
-2.14504 -0.0406184 4.16357 118 165 156
-2.03771 -0.043431 4.16597 99 157 146
0.968948 -0.0449595 4.1926 255 254 255
1.49433 -0.0342342 4.22029 135 197 181
1.67043 -0.0344252 4.23438 75 112 86
-2.07556 -0.011874 4.18136 137 215 191
1.49996 -0.00975861 4.21224 83 129 110
-1.90708 0.00231914 4.1569 140 203 183
-1.78417 -0.00376281 4.15306 106 150 127
1.60161 -0.000833178 4.22941 81 115 98
1.68062 0.00195868 4.24853 68 94 76
-2.07489 0.0160059 4.17251 93 107 95
-1.96656 0.00726917 4.20443 140 181 183
-1.74541 0.00543874 4.12432 148 217 206
1.6742 -0.000468938 4.23823 85 124 98
1.71 0.00845644 4.23472 83 117 110
-2.22281 0.0169569 4.16719 91 138 122
1.73923 0.0150232 4.24635 107 177 164
-2.01178 0.0263485 4.14264 123 173 169
1.75574 0.0181878 4.21113 81 109 96
-2.06648 0.0341799 4.14881 126 157 156
-1.8904 0.033089 4.13933 136 172 166
-2.01049 0.055756 4.14593 122 161 139
-2.11977 0.0724662 4.16225 128 186 162
-1.79348 0.0821131 4.14403 151 210 212
-1.80422 0.0876695 4.16528 162 213 216
-2.20749 0.111227 4.18387 148 199 195
-2.01586 0.116607 4.16792 135 167 162
-2.01298 0.133815 4.1139 150 191 200
-2.34528 0.139725 4.19295 99 140 112
-2.19503 0.144956 4.18177 98 136 124
-2.17408 0.138437 4.16929 80 96 72
2.06187 0.157106 4.2558 134 194 184
-2.32066 0.165503 4.17549 74 97 65
-2.23237 0.171867 4.17131 93 128 108
-0.670047 0.166962 4.13541 255 255 255
2.08311 0.18479 4.23607 53 65 59
2.13464 0.199073 4.20267 127 143 132
0.626594 0.206396 4.15999 92 131 109
0.719468 0.216321 4.20525 96 145 137
-2.29289 0.216977 4.18021 124 199 177
2.13514 0.225914 4.20659 99 170 144
0.757219 0.244062 4.18474 136 199 183
0.942073 0.253067 4.21478 116 159 138
0.844636 0.261803 4.18991 75 96 71
1.02169 0.272274 4.19686 59 77 54
0.811514 0.280575 4.17741 91 150 135
2.13069 0.281909 4.1666 134 186 162
2.23401 0.294743 4.24243 172 199 225
2.16514 0.302445 4.23335 104 163 143
0.513378 0.302804 4.15869 136 181 162
0.539507 0.306352 4.15956 81 105 81
0.598595 0.31568 4.19607 89 124 104
-2.27616 0.310459 4.17274 133 174 166
0.428841 0.321264 4.16511 123 187 168
0.99869 0.344024 4.18938 88 128 110
1.13573 0.352385 4.20104 121 167 154
2.29626 0.352183 4.23733 213 230 249
2.32144 0.342962 4.2246 120 149 170
0.396996 0.356314 4.16361 115 173 155
2.06764 0.375796 4.23293 86 132 120
2.28462 0.383172 4.22933 63 74 71
1.07195 0.391493 4.18548 82 108 94
1.16757 0.385071 4.20351 66 95 80
2.26536 0.40377 4.21379 63 98 78
2.40097 0.426917 4.23872 242 252 255
-2.46829 0.433861 4.19878 255 255 255
1.0751 0.44168 4.19914 88 119 116
2.02217 0.444388 4.22412 61 94 73
1.14042 0.45149 4.21231 108 147 145
1.90241 0.451814 4.21914 62 66 54
0.326418 0.452745 4.19381 83 113 94
1.94533 0.457994 4.205 100 136 119
2.30594 0.459073 4.22585 53 91 73
1.98033 0.466654 4.20664 48 64 47
1.99093 0.473668 4.20824 65 90 70
0.319975 0.478076 4.1653 95 151 132
2.11896 0.483778 4.2054 59 85 67
2.1505 0.490319 4.2077 54 71 58
0.31662 0.506123 4.17433 78 117 91
2.29275 0.522584 4.20134 119 178 158
2.14365 0.532477 4.19924 135 191 170
2.53649 0.551573 4.24871 115 177 177
2.37353 0.56647 4.2157 38 55 42
2.05596 0.577405 4.19822 89 144 111
2.06923 0.585032 4.21853 98 145 119
2.40489 0.577297 4.19587 69 95 81
2.11215 0.589893 4.20542 140 197 188
2.44358 0.632868 4.20292 79 109 104
2.44203 0.63374 4.20516 68 105 85
2.40837 0.652263 4.21335 70 78 71
2.59154 0.658357 4.2316 100 171 154
2.41752 0.658668 4.22968 46 54 47
0.249221 0.66921 4.10893 68 94 70
2.49117 0.710443 4.18881 155 193 197
0.188382 0.711592 4.11261 92 141 125
0.219681 0.709225 4.12877 115 195 160
2.40351 0.743304 4.20418 146 204 176
0.974444 0.674117 3.6936 38 44 27
2.52313 0.774918 4.16024 127 178 158
1.40912 0.668484 3.49638 40 76 64
1.00918 0.736774 3.68168 31 37 26
2.36262 0.837176 4.19548 40 69 44
1.57748 0.708972 3.54225 112 189 168
1.39766 0.721592 3.51855 75 126 112
1.65286 0.735366 3.56809 125 211 193
2.48125 0.875281 4.18726 109 167 142
2.60159 0.890637 4.20298 96 135 120
1.19969 0.763216 3.55679 113 152 126
1.17172 0.77376 3.58395 45 43 33
1.36531 0.758794 3.51329 71 127 114
2.61022 0.921347 4.18085 108 144 127
0.288217 0.899493 4.05255 79 107 94
0.468393 0.93095 4.1649 255 230 169
0.989613 0.833784 3.73014 30 30 18
0.980485 0.854917 3.69525 100 138 110
1.58358 0.829971 3.51812 97 198 176
1.23538 0.855902 3.5359 36 39 30
0.242266 1.08761 4.1587 251 255 255
2.29438 1.09277 4.18066 94 116 111
0.772739 1.15379 4.10295 87 147 117
