ply
format ascii 1.0
element vertex 110
property float x
property float y
property float z
property uchar blue
property uchar green
property uchar red
end_header
-0.658043 -0.277435 1.85992 94 156 138
-0.471205 -0.192924 1.84155 102 170 139
-0.201569 -0.160541 1.81031 84 162 125
0.341015 -0.406548 1.7331 92 149 141
-0.658144 -0.277418 1.85997 96 155 140
-0.0900356 -0.212902 1.7981 95 160 134
-0.201569 -0.160541 1.81031 84 162 125
-0.0566383 -0.159675 1.80317 98 170 150
-0.0944425 -0.719617 1.74911 174 234 224
-0.174903 -0.54216 1.78119 98 154 135
-0.234428 -0.528377 1.79231 82 160 136
-0.678385 -0.539108 1.84781 111 162 154
0.100808 -0.450022 1.75521 86 150 145
-0.223524 -0.459131 1.79467 97 164 137
-0.743816 -0.452692 1.85895 89 150 122
-0.363208 -0.439553 1.81115 100 168 145
-0.740985 -0.406222 1.86308 219 255 254
-0.41977 -0.312344 1.82661 110 173 153
-0.841904 -0.319557 1.88209 107 148 140
-0.259071 -0.259571 1.81401 146 227 180
-0.261775 -0.257569 1.8146 94 171 134
0.0389073 -0.246419 1.78414 92 151 131
0.431559 -0.233958 1.74446 90 147 132
-0.0104904 -0.204036 1.78904 88 153 138
0.156373 -0.201527 1.7773 112 161 153
-0.254194 -0.201665 1.81129 67 157 104
0.400095 -0.191175 1.75317 121 173 163
-0.147263 -0.179847 1.80893 90 155 133
0.0616635 -0.147948 1.79168 80 138 113
-0.512471 -0.128787 1.84889 117 183 164
-0.017513 -0.113891 1.80139 97 143 124
-0.401817 -0.0864917 1.84198 83 128 102
0.507302 -0.0664003 1.75716 82 147 132
-0.0191879 -0.0436825 1.81026 79 152 136
-0.33249 -0.041564 1.83865 77 135 110
-0.148035 -0.0361194 1.81887 60 127 90
-0.455334 -0.00414117 1.85421 86 158 135
-0.228293 -0.725414 1.76634 254 255 253
-0.177847 -0.708248 1.76622 77 151 123
-0.607841 -0.658227 1.82906 93 155 149
-0.713469 -0.631656 1.84518 86 150 138
-0.41149 -0.601544 1.80556 74 128 121
-0.678399 -0.539114 1.84779 113 164 156
-0.73025 -0.483474 1.8562 252 254 254
-0.815932 -0.437313 1.86937 115 159 152
-0.944779 -0.432103 1.89364 106 165 150
-0.260373 -0.397271 1.80654 92 154 138
-0.600585 -0.386748 1.84445 112 162 144
-0.748094 -0.375551 1.86667 90 136 113
-0.470845 -0.341777 1.83244 115 185 149
-0.302358 -0.307979 1.81564 102 167 142
0.0389475 -0.246621 1.78365 85 144 124
0.539229 -0.209997 1.73592 124 170 171
-0.346231 -0.210183 1.82628 95 172 144
0.974506 -0.196454 1.69931 163 228 207
0.156725 -0.201288 1.77779 109 158 150
0.410902 -0.189793 1.74971 90 142 124
-0.318769 -0.184957 1.82118 81 142 114
-0.21382 -0.18386 1.81489 87 154 115
-0.703067 -0.174864 1.87222 81 137 108
-0.207662 -0.164132 1.80886 77 149 119
0.0617841 -0.147772 1.79204 79 140 114
0.430926 -0.129765 1.75545 104 161 146
-0.409224 -0.11979 1.83765 99 165 140
-0.330636 -0.0122882 1.84079 91 167 133
0.554672 -0.639616 1.6734 53 78 64
0.520972 -0.617906 1.67848 75 114 98
-0.0673535 -0.62859 1.75621 120 170 166
-0.411147 -0.601729 1.80469 82 137 128
-1.03503 -0.617488 1.90163 114 169 152
-0.20847 -0.515191 1.78753 81 132 105
-0.174725 -0.510852 1.78536 119 176 151
-0.170659 -0.511652 1.78291 111 150 129
-0.171103 -0.454591 1.79003 85 164 131
-0.334024 -0.453816 1.80473 95 160 135
0.0236033 -0.431803 1.76705 85 140 131
-0.803086 -0.44785 1.87103 102 152 140
-0.957278 -0.39614 1.89971 94 143 135
-0.729804 -0.386211 1.86331 192 240 222
-0.470594 -0.341587 1.83292 113 183 152
0.062484 -0.285179 1.7743 69 131 113
-0.120401 -0.252111 1.79945 98 164 145
0.00268662 -0.248768 1.78338 116 181 159
0.763324 -0.229169 1.71423 153 212 192
0.82383 -0.188614 1.71364 190 231 224
0.445562 -0.155369 1.74616 100 149 127
0.44638 -0.153428 1.75021 83 139 118
-0.0333498 -0.139124 1.79886 55 113 85
0.079904 -0.126818 1.79095 82 142 124
-0.40904 -0.119584 1.84149 106 174 149
-0.805342 -0.119522 1.88455 97 128 125
-0.161372 -0.10159 1.81129 195 230 226
-0.546141 -0.100414 1.85784 91 156 130
0.127269 -0.0799286 1.7913 187 223 229
0.71102 -0.0550267 1.74279 199 242 229
0.554901 -0.639251 1.67521 56 80 68
-0.0668358 -0.630118 1.75702 120 171 164
0.15592 -0.586016 1.73642 98 159 133
0.000936208 -0.550465 1.75576 93 152 138
-0.171586 -0.522743 1.78198 85 106 84
-0.19729 -0.519472 1.78395 213 249 243
-0.172395 -0.501184 1.7839 82 126 103
-0.172769 -0.501239 1.78377 81 122 101
0.768099 -0.388436 1.68731 160 213 203
0.887918 -0.368789 1.67906 170 220 210
0.501934 -0.196002 1.73858 96 146 136
-0.640535 -0.175869 1.8634 106 162 143
-0.033673 -0.138426 1.80035 55 109 86
0.00891518 -0.0979682 1.79741 93 154 128
-0.412559 -0.0450285 1.84806 89 164 126
