ply
format ascii 1.0
element vertex 1280
property float x
property float y
property float z
property uchar blue
property uchar green
property uchar red
end_header
-0.150435 0.673363 4.33588 74 128 111
-0.112207 0.693098 4.34313 86 144 126
-0.212134 0.703203 4.37041 90 138 114
1.92975 0.685277 4.2066 180 226 214
-0.437058 0.722858 4.39002 89 123 113
-0.273602 0.724636 4.36467 71 99 86
-0.176716 0.737487 4.37524 79 106 97
1.07976 0.725562 4.27941 103 153 149
0.297041 0.859805 4.36947 198 232 225
2.13758 0.868151 4.23609 177 221 215
0.0862225 0.997539 4.41782 163 190 194
0.332634 0.991694 4.38879 163 200 192
-0.0270394 1.00608 4.43321 135 168 153
-0.0727845 1.0196 4.42437 186 223 213
0.104609 1.02946 4.41705 226 249 245
0.332034 1.02867 4.40257 160 199 201
1.05259 1.0317 4.31952 78 122 129
0.145616 1.07003 4.43213 102 138 132
1.32907 1.09368 4.32452 75 118 109
-0.15427 1.14215 4.45361 98 142 135
0.124641 1.13825 4.44311 92 128 128
1.00897 1.13355 4.3618 95 126 129
0.993627 1.25793 4.39073 140 205 189
-2.4539 1.5072 4.69073 187 226 224
-0.944327 1.4822 4.58208 94 144 134
2.21993 -1.56281 3.76782 123 188 143
-2.27848 -1.83481 4.44492 120 174 169
-1.10137 -1.73108 4.25712 95 164 137
-1.55099 -1.74453 4.32212 74 142 119
2.19593 -1.514 3.7824 122 192 155
0.670105 -1.60005 4.01004 162 220 179
-0.722817 -1.67489 4.21402 75 117 116
-1.19945 -1.69382 4.27708 62 103 76
2.1495 -1.50462 3.79151 143 200 162
2.17274 -1.498 3.78593 134 191 170
2.14358 -1.49834 3.78977 82 107 93
-1.70367 -1.70781 4.33574 86 128 110
-1.68759 -1.69862 4.33979 89 140 126
2.09815 -1.49134 3.8148 98 143 124
-1.04999 -1.64563 4.25281 104 161 146
0.643611 -1.55563 4.01474 98 153 138
-0.641057 -1.62268 4.19805 67 119 109
2.25521 -1.45531 3.76407 82 119 111
2.08459 -1.46774 3.81964 66 84 77
0.155019 -1.56928 4.09183 98 150 140
0.0999695 -1.5647 4.10361 80 137 122
-1.81187 -1.62363 4.29543 121 170 148
0.495684 -1.53238 4.0448 78 117 102
2.32695 -1.42086 3.7631 78 104 128
-1.78328 -1.6251 4.3089 100 143 128
-0.539417 -1.55864 4.17612 84 144 136
0.695993 -1.49849 4.01479 98 134 120
-0.641382 -1.56333 4.20173 75 137 131
-0.405954 -1.54816 4.16564 71 119 101
-0.482167 -1.55376 4.19128 102 137 127
-1.49471 -1.59622 4.31985 70 123 103
-0.302421 -1.53783 4.1596 76 141 125
1.15067 -1.46512 3.96091 80 114 103
-0.800074 -1.55533 4.21469 70 132 120
-1.27958 -1.58002 4.2892 75 127 110
-1.90843 -1.59875 4.36052 69 101 84
-1.74899 -1.5798 4.32221 67 112 96
-1.05367 -1.54316 4.25494 90 129 107
-0.656682 -1.52377 4.20087 77 128 114
-1.66019 -1.56684 4.333 150 222 199
-1.77013 -1.5676 4.33749 59 107 95
-1.66053 -1.56195 4.32925 141 198 173
-0.470398 -1.49615 4.16787 167 244 217
1.17677 -1.42194 3.95734 84 128 122
0.500806 -1.45067 4.04466 78 123 106
1.21496 -1.40411 3.95199 84 115 118
1.17789 -1.39189 3.95856 192 229 233
-0.493942 -1.46479 4.18599 75 160 128
-0.584681 -1.43336 4.19862 97 151 128
-1.8024 -1.42229 4.19173 61 101 90
-2.35362 -1.49629 4.42025 150 201 193
-0.422486 -1.4115 4.17888 82 118 102
-0.576034 -1.41266 4.18519 144 236 207
-1.62025 -1.4501 4.32734 106 184 137
-0.742813 -1.40934 4.20413 91 152 124
0.19359 -1.37309 4.09389 86 145 125
-1.76513 -1.38929 4.19105 70 106 90
-1.72746 -1.38286 4.19395 65 108 95
-0.871689 -1.39123 4.21574 150 226 185
-0.585332 -1.38418 4.19351 165 239 203
-0.982733 -1.38206 4.25148 65 124 104
-0.81783 -1.36973 4.21827 48 115 76
-1.75282 -1.3594 4.19633 134 191 170
-0.810271 -1.35729 4.21679 64 104 76
-2.12667 -1.41731 4.40468 143 191 185
-2.44384 -1.4198 4.44661 81 102 94
-0.473675 -1.33743 4.18039 72 148 117
-0.580237 -1.33948 4.19867 87 164 136
0.189473 -1.30659 4.0952 82 142 124
0.53769 -1.29142 4.05446 91 143 126
-0.839133 -1.34243 4.22229 142 228 188
-1.82341 -1.29074 4.12728 140 193 179
0.268881 -1.27856 4.08617 74 137 117
-0.738501 -1.31379 4.20768 68 138 107
-1.07172 -1.32813 4.26576 96 152 129
-1.02872 -1.31832 4.24996 94 171 134
-0.453242 -1.29168 4.18228 90 151 131
-1.62272 -1.32378 4.30744 100 150 132
-0.82649 -1.29987 4.2311 91 145 115
-1.0472 -1.30534 4.25439 171 227 204
-0.574434 -1.27957 4.17986 154 244 209
-1.78909 -1.27359 4.17618 49 104 87
-0.567093 -1.27077 4.19122 83 147 128
-0.507489 -1.25625 4.18318 81 139 115
0.131408 -1.22022 4.10499 69 113 96
-1.39694 -1.27042 4.28947 159 242 197
-1.01726 -1.25894 4.25308 81 131 113
0.557146 -1.19785 4.05951 81 148 119
-1.4798 -1.26971 4.31105 73 121 95
0.501646 -1.19632 4.06545 94 159 133
-1.52152 -1.25982 4.30766 97 171 137
-0.439552 -1.21806 4.17985 75 140 118
-1.37039 -1.24806 4.29544 160 242 200
-0.722877 -1.21782 4.19844 144 217 195
-1.27216 -1.23372 4.28069 93 150 117
-1.27104 -1.23399 4.28647 85 149 120
-1.53814 -1.2362 4.30957 45 89 66
-0.68055 -1.20717 4.20245 148 226 203
-1.55016 -1.23559 4.32213 83 140 115
-1.48968 -1.2239 4.29731 66 124 89
-0.171822 -1.17992 4.15142 80 145 130
-0.758474 -1.19772 4.22416 91 128 102
-0.702597 -1.1877 4.2034 72 131 100
-0.719773 -1.18389 4.22567 76 112 95
-1.17604 -1.18802 4.27701 77 151 109
-1.9298 -1.1373 4.20977 55 91 79
-0.809737 -1.14034 4.22469 81 145 109
2.09505 -1.04015 3.87518 82 118 102
0.549577 -1.08474 4.06506 68 124 103
2.27871 -1.0235 3.84438 101 154 141
-1.39376 -1.13675 4.29066 72 121 101
0.583084 -1.07549 4.06437 91 149 125
-0.89307 -1.10322 4.23214 158 223 191
1.59284 -1.02205 3.94164 69 133 121
1.64517 -1.01872 3.93656 92 149 140
-1.91082 -1.06307 4.18075 47 88 73
1.57378 -1.0033 3.95788 81 137 126
-1.8641 -1.04336 4.16525 61 103 96
-0.940113 -1.05472 4.24996 68 125 100
-0.853241 -1.04407 4.23637 68 147 120
-1.85303 -1.02029 4.17355 124 190 155
-1.8526 -1.0099 4.17107 49 74 64
2.02766 -0.935941 3.89491 171 222 214
-0.884204 -1.0116 4.23306 147 224 187
-0.939575 -0.995256 4.24024 152 232 201
-2.40585 -1.03431 4.4235 82 116 105
-0.807056 -0.984131 4.21905 76 129 102
-1.61581 -0.925791 4.03418 106 116 110
1.60412 -0.900755 3.95243 67 119 102
-1.95362 -0.954121 4.21376 60 71 61
1.70232 -0.893639 3.94045 83 130 121
1.90601 -0.871188 3.91743 77 140 124
-0.0586195 -0.918716 4.13801 90 129 107
-2.00566 -0.933958 4.2308 69 79 66
-0.794018 -0.926431 4.20949 77 139 115
1.57545 -0.869032 3.96286 105 154 152
-0.981061 -0.840128 3.85421 163 238 216
-1.84548 -0.907425 4.18906 136 186 176
-0.971617 -0.832947 3.84714 155 216 188
-0.0803894 -0.886892 4.14798 114 147 120
-1.96514 -0.901239 4.23092 111 153 136
-0.976486 -0.818495 3.87012 144 229 214
-0.972815 -0.816765 3.87344 150 229 215
-0.112978 -0.874442 4.14422 88 148 124
-0.11158 -0.87435 4.14634 90 137 115
-2.45848 -0.923791 4.44467 83 115 104
-1.04472 -0.806397 3.881 122 189 150
-0.0695945 -0.8501 4.14693 103 130 110
0.897919 -0.825243 4.04313 94 144 132
0.526446 -0.817376 4.0769 91 153 135
2.21485 -0.772132 3.89113 71 138 123
-2.40623 -0.876225 4.41994 154 221 192
-0.0832597 -0.814224 4.15041 123 149 131
-0.195291 -0.808357 4.15911 76 147 137
0.538734 -0.761302 4.07448 53 81 68
-0.000294541 -0.774445 4.14479 131 174 159
0.57323 -0.751825 4.06119 125 153 164
-1.66183 -0.781486 4.34188 119 174 159
-1.36568 -0.765232 4.30463 123 185 161
-2.05052 -0.767947 4.34607 74 135 121
-0.153932 -0.738112 4.15997 113 154 133
0.568123 -0.720997 4.07131 74 123 101
-1.78176 -0.768879 4.35629 108 148 137
-0.178752 -0.734915 4.17594 67 119 101
-0.170193 -0.727795 4.1603 114 172 148
-1.3798 -0.750563 4.30837 123 157 140
-1.4014 -0.746498 4.3024 93 134 119
0.584363 -0.703885 4.07523 63 111 93
-2.0591 -0.747836 4.40556 78 140 124
-0.1732 -0.707338 4.15828 115 182 151
-0.094172 -0.706426 4.16014 126 178 178
-1.84735 -0.72526 4.36239 172 209 217
-0.108989 -0.69089 4.17469 60 116 121
-1.45729 -0.713255 4.31933 164 219 200
-1.43338 -0.704182 4.31634 169 217 223
-1.39716 -0.706577 4.32096 99 157 133
-1.47064 -0.7017 4.32366 141 206 181
-1.55506 -0.699946 4.33075 143 154 152
-1.48824 -0.6947 4.32151 63 79 61
-1.46894 -0.689695 4.32931 68 98 79
-0.75748 -0.659109 4.23463 96 122 106
-1.5565 -0.664489 4.34033 79 119 114
1.66482 -0.611032 3.98397 85 136 129
-1.63478 -0.663096 4.34292 141 175 164
-1.79332 -0.663653 4.36757 150 205 202
-1.56568 -0.659896 4.3389 163 219 214
-1.68092 -0.65904 4.34393 127 139 141
-1.52013 -0.652126 4.3389 90 143 129
-1.58527 -0.633626 4.32199 148 169 171
-1.65295 -0.627848 4.3427 131 146 149
-1.68251 -0.623776 4.34527 145 197 187
-0.601418 -0.598194 4.21685 110 172 142
-1.70842 -0.613603 4.36104 179 226 234
-0.654996 -0.596897 4.22769 100 155 128
-0.790614 -0.592313 4.24726 124 163 137
-0.473435 -0.588207 4.20937 56 115 84
-1.74034 -0.60672 4.36802 158 199 194
-1.71558 -0.6071 4.36912 124 162 167
-0.741108 -0.58981 4.24701 98 132 108
-1.79414 -0.606986 4.40156 95 114 105
-1.13055 -0.595477 4.30126 136 199 167
-1.13981 -0.569248 4.28246 113 176 160
-1.1379 -0.569381 4.28088 125 183 165
-1.15751 -0.564767 4.29234 87 131 118
-0.963832 -0.558383 4.26827 130 196 167
-0.765725 -0.55812 4.25384 94 135 108
-0.984751 -0.554443 4.27999 70 112 95
-1.02929 -0.549085 4.27706 90 131 116
-1.02327 -0.535124 4.2765 73 123 105
-1.15232 -0.530996 4.2909 118 148 135
-1.08565 -0.525127 4.28875 126 162 156
2.12414 -0.483557 3.94626 166 216 206
-1.24042 -0.524804 4.30198 71 120 104
-1.17762 -0.524511 4.29786 124 195 178
-1.04426 -0.521467 4.28249 63 100 84
-1.27606 -0.509009 4.30649 61 105 92
-0.987494 -0.506372 4.27902 74 151 130
-2.26741 -0.515169 4.41095 59 163 116
-1.52342 -0.50827 4.35252 140 200 182
-1.3852 -0.494133 4.32883 119 142 128
-1.31343 -0.48787 4.317 112 151 130
-1.07714 -0.48699 4.29264 81 121 109
-1.33894 -0.481712 4.31716 128 161 147
-1.53231 -0.483674 4.35141 143 208 187
-1.34339 -0.47858 4.34281 62 98 82
-0.888809 -0.466679 4.25592 92 130 102
-0.810696 -0.434784 4.25625 63 97 73
-0.812187 -0.43339 4.26669 67 106 85
1.21995 -0.408635 4.05162 95 147 137
-2.33756 -0.419152 4.4131 68 112 95
-2.34466 -0.413475 4.40622 118 196 159
-2.34134 -0.397269 4.42472 85 125 100
-2.14085 -0.391041 4.41828 96 128 133
-0.894128 -0.352131 4.2684 78 112 82
-0.769729 -0.325812 4.27067 139 196 187
0.622549 -0.309357 4.13445 93 119 113
-0.949081 -0.31652 4.28018 135 208 176
0.640521 -0.303487 4.12416 193 210 201
0.513934 -0.279117 4.14098 80 119 111
0.458511 -0.277276 4.14791 171 228 220
-2.1455 -0.292058 4.41337 111 117 130
0.660631 -0.246423 4.12644 129 182 172
0.52941 -0.236122 4.14472 143 200 192
0.485834 -0.234017 4.15886 159 219 235
-0.858615 -0.229184 4.28415 210 255 236
0.64655 -0.215831 4.13055 124 176 166
1.53418 -0.206053 4.04487 203 235 240
0.464632 -0.201819 4.1601 71 108 106
0.498668 -0.199174 4.15796 147 199 205
0.570053 -0.199168 4.1537 131 179 173
0.595184 -0.197432 4.14246 127 153 140
0.655971 -0.19016 4.13984 117 153 131
0.537467 -0.188199 4.15967 63 96 99
0.604436 -0.182927 4.14638 105 146 139
0.540938 -0.178681 4.16335 139 187 188
0.462843 -0.17748 4.16118 70 97 94
1.4204 -0.155441 4.07074 67 116 100
-2.24151 -0.16342 4.44024 77 125 107
-0.845753 -0.142867 4.29447 192 231 223
0.722703 -0.120179 4.13498 120 162 151
0.748896 -0.117143 4.1366 70 96 82
0.699788 -0.107482 4.14278 153 217 195
-1.00813 -0.109189 4.29597 78 145 114
0.75315 -0.100076 4.13837 128 180 163
-0.749685 -0.0990649 4.27905 71 136 114
0.690359 -0.0943302 4.15009 65 99 82
-0.925977 -0.0947147 4.27683 255 255 254
0.772159 -0.0930994 4.14263 131 186 167
0.806508 -0.0929925 4.136 151 196 177
0.262842 -0.0864412 4.18887 255 255 255
0.60132 -0.0812591 4.16813 124 161 151
-1.12575 -0.0824862 4.31561 100 161 141
0.244916 -0.0772734 4.20154 251 255 255
-0.75485 -0.0787422 4.28069 70 150 133
0.842676 -0.0718843 4.13832 143 195 178
0.632165 -0.0729213 4.16602 114 152 140
-0.713737 -0.0656437 4.28147 92 151 137
0.680143 -0.0662182 4.15768 131 182 175
-0.906312 -0.0629982 4.28523 70 116 104
-0.514294 -0.0673507 4.26372 158 235 214
1.18574 -0.0587456 4.09994 73 129 108
-0.345417 -0.0454415 4.25026 94 164 158
0.877686 -0.0431005 4.13049 147 214 187
-0.324128 -0.02876 4.25559 246 255 255
-0.422324 -0.0150115 4.26715 74 134 124
0.229076 -0.00396142 4.21143 95 158 138
-0.397869 0.00357151 4.25242 143 193 216
-1.12077 0.00996364 4.31168 81 112 103
1.91514 0.0148631 4.05755 87 137 125
0.78053 0.0236585 4.1488 133 191 180
0.689081 0.0415172 4.17514 49 90 59
-1.0896 0.0592956 4.31633 94 142 136
-0.687756 0.063257 4.08857 143 178 228
0.634037 0.0824742 4.24693 167 206 185
0.6986 0.0862949 4.18942 29 50 41
0.153726 0.0876403 3.97183 165 190 216
0.0331114 0.105875 4.04258 211 248 255
0.738294 0.110989 4.17845 63 100 96
0.855914 0.154827 4.16443 108 135 125
-1.54699 0.165959 4.38555 69 131 117
0.879529 0.158965 4.15184 108 148 136
0.879435 0.160793 4.15851 99 139 128
-0.954518 0.161391 4.0599 177 228 255
-0.9559 0.17108 4.06923 71 102 147
-0.940151 0.17349 4.06797 41 66 128
-0.945739 0.1774 4.05998 189 232 255
-0.213016 0.179182 4.02969 129 175 223
1.15298 0.186945 4.15274 88 140 133
-0.886577 0.186037 4.06203 178 224 255
-0.816595 0.183741 4.05441 58 80 145
0.151773 0.18208 3.98136 195 207 213
-0.768329 0.188219 4.05363 60 78 139
-0.743103 0.196829 4.05271 196 235 255
-0.727086 0.197372 4.0454 180 223 255
-0.714137 0.199445 4.05254 180 220 255
0.861064 0.205255 4.17235 123 183 159
-1.14347 0.221587 4.34442 186 231 222
0.846216 0.214813 4.17988 149 211 193
-0.48819 0.211984 4.03386 52 73 134
-0.455924 0.213846 4.03198 49 76 133
-0.425693 0.2159 4.0287 57 78 133
-2.77092 0.246573 4.5363 91 144 130
-0.947585 0.231407 4.10633 56 90 150
-0.385057 0.226216 4.0284 163 205 255
-0.329955 0.225172 4.02332 55 66 124
-0.269401 0.229771 4.01989 64 78 131
-0.338154 0.230527 4.02513 175 209 255
0.00978597 0.232012 3.99583 122 167 211
-0.212634 0.245321 4.02127 165 207 255
-0.196939 0.248253 4.02216 175 215 255
-0.0385501 0.246006 4.00358 49 61 119
-0.0445647 0.251584 4.00323 197 228 255
0.120909 0.252081 3.9727 202 232 243
-0.013812 0.253365 4.00533 192 229 255
0.070828 0.254751 3.9981 55 72 123
0.032465 0.256981 3.99897 189 230 255
0.0480428 0.259515 4.00313 179 217 255
0.0639364 0.259801 3.99859 180 223 255
0.0804094 0.261188 3.98995 173 215 255
0.133099 0.262249 3.96875 165 174 178
0.213069 0.28193 4.24828 73 138 139
0.0790955 0.274196 3.97789 170 212 255
-0.145743 0.294885 4.05922 65 95 144
0.711743 0.307736 4.22263 83 140 132
-0.934127 0.304729 4.14688 64 97 153
0.783471 0.321611 4.21155 177 237 226
0.226536 0.331178 4.26033 107 146 155
-0.152521 0.317438 4.0629 192 226 255
-1.57169 0.372229 4.42382 97 157 147
0.659335 0.358379 4.23437 175 211 217
0.649408 0.368563 4.24434 170 213 202
-0.571393 0.370306 4.14881 62 115 182
-0.525204 0.373119 4.15296 62 104 163
-0.336439 0.372597 4.12947 36 68 143
-0.319667 0.388782 4.13739 85 92 141
0.632539 0.408065 4.25657 172 220 221
0.692239 0.405321 4.23659 109 140 131
-0.461888 0.397256 4.15254 46 81 147
-0.289973 0.397139 4.148 62 84 150
-0.39947 0.401706 4.15419 84 107 163
-0.296234 0.399423 4.14065 170 213 255
-0.220452 0.40205 4.13571 208 247 255
-0.165318 0.404527 4.12973 79 103 149
-0.20511 0.410504 4.13385 217 251 255
0.69004 0.420302 4.24459 88 117 121
0.44262 0.432295 4.27483 231 249 242
-0.134373 0.425164 4.14142 81 106 180
-0.112768 0.432635 4.13826 176 198 250
0.528077 0.454263 4.26886 184 221 217
-2.43241 0.486582 4.53063 184 225 228
0.0132017 0.443489 4.14218 184 224 255
0.80155 0.45949 4.22497 221 247 241
0.533899 0.4707 4.27119 185 232 229
0.684159 0.473612 4.25658 90 135 132
0.518766 0.489476 4.27566 170 230 222
-1.10383 0.506621 4.3951 70 101 92
-1.09481 0.509636 4.4055 152 203 195
-1.0331 0.509254 4.39469 133 186 159
-0.891171 0.521388 4.38321 132 186 173
1.09386 0.504447 4.22987 93 154 140
0.758609 0.509088 4.24622 171 229 224
-0.700381 0.529333 4.3622 64 95 88
0.323615 0.519391 4.29505 225 250 246
-0.7085 0.536573 4.36787 154 215 187
0.362737 0.524021 4.28895 228 245 241
0.837527 0.518154 4.24411 79 116 108
0.417573 0.528515 4.28925 201 222 223
-2.41741 0.564991 4.5362 183 215 221
1.86064 0.525154 4.1588 102 134 139
1.95764 0.533772 4.15945 109 137 148
-0.443322 0.558759 4.34003 179 243 208
-0.297008 0.584664 4.37866 66 87 78
-0.127857 0.574787 4.32819 154 225 198
1.47215 0.56947 4.20874 104 143 141
-0.377514 0.600103 4.3509 101 144 133
-0.452165 0.609161 4.35796 97 132 136
1.0215 0.597867 4.25573 74 121 118
1.03438 0.610479 4.25057 183 228 232
0.0222638 0.623535 4.32947 187 205 206
1.70613 0.616424 4.20347 168 221 208
-0.229071 0.641142 4.33402 220 235 238
-0.143152 0.650213 4.35141 187 221 215
0.299007 0.642192 4.32044 231 242 239
1.37373 0.633055 4.22921 99 131 137
1.99537 0.625894 4.18215 79 116 106
-0.229857 0.655552 4.34449 187 211 201
-0.266738 0.665061 4.36024 186 225 209
-0.140588 0.658778 4.33276 104 154 144
-0.0685676 0.665812 4.3478 70 101 94
1.23576 0.655419 4.25619 102 144 149
1.87887 0.649895 4.18264 172 213 198
0.198022 0.684761 4.33637 255 255 255
-2.41571 0.72094 4.55979 134 170 158
1.95471 0.661548 4.19284 95 145 133
2.07862 0.665879 4.18529 92 131 129
-0.178368 0.710375 4.36009 211 237 231
-0.437034 0.723481 4.3916 84 119 109
-0.291009 0.719577 4.37549 91 111 122
-0.273796 0.726985 4.3706 69 98 89
1.07827 0.72775 4.28626 108 156 150
1.04729 0.731969 4.29047 220 236 235
1.03899 0.736127 4.2853 144 171 167
-1.17776 0.77011 4.44136 87 151 132
0.241248 0.762091 4.364 143 187 181
-0.134296 0.765208 4.37541 63 117 94
0.278782 0.769326 4.34764 239 254 255
-0.155597 0.779469 4.37899 83 120 104
0.262779 0.772744 4.35008 65 91 91
0.197183 0.779519 4.36802 218 239 237
-0.0714755 0.801404 4.38959 124 160 154
0.87482 0.794246 4.31223 222 234 234
-2.10633 0.875762 4.55615 158 180 178
-2.06619 0.8746 4.54736 152 181 185
0.10076 0.84306 4.37082 180 230 230
0.123374 0.861249 4.38312 96 119 111
0.0749122 0.870275 4.38039 89 119 114
0.990377 0.856649 4.31831 219 239 240
1.6573 0.857703 4.27366 169 228 213
1.26093 0.867678 4.30273 101 146 157
1.40851 0.867606 4.28984 162 217 208
0.108655 0.889686 4.39368 80 112 101
0.0717432 0.890583 4.39084 75 113 115
0.169286 0.897757 4.39 123 172 156
1.66632 0.885635 4.27311 88 135 127
2.1669 0.890289 4.23318 93 141 129
-0.0636649 0.929139 4.40786 130 143 135
1.66698 0.90769 4.29053 108 158 154
1.72333 0.913975 4.28517 91 145 138
-0.0631503 0.965315 4.43108 78 94 93
-0.0279043 0.968217 4.42552 105 119 108
2.01006 0.940758 4.26754 87 108 110
2.06814 0.940877 4.26281 103 150 148
0.948277 0.965914 4.32707 110 126 142
1.77428 0.955212 4.28449 71 118 109
0.0276007 0.998589 4.42633 120 138 131
0.333186 0.990841 4.3876 153 195 188
0.125514 1.00189 4.40905 130 166 160
2.02501 0.980661 4.26958 83 132 124
0.0922766 1.03011 4.41589 197 226 233
-0.103274 1.05561 4.4338 167 208 203
0.134981 1.05629 4.43675 89 112 108
0.21322 1.05235 4.42163 155 208 198
1.05987 1.04233 4.34206 86 128 127
2.38106 1.0239 4.26246 107 139 134
-0.1094 1.07008 4.43115 143 183 178
0.227994 1.069 4.4197 168 215 212
-0.140934 1.07903 4.44256 130 152 147
0.0426494 1.08146 4.43755 69 110 112
-0.185792 1.08427 4.44231 172 209 207
0.173912 1.11013 4.4428 162 201 203
1.2849 1.08186 4.33091 97 137 136
0.108856 1.10711 4.43364 83 122 114
-0.0401908 1.1219 4.44845 110 137 141
-0.123479 1.12443 4.43462 123 160 156
0.0112045 1.12557 4.45026 151 170 173
0.125109 1.14181 4.45049 95 134 132
0.118123 1.1455 4.44029 183 224 226
0.0169075 1.1485 4.44421 154 195 198
-0.241207 1.16446 4.46243 117 133 126
-0.289662 1.16819 4.45865 123 156 142
-0.352094 1.20279 4.46856 233 253 255
-0.352163 1.20499 4.47301 236 253 255
-0.232173 1.2067 4.4643 78 118 107
-0.350091 1.2166 4.4823 236 255 255
1.64222 1.18282 4.34143 204 241 233
-0.232684 1.21751 4.46489 147 175 175
0.119912 1.28225 4.47382 151 191 196
1.92573 1.24163 4.33861 89 131 130
2.24202 1.24029 4.31959 108 136 143
-0.282723 1.31099 4.49757 89 127 121
-0.295334 1.31964 4.49428 158 213 210
-0.81314 1.34589 4.53662 94 141 149
-0.278365 1.38249 4.50328 98 131 127
0.171755 1.37731 4.47848 93 116 111
0.157049 1.38367 4.48071 217 234 230
1.20968 1.36899 4.42608 97 150 137
1.0609 1.38493 4.43844 213 250 246
-0.0542008 1.4005 4.48171 143 167 173
1.24812 1.38573 4.42006 88 145 124
-1.36293 1.44774 4.59588 68 132 110
0.0802812 1.42033 4.49808 214 241 251
1.32566 1.39396 4.41071 86 131 112
-0.0709651 1.44121 4.50453 83 122 107
1.05967 1.4182 4.4341 79 110 109
0.0731457 1.44723 4.5028 102 122 127
0.293982 1.47063 4.53987 125 184 170
-0.917206 1.50945 4.58718 77 133 120
-0.16993 1.48714 4.52088 151 177 183
-1.49545 -1.77494 4.31865 94 161 134
-1.10137 -1.73108 4.25712 95 164 137
2.22437 -1.53523 3.78062 132 189 164
-1.21933 -1.71448 4.26902 77 123 94
1.33241 -1.57713 3.92433 72 134 116
0.662161 -1.59411 4.00962 93 129 115
2.14906 -1.50458 3.79123 143 200 162
-1.20744 -1.69548 4.28712 72 107 81
-1.34809 -1.68071 4.29346 79 133 103
2.09486 -1.49063 3.80923 97 137 119
-0.641182 -1.62282 4.19899 67 119 109
-1.75274 -1.65407 4.32851 113 154 157
-1.74888 -1.65323 4.32314 119 155 161
2.08029 -1.45218 3.80198 98 131 117
-1.8129 -1.62401 4.29806 126 178 155
-1.60689 -1.64085 4.32237 98 145 123
-1.30489 -1.62217 4.2922 75 125 101
-0.426175 -1.57714 4.17636 75 116 101
-0.444223 -1.57715 4.17652 137 205 182
-0.640999 -1.56299 4.19921 71 135 129
-1.25002 -1.58909 4.28483 71 131 113
-1.16845 -1.57924 4.26264 66 103 77
-1.48221 -1.57453 4.32376 98 159 139
-0.515436 -1.52227 4.17526 88 131 110
-0.656765 -1.52353 4.19891 91 141 123
2.19005 -1.38286 3.8096 117 133 140
-1.95092 -1.56186 4.37647 81 132 112
-2.72513 -1.60044 4.50562 149 199 195
-1.78308 -1.54571 4.35385 72 106 99
-1.66491 -1.50035 4.33625 82 145 119
-1.81641 -1.42944 4.17884 66 105 90
-2.354 -1.4963 4.42026 150 201 193
0.629523 -1.35822 4.05072 106 165 144
-1.78411 -1.39682 4.18046 70 115 98
-2.6727 -1.46797 4.48621 146 187 172
-0.601264 -1.36245 4.191 64 144 115
-0.930105 -1.36125 4.22407 89 137 108
-0.473905 -1.33751 4.18135 72 148 117
-2.44366 -1.41976 4.44625 81 102 94
-1.7727 -1.32695 4.1632 34 52 45
0.1885 -1.30653 4.09411 71 128 113
-0.935356 -1.31403 4.24722 85 143 118
-1.82193 -1.27623 4.13903 41 63 58
0.102206 -1.2654 4.10387 103 166 140
-2.55136 -1.36934 4.46757 93 132 146
-1.07061 -1.30105 4.25491 78 111 90
-0.559927 -1.2766 4.18949 80 129 97
-0.752818 -1.26853 4.20769 142 225 193
-1.80987 -1.25045 4.16186 43 82 61
-1.5144 -1.30065 4.32048 94 137 116
-1.86397 -1.24862 4.16598 46 56 50
-1.84984 -1.23023 4.14991 119 171 153
-1.01787 -1.25911 4.25586 85 134 118
-1.40601 -1.26439 4.29355 78 120 102
0.219792 -1.19657 4.09289 89 133 116
-0.269473 -1.21306 4.17056 85 136 122
-0.721557 -1.218 4.20256 159 231 208
0.127198 -1.1807 4.10437 98 152 135
-1.46677 -1.22473 4.29409 74 125 91
-0.757798 -1.19772 4.22427 88 123 97
-1.5337 -1.21626 4.30907 65 118 79
-1.97105 -1.1912 4.22936 132 167 153
-1.94427 -1.18452 4.2345 102 144 126
-1.88445 -1.17328 4.20744 116 171 154
-0.685989 -1.13827 4.20229 63 113 83
-0.809858 -1.14038 4.22596 76 144 109
-1.99343 -1.12026 4.20863 122 163 148
-0.69129 -1.11484 4.21098 77 129 111
-0.950935 -1.11921 4.2426 85 142 109
-0.776957 -1.11032 4.22567 76 149 123
-1.91298 -1.06315 4.18607 47 88 73
2.13041 -0.987082 3.86305 174 219 210
1.59068 -1.00167 3.94065 185 226 221
-1.88918 -1.05548 4.17794 75 125 115
-1.84364 -1.05352 4.18165 131 184 164
-0.784047 -1.04661 4.21978 65 131 102
-1.80964 -0.99787 4.16787 107 154 132
-1.94132 -0.981923 4.19348 103 148 131
-1.75498 -0.968855 4.12925 120 159 133
-0.788431 -0.991827 4.21664 31 81 51
2.02546 -0.916956 3.88401 197 232 228
-2.40258 -1.03427 4.41783 85 119 108
-1.96046 -0.978991 4.19672 94 122 99
0.309728 -0.948219 4.09623 227 255 255
-2.0114 -0.933859 4.23906 67 70 55
-1.95487 -0.925339 4.22955 50 61 51
-0.83648 -0.925084 4.22506 165 241 217
-0.825731 -0.92744 4.23335 52 117 95
1.5741 -0.86915 3.95918 98 148 144
0.898183 -0.825188 4.04443 94 144 132
-2.25065 -0.907748 4.45225 99 129 124
-2.45433 -0.89552 4.44502 82 132 114
2.21246 -0.771946 3.8937 65 132 117
0.022655 -0.8097 4.13715 50 80 55
-2.11151 -0.81486 4.39818 139 195 182
-0.184146 -0.771854 4.15891 68 120 96
-0.174908 -0.76166 4.14838 113 184 157
1.64228 -0.727702 3.98134 142 172 167
0.547524 -0.738399 4.05622 53 61 51
-1.75861 -0.768551 4.34751 94 123 114
-2.07148 -0.765826 4.38644 128 195 180
-0.187043 -0.724564 4.16893 129 216 183
0.583446 -0.704093 4.07252 67 113 91
-0.179422 -0.715949 4.17519 85 137 114
-0.0777796 -0.713683 4.15344 66 95 86
-0.0940322 -0.706721 4.15594 115 165 163
-1.4423 -0.72644 4.31703 71 76 67
-1.38723 -0.728103 4.31243 114 159 142
-1.85037 -0.724763 4.37021 179 214 227
-1.36261 -0.716782 4.30585 114 147 132
-1.94216 -0.715989 4.38767 146 203 194
-1.81214 -0.70533 4.36002 177 222 226
-1.48826 -0.692952 4.3126 67 80 64
-1.91158 -0.688982 4.35138 99 127 128
-1.46746 -0.680312 4.31138 70 115 89
1.66148 -0.610982 3.97957 84 134 130
-1.67819 -0.660828 4.35308 155 167 171
-1.42145 -0.649698 4.31233 163 200 196
1.72399 -0.592027 3.97533 74 124 114
-1.62577 -0.639241 4.34119 164 195 198
-0.744922 -0.613166 4.23691 98 145 129
-2.30557 -0.634464 4.42449 83 136 116
-0.459771 -0.604425 4.20961 62 99 79
-1.75438 -0.619256 4.37299 155 201 209
-1.59103 -0.614383 4.34038 147 204 196
-1.73974 -0.607145 4.36351 154 199 196
-1.75524 -0.606674 4.37351 153 186 189
-1.79492 -0.586756 4.40509 94 118 116
-1.13912 -0.569241 4.28242 113 176 160
-0.87307 -0.551704 4.25575 105 139 129
-1.15562 -0.544179 4.28774 46 73 53
-1.06701 -0.545734 4.2748 120 173 159
-0.844604 -0.539744 4.24785 95 140 131
-1.18011 -0.537238 4.29658 69 112 99
-1.02391 -0.534801 4.27945 83 135 117
-1.44161 -0.530387 4.32853 112 132 120
-1.16024 -0.516704 4.29174 81 106 92
-1.47969 -0.518284 4.32574 114 152 134
-1.06656 -0.510108 4.28446 58 86 67
-1.52389 -0.50828 4.3525 149 211 193
-2.26787 -0.457025 4.43544 181 234 255
-1.45202 -0.442447 4.33955 90 120 107
-0.815419 -0.433986 4.24842 65 99 75
-1.40352 -0.43944 4.30943 86 106 93
-0.761001 -0.430203 4.24951 118 178 154
-0.751441 -0.404646 4.25109 152 232 209
2.0429 -0.369559 3.97848 187 228 223
-2.39265 -0.383343 4.43658 84 123 101
1.22428 -0.35086 4.05349 84 131 122
-0.927072 -0.350188 4.26789 52 113 75
0.681334 -0.327586 4.10446 81 112 97
0.621802 -0.310833 4.12553 48 68 63
0.655705 -0.297357 4.09979 63 80 67
0.461733 -0.294322 4.1468 138 193 196
-2.14937 -0.29086 4.42087 107 115 128
-2.21762 -0.263218 4.42951 82 107 93
-2.19476 -0.256445 4.42657 82 136 106
0.665611 -0.228994 4.12729 110 162 152
0.664201 -0.228329 4.13109 106 166 155
0.544163 -0.216984 4.14955 74 91 80
0.644667 -0.215007 4.13159 142 198 187
1.54176 -0.204799 4.05623 212 239 243
0.526617 -0.204965 4.14628 145 193 197
0.476727 -0.182144 4.16245 154 203 219
0.598655 -0.17925 4.14862 122 165 154
0.463076 -0.17732 4.16198 70 95 91
-0.888199 -0.161339 4.2913 106 193 165
0.664771 -0.154184 4.14135 89 134 115
-2.23958 -0.166098 4.43256 82 127 108
-0.615036 -0.135783 4.2649 81 140 125
0.764478 -0.128939 4.13185 61 103 86
0.596971 -0.120336 4.15528 138 195 187
0.605214 -0.111399 4.16131 62 104 93
0.69859 -0.110648 4.12794 129 194 173
0.785804 -0.104539 4.14796 146 196 186
0.753514 -0.0994441 4.1413 122 171 155
0.580914 -0.0979138 4.16137 55 98 89
0.692407 -0.0958691 4.1561 68 102 85
-1.76998 -0.086579 4.40242 114 166 159
-1.12517 -0.0827802 4.31421 103 164 144
0.567541 -0.0787061 4.17695 72 108 102
0.597022 -0.0726897 4.16418 72 112 101
-0.714731 -0.0663602 4.27227 107 164 155
-0.904411 -0.0648334 4.27683 65 106 98
1.18441 -0.0597407 4.09914 76 128 104
-0.345417 -0.0454413 4.25026 94 164 158
0.626586 -0.036393 4.1695 69 81 75
-0.635197 -0.0307704 4.26879 255 255 254
-0.364357 -0.0326251 4.25199 75 144 131
0.571268 -0.01548 4.17969 56 101 82
0.773691 0.0301166 4.14656 70 107 97
0.606351 0.0513512 4.22994 96 99 127
-0.19437 0.142873 4.03966 146 184 218
-0.94596 0.182498 4.06345 195 240 255
-0.784292 0.185978 4.05288 75 85 145
0.879672 0.189543 4.16142 141 192 178
-0.745024 0.198679 4.05903 169 218 255
1.12224 0.222774 4.15584 100 155 146
-0.494193 0.220596 4.03157 190 227 255
-0.27173 0.228766 4.01624 58 76 137
-0.383328 0.23015 4.02429 187 229 255
-0.258496 0.24227 4.01206 189 226 255
-0.228157 0.245711 4.02695 151 200 255
-0.0742715 0.254002 4.01461 178 217 255
0.121074 0.251678 3.97141 210 236 248
0.0635818 0.26089 4.00208 178 222 255
0.211339 0.281433 4.24956 76 136 142
-0.145064 0.291909 4.05294 66 89 137
0.226293 0.331869 4.26256 125 164 173
0.676861 0.342531 4.2304 187 219 225
2.27088 0.352026 4.08643 182 215 218
0.636811 0.370751 4.24642 120 160 172
-0.249475 0.364584 4.10895 197 236 255
-0.336713 0.372954 4.1285 39 70 145
0.659067 0.383301 4.24007 172 219 217
-0.596851 0.382185 4.16995 210 248 255
-0.462477 0.395547 4.14752 78 117 179
0.205797 0.427712 4.28303 109 162 153
-1.10481 0.507944 4.39896 83 124 117
0.455417 0.500619 4.27299 217 232 235
1.47671 0.497736 4.18667 86 114 115
0.439539 0.519327 4.28751 119 208 168
-2.41835 0.565644 4.53809 183 215 221
1.83559 0.514385 4.14477 101 139 144
-0.570204 0.548396 4.34456 186 231 245
1.85507 0.523455 4.15387 97 130 133
-0.296946 0.568757 4.34504 158 178 183
2.30451 0.543767 4.1248 110 138 149
2.42548 0.542812 4.1189 101 122 137
-0.213496 0.583317 4.35171 162 201 186
1.19293 0.589102 4.24447 206 232 239
1.78544 0.582037 4.17652 85 102 105
-0.139209 0.615189 4.33201 201 206 207
1.03605 0.6127 4.25642 186 228 233
-0.271216 0.635718 4.34934 65 88 80
0.238943 0.631264 4.3232 111 155 148
0.254388 0.634904 4.32095 231 252 253
0.0203318 0.641614 4.33924 207 221 227
-0.225941 0.645913 4.34233 223 242 239
-0.142024 0.650872 4.35309 192 223 216
-0.0819929 0.64481 4.33341 83 81 81
-0.0920076 0.652726 4.3451 220 229 232
-0.06819 0.668417 4.35458 79 107 101
1.66543 0.650347 4.21785 215 248 251
0.199047 0.685534 4.33831 255 255 255
1.95071 0.660687 4.19285 91 143 133
2.07165 0.66178 4.17902 99 138 136
2.13417 0.665049 4.17936 92 143 136
2.33619 0.684246 4.28593 103 137 131
1.92816 0.674229 4.18483 121 149 156
1.94139 0.685083 4.21194 110 125 128
0.310111 0.714692 4.33886 85 116 113
0.163294 0.723574 4.34274 255 255 254
1.09027 0.719552 4.27081 204 244 249
0.209377 0.753101 4.35812 163 217 212
-2.30588 0.793115 4.55063 161 211 211
2.344 0.7265 4.18912 244 255 255
0.241444 0.762033 4.36384 143 187 181
0.280583 0.768282 4.34285 236 249 251
-0.157719 0.780728 4.38217 100 137 121
0.198158 0.782743 4.36747 236 240 241
-0.0602395 0.792703 4.37418 223 236 250
0.00592937 0.795503 4.37624 144 149 158
-0.186083 0.81236 4.39589 99 119 130
-0.170274 0.820159 4.38938 250 255 253
0.147088 0.825351 4.36014 255 255 254
-0.198123 0.839201 4.4005 226 238 244
1.45479 0.845615 4.27872 68 128 117
1.71675 0.850251 4.26733 88 133 117
2.16893 0.892245 4.23757 87 137 125
1.97099 0.910746 4.26757 75 114 99
0.0429442 0.966882 4.42513 79 97 90
2.25111 0.935143 4.25735 105 143 137
2.00988 0.941149 4.26842 87 108 110
2.15066 0.938472 4.26069 96 144 138
-1.00426 0.99078 4.46334 73 122 120
0.325812 0.986956 4.3852 158 211 202
0.0996801 0.995921 4.41426 184 211 225
1.60246 0.984356 4.29093 200 240 239
0.171122 1.01601 4.40968 73 79 68
0.107563 1.02948 4.41682 232 255 251
-0.146847 1.04592 4.47049 78 99 91
0.133375 1.05026 4.42379 86 104 97
0.108307 1.06701 4.44142 105 143 143
-0.179749 1.07388 4.44482 70 103 89
-0.09224 1.07147 4.41955 80 105 95
0.227337 1.06702 4.41548 167 214 212
0.0539775 1.08577 4.44554 232 238 237
-0.169601 1.0834 4.43246 91 105 99
-0.0723376 1.09395 4.43172 99 120 112
0.121247 1.08859 4.42562 81 118 110
0.149529 1.10258 4.43067 163 202 204
1.28414 1.08131 4.32977 100 142 141
1.70084 1.07553 4.30351 98 142 141
-0.0158477 1.11636 4.44239 139 173 179
0.15959 1.11153 4.42554 83 99 92
0.0111949 1.12455 4.44813 151 170 173
0.141999 1.12292 4.44097 84 97 95
-0.0204869 1.13389 4.45042 81 93 93
0.0100317 1.13705 4.43989 105 107 115
-0.152844 1.13742 4.44371 100 144 138
-0.119136 1.1421 4.44256 111 143 142
-0.281844 1.15141 4.45473 85 105 92
-0.195133 1.15032 4.45327 91 121 110
1.67775 1.12334 4.31832 108 139 140
-0.241444 1.1644 4.4623 117 133 126
-0.199063 1.17046 4.46466 132 178 179
1.71214 1.13136 4.31884 87 124 120
-0.0114303 1.18008 4.46661 184 228 229
2.0901 1.14229 4.30751 209 240 243
-0.350551 1.2108 4.47772 244 255 255
1.64074 1.18138 4.33859 203 237 230
0.115897 1.26042 4.47015 127 148 150
0.0829515 1.26536 4.47714 126 170 171
-0.150067 1.27408 4.45559 79 96 87
2.24178 1.24014 4.31932 108 136 143
0.0252941 1.28628 4.47341 128 139 147
-0.282721 1.30196 4.48003 81 110 101
-0.105943 1.29515 4.45749 81 114 107
-0.171384 1.32363 4.47235 154 203 195
-0.318247 1.3361 4.50191 89 115 101
0.216061 1.32918 4.47047 69 86 83
0.961201 1.31765 4.41398 250 254 255
-1.84647 1.38935 4.60343 79 137 119
-0.277721 1.36622 4.51628 165 212 209
-0.381167 1.36397 4.49771 92 123 120
1.02908 1.34475 4.41573 81 132 125
-1.50216 1.4336 4.59285 107 159 141
-0.1569 1.40766 4.4978 166 206 218
0.113456 1.41009 4.49949 84 95 87
0.131145 1.41209 4.50289 168 209 212
-0.181057 1.41734 4.50658 72 114 97
0.0802638 1.42145 4.50017 214 241 251
0.0727564 1.44888 4.50584 105 121 127
-0.918195 1.51138 4.59072 88 141 132
0.0797917 -1.64892 4.10417 201 234 230
-1.78229 -1.64672 4.29906 84 116 105
2.15734 -1.45359 3.79305 95 106 103
-1.75231 -1.6535 4.32462 102 139 137
-1.81791 -1.61733 4.28538 80 111 96
-2.28308 -1.6563 4.42905 86 136 126
-1.5741 -1.60318 4.3264 94 138 121
-0.476931 -1.54893 4.17044 94 124 119
-1.16972 -1.57931 4.26694 69 98 75
-0.410308 -1.54658 4.17083 87 127 116
1.03243 -1.46861 3.96937 91 134 113
1.2199 -1.43848 3.95397 84 127 114
-1.95847 -1.58808 4.38956 147 197 193
-1.7699 -1.56734 4.3197 57 103 80
2.19353 -1.38343 3.81531 123 141 148
2.05296 -1.37141 3.83791 163 214 186
2.25444 -1.34704 3.78892 100 119 127
-1.71033 -1.52657 4.33901 84 152 117
-0.404829 -1.45273 4.15218 88 134 121
1.8851 -1.33925 3.8723 84 151 122
-0.413268 -1.4321 4.17313 89 137 131
0.647209 -1.38879 4.02692 76 124 112
-2.63507 -1.44894 4.46883 68 74 55
-0.853846 -1.36618 4.21793 76 130 95
-0.910548 -1.33713 4.23135 74 142 111
-2.64142 -1.40804 4.4841 97 106 93
-0.474599 -1.30724 4.18383 157 224 195
-0.487769 -1.29897 4.19035 83 142 111
-1.77619 -1.29667 4.18876 150 212 194
0.189472 -1.26577 4.09446 94 143 121
-1.66731 -1.32132 4.30818 55 100 81
0.262428 -1.26139 4.09401 94 145 131
-1.78742 -1.27213 4.16709 49 102 88
-2.5903 -1.36126 4.48734 90 127 111
-1.7955 -1.25628 4.18379 118 191 169
0.13188 -1.2197 4.10386 69 113 96
-1.52483 -1.25578 4.29077 36 113 79
-0.495166 -1.20946 4.19382 85 153 128
-1.88535 -1.18874 4.21003 19 30 22
-1.91238 -1.17569 4.20566 35 40 31
-0.724407 -1.18122 4.22121 59 95 78
-1.89045 -1.17371 4.2175 115 160 143
-1.88799 -1.1737 4.21823 121 170 154
-1.58656 -1.19354 4.30729 58 111 91
-1.92717 -1.13686 4.20219 50 81 66
-1.96252 -1.12989 4.20156 157 210 200
-1.88689 -1.04677 4.14943 145 214 181
1.84222 -0.961536 3.9096 103 137 131
-1.85545 -1.00992 4.17687 47 76 67
1.58295 -0.95249 3.95109 202 227 231
-1.8028 -0.992735 4.16602 111 156 117
-0.810007 -0.993718 4.20767 162 245 206
-1.94585 -0.985489 4.19391 94 139 123
2.0403 -0.912267 3.89354 183 234 220
-1.95944 -0.953614 4.21498 44 53 43
-1.89408 -0.93363 4.18594 148 192 185
-1.93198 -0.935643 4.20785 34 47 39
1.69346 -0.87247 3.94946 90 150 139
-2.41427 -0.958958 4.44147 246 255 255
-1.84211 -0.899176 4.17063 119 170 162
-0.091698 -0.874681 4.14176 65 80 59
2.06609 -0.821118 3.90035 83 135 117
-2.22803 -0.908558 4.41151 99 133 126
-0.109559 -0.844682 4.14134 120 181 167
2.21463 -0.771705 3.8979 71 136 121
0.0412318 -0.816959 4.1409 83 157 131
-0.14263 -0.81556 4.1586 68 84 61
0.0224175 -0.810577 4.11807 48 73 45
0.00678934 -0.801129 4.13548 67 114 88
-0.153103 -0.79821 4.15197 136 205 178
0.530788 -0.741984 4.0331 62 68 57
-0.175975 -0.761303 4.15489 115 192 165
-0.0956604 -0.761748 4.14922 95 124 101
0.548066 -0.737698 4.06744 57 64 51
1.69271 -0.720088 3.96011 197 232 235
1.75765 -0.713552 3.95648 187 230 233
-0.178779 -0.740938 4.16591 50 93 66
-1.76321 -0.767817 4.36108 105 130 120
-1.42155 -0.751322 4.31466 62 84 65
1.09388 -0.703134 4.03462 97 151 146
-1.82868 -0.748911 4.36533 138 156 157
-1.62873 -0.742623 4.33093 171 206 220
-1.43574 -0.740992 4.3143 159 208 200
-0.0770291 -0.712891 4.14981 66 95 86
-0.0943983 -0.706512 4.16006 126 178 178
-1.74159 -0.72753 4.34932 128 185 177
-0.106377 -0.695048 4.16158 63 97 86
-1.80221 -0.719118 4.36666 76 86 74
-1.91032 -0.724804 4.40312 74 81 66
-1.50426 -0.703095 4.33397 87 126 111
-0.15402 -0.679255 4.17796 82 139 130
-1.49409 -0.692071 4.32532 65 84 67
-1.78838 -0.69141 4.3637 183 226 229
-1.81607 -0.687928 4.3698 103 134 127
-1.75717 -0.683691 4.36048 148 184 178
-1.76369 -0.667281 4.38765 81 86 71
-1.67716 -0.661024 4.35054 155 167 171
0.655335 -0.609206 4.08434 92 147 150
-1.68865 -0.622598 4.34229 143 207 195
-1.74616 -0.615243 4.37246 139 190 193
-1.59332 -0.612361 4.34419 152 209 201
-1.7487 -0.615181 4.37354 152 203 205
-1.66961 -0.606058 4.37529 193 227 240
-1.06521 -0.547951 4.27539 134 184 174
-1.23354 -0.530938 4.28143 68 100 81
-0.867474 -0.522787 4.23294 103 148 131
2.11551 -0.483914 3.9516 167 213 207
-1.48222 -0.517268 4.33479 114 153 131
-1.39546 -0.519992 4.33182 90 132 115
-1.16714 -0.518296 4.31195 79 100 91
-1.54559 -0.516057 4.36536 107 136 127
-1.11664 -0.50858 4.28688 64 84 71
-1.52398 -0.508177 4.35338 149 211 193
-1.15089 -0.505328 4.29211 127 197 180
-1.14788 -0.504983 4.29456 129 185 172
-2.28374 -0.51308 4.4227 80 142 124
-1.48853 -0.500483 4.31545 67 80 58
-1.06942 -0.488982 4.27126 73 112 104
-0.894688 -0.48883 4.26301 102 125 110
-0.775914 -0.473887 4.26096 105 144 128
-0.810624 -0.458985 4.26319 148 184 167
-2.22028 -0.471222 4.41236 92 103 111
-2.28049 -0.465121 4.42732 76 124 126
-0.791149 -0.450622 4.25574 69 101 76
-2.26231 -0.453631 4.42511 185 237 255
-1.45114 -0.442017 4.34266 82 117 103
-2.30583 -0.442029 4.41741 82 139 114
-0.749097 -0.403732 4.25311 152 232 209
-2.39362 -0.380903 4.44171 80 119 98
-0.79875 -0.35635 4.26157 130 200 183
-0.857887 -0.347612 4.26898 59 92 78
-0.896669 -0.342435 4.26564 60 99 74
0.467543 -0.305773 4.12985 101 148 146
-0.946077 -0.307153 4.29525 85 149 114
0.657596 -0.295668 4.10962 58 78 65
0.593225 -0.292522 4.12747 83 125 114
-2.18544 -0.303919 4.40871 153 242 199
0.485317 -0.279162 4.15243 81 107 94
0.656787 -0.246649 4.12983 134 195 185
0.510346 -0.246086 4.14135 79 107 101
0.523606 -0.230994 4.14598 133 193 182
0.67364 -0.203882 4.14271 101 132 123
0.461616 -0.154245 4.16726 123 171 189
-0.870239 -0.143452 4.29027 84 135 115
-0.837018 -0.147549 4.28545 175 223 227
0.553138 -0.140554 4.15794 42 82 71
0.691508 -0.139502 4.12658 112 168 149
-0.842154 -0.123344 4.29788 213 239 246
0.568556 -0.116288 4.16529 58 91 87
0.608168 -0.114292 4.14926 47 73 60
-0.47197 -0.111344 4.25051 77 128 114
0.627906 -0.109805 4.14985 101 157 152
0.706241 -0.103572 4.14125 120 184 165
0.599079 -0.0907891 4.15597 108 162 155
0.659203 -0.085669 4.15725 129 182 172
-0.811698 -0.0710762 4.29299 71 141 128
0.46492 -0.0692541 4.15811 87 144 135
0.929699 -0.0603254 4.12555 161 218 210
0.771376 -0.0412477 4.14414 122 174 164
-0.506576 -0.00658029 4.25452 74 155 158
0.641151 0.00800822 4.17677 36 43 36
0.641175 0.0452835 4.21723 87 128 97
-1.09284 0.0581034 4.31467 87 131 125
0.692576 0.0686289 4.18773 99 142 121
0.694547 0.0862076 4.19127 47 60 52
0.740068 0.110727 4.17838 67 104 100
0.880359 0.190001 4.163 144 197 177
0.136552 0.188662 3.9849 80 86 91
0.0974826 0.194506 3.99982 99 133 187
0.103007 0.213457 4.00134 218 255 255
0.649545 0.35824 4.23826 183 216 225
-0.173634 0.418063 4.15203 215 241 255
1.8255 0.423107 4.13329 213 239 245
0.718273 0.445859 4.24579 157 211 206
0.73401 0.489605 4.2431 77 121 115
1.47869 0.500813 4.19534 85 122 120
1.97384 0.503617 4.15252 139 162 178
-0.70779 0.538091 4.37212 158 220 190
1.84906 0.522293 4.15858 105 143 137
-0.291943 0.546251 4.31797 221 226 227
-0.570365 0.552953 4.35729 196 231 245
-0.441899 0.559124 4.33903 180 245 213
2.26784 0.530889 4.12748 105 136 151
0.922223 0.552304 4.2462 196 228 223
2.18531 0.537536 4.14462 105 140 144
0.300675 0.579297 4.30964 116 124 117
2.52147 0.557607 4.10595 205 226 234
-0.54678 0.596623 4.36806 95 160 145
1.71426 0.574044 4.18351 216 236 241
-0.564455 0.60032 4.36399 237 255 253
1.19554 0.590984 4.24943 209 233 239
-0.24409 0.620353 4.3238 224 241 237
-0.525369 0.647817 4.36984 94 143 127
0.298061 0.647724 4.33642 192 207 203
-0.263918 0.682713 4.3453 93 122 113
-0.173219 0.716884 4.36189 216 232 225
-0.289004 0.717549 4.36001 79 99 110
-0.173611 0.726213 4.38558 194 225 210
1.09154 0.721771 4.27634 204 245 248
0.0569383 0.746412 4.36646 231 243 243
-2.30324 0.791958 4.54766 160 210 208
0.232794 0.779256 4.3769 86 98 92
-0.195176 0.839678 4.3975 241 251 251
0.147924 0.828403 4.3674 255 255 255
0.118325 0.863568 4.3864 75 92 83
-0.0205388 0.916412 4.40763 158 202 201
0.0115487 0.945082 4.4258 78 103 93
1.92931 0.910864 4.26211 88 124 124
1.96984 0.909727 4.2653 94 136 119
-0.14207 0.957456 4.41537 254 254 254
2.15206 0.938843 4.2547 93 127 126
-0.0346701 0.9968 4.42343 127 172 169
0.130412 0.992649 4.40252 125 187 163
-0.147188 1.02842 4.43228 87 120 116
0.0553594 1.02839 4.43098 79 98 95
0.996114 1.04177 4.34485 239 250 248
-0.10904 1.06243 4.42877 114 146 145
-0.0915543 1.07248 4.42166 87 111 99
0.0128279 1.06732 4.41435 95 115 110
-0.168374 1.07891 4.43651 82 98 87
-0.142726 1.08665 4.42929 136 149 147
0.124188 1.07236 4.39681 84 113 98
-0.0744349 1.09656 4.43733 103 110 105
-0.202743 1.10859 4.43205 157 197 209
0.0326559 1.1118 4.44096 72 93 85
0.154746 1.11331 4.42239 90 98 91
0.14241 1.12292 4.44182 94 108 106
-0.174355 1.13422 4.44813 205 241 241
-0.0693414 1.13326 4.45018 252 254 254
0.112292 1.14215 4.44451 140 185 188
0.143287 1.15893 4.44651 220 248 248
-0.198123 1.17094 4.46563 131 175 176
1.46003 1.13558 4.32631 66 90 88
-1.63993 1.20042 4.55785 102 150 132
0.172282 1.18111 4.44007 126 166 161
-0.283796 1.19916 4.48356 69 100 85
2.04017 1.15348 4.31354 106 156 152
0.0180226 1.21483 4.46252 197 223 235
-0.157737 1.22031 4.46494 191 216 232
-0.295445 1.23657 4.4836 89 122 107
0.0954743 1.23638 4.46416 79 104 94
0.082957 1.26693 4.48026 131 175 174
-0.159367 1.26538 4.47135 152 204 197
2.29243 1.2328 4.31606 189 224 227
0.117814 1.28761 4.47143 166 211 222
-0.281907 1.30259 4.48237 81 110 101
-0.15872 1.29197 4.44534 157 209 209
-0.198991 1.30976 4.46927 106 133 129
-0.338796 1.32798 4.49893 111 125 114
-0.293001 1.32886 4.50315 161 215 215
0.216234 1.33389 4.48263 72 89 86
-0.289779 1.36897 4.5061 102 135 138
-0.0821203 1.36424 4.48072 73 95 90
2.14906 1.32743 4.3477 105 163 158
-0.284739 1.38395 4.50629 99 128 125
0.39481 1.45066 4.49181 91 125 118
-1.35099 -1.68153 4.2942 90 144 114
-1.67218 -1.65436 4.32529 103 148 122
1.99878 -1.38216 3.82223 62 84 59
-1.80659 -1.54962 4.3367 93 123 112
-1.75351 -1.55241 4.33319 173 228 219
-1.95711 -1.56252 4.38241 80 129 109
-2.40529 -1.50748 4.38039 89 139 115
-2.40487 -1.48429 4.38348 120 152 135
-1.63966 -1.46078 4.32227 44 91 59
-2.35818 -1.481 4.42538 85 117 112
-2.39504 -1.46021 4.41675 52 66 54
-2.67182 -1.46645 4.48877 142 175 161
-2.63296 -1.4488 4.4676 69 75 56
-2.11512 -1.42995 4.40657 116 144 131
-2.52472 -1.42783 4.45581 108 160 137
-2.64492 -1.42926 4.4851 121 170 154
-2.63664 -1.40383 4.48539 93 103 90
-1.70386 -1.31777 4.23359 49 87 69
-1.06982 -1.29894 4.24882 78 111 90
-0.693807 -1.23515 4.15845 111 193 158
-1.53702 -1.25872 4.305 110 171 137
-1.85461 -1.21373 4.17483 35 38 29
-1.88199 -1.18835 4.22487 68 82 76
-2.16113 -1.21191 4.40376 94 112 113
-1.89034 -1.11011 4.19068 59 79 67
-1.96282 -1.08987 4.19184 84 104 92
1.98267 -0.995593 3.89661 134 187 178
-1.84804 -1.01755 4.20697 40 59 44
-1.5859 -0.959414 4.0379 184 225 227
-1.7713 -0.945781 4.13964 114 153 128
-0.0373425 -0.917447 4.14211 72 96 72
0.00623443 -0.904675 4.15425 106 176 145
-2.40336 -0.959144 4.42117 239 252 254
-1.84766 -0.898839 4.18432 121 172 164
-1.91487 -0.903583 4.21194 51 63 51
-1.88747 -0.885788 4.19466 100 145 129
-2.42915 -0.885359 4.43363 93 122 107
-2.14239 -0.840326 4.39174 61 78 64
-0.183087 -0.787683 4.19483 74 118 95
0.532227 -0.741165 4.04602 64 71 56
0.5354 -0.738984 4.08066 59 69 52
-2.09481 -0.788267 4.39551 67 74 61
-2.04713 -0.760514 4.38312 59 75 58
-1.86265 -0.7251 4.40095 177 210 229
-1.74738 -0.726863 4.36032 123 174 166
-0.16166 -0.691546 4.15927 68 95 75
-1.93079 -0.698447 4.38096 78 97 88
-1.77967 -0.646398 4.37027 157 207 205
-1.73899 -0.6175 4.35849 150 201 204
-1.5796 -0.61176 4.35255 105 140 126
-1.73882 -0.61757 4.40589 88 99 97
-1.49226 -0.591942 4.3458 70 103 76
-1.79392 -0.59365 4.42225 95 109 103
-1.49872 -0.564575 4.33742 132 199 167
-1.17246 -0.538353 4.29356 95 131 117
-1.24336 -0.532204 4.30451 56 78 60
-1.50968 -0.532063 4.33976 70 87 60
2.1075 -0.483959 3.95612 148 204 193
-1.08969 -0.508195 4.2936 117 178 164
-0.936579 -0.490438 4.26113 78 108 95
-1.46859 -0.489387 4.3359 66 77 61
-1.34908 -0.465948 4.31411 113 182 172
-0.810278 -0.460556 4.25309 109 144 130
-2.31801 -0.453222 4.34856 107 136 121
-0.889068 -0.444476 4.25923 133 189 176
-1.47577 -0.448982 4.35515 132 190 189
-1.37899 -0.44313 4.3481 90 131 116
-0.777173 -0.432148 4.24214 108 177 157
-2.20667 -0.443249 4.4182 250 255 255
-0.832675 -0.430308 4.27182 60 105 78
-2.21115 -0.391542 4.36548 248 250 250
-0.94687 -0.366373 4.2734 78 127 111
-0.794423 -0.36091 4.26721 134 205 188
0.627551 -0.301568 4.12159 69 110 95
0.49212 -0.272127 4.19276 56 93 85
0.507239 -0.248854 4.15146 71 104 97
0.641643 -0.24775 4.14184 120 174 167
-1.03191 -0.203159 4.29922 117 182 167
0.62974 -0.170265 4.16194 92 123 108
0.652394 -0.147499 4.15204 106 153 144
-0.8638 -0.149682 4.27187 89 159 119
-0.914198 -0.123678 4.26994 255 255 254
-0.653162 -0.0987484 4.26768 77 118 110
0.706028 -0.0993452 4.12652 139 198 184
0.679875 -0.0911829 4.14642 77 114 98
0.251719 -0.083222 4.19522 253 255 255
0.589715 -0.0831184 4.17431 137 188 191
0.765135 -0.0411621 4.1266 109 154 145
-0.671273 -0.025898 4.2624 117 186 173
0.633566 0.0127922 4.17618 31 36 27
0.673201 0.0314071 4.15287 42 44 38
0.681519 0.041615 4.19387 32 39 32
-0.0181898 0.0945481 4.05058 104 115 159
0.663615 0.0955744 4.20204 39 53 49
-0.583142 0.204168 4.03342 69 100 163
-0.510222 0.21249 4.04795 41 69 129
-0.347871 0.228001 4.03415 59 75 128
0.0942442 0.23667 3.99137 221 242 255
0.825869 0.242154 4.17241 62 74 56
-0.0883349 0.249731 4.02999 69 92 148
-0.00671342 0.248386 3.99578 45 73 134
0.109944 0.272222 4.01468 89 89 107
0.768456 0.286152 4.20311 84 111 95
-0.338464 0.336359 4.11223 78 106 160
-1.20824 0.378113 4.38598 75 81 76
-0.452631 0.389945 4.15198 191 234 255
1.81575 0.421382 4.1321 191 223 234
0.566153 0.44277 4.27479 81 104 99
-1.12411 0.499287 4.388 82 89 76
1.38042 0.48076 4.19543 171 201 218
-2.43624 0.518673 4.52733 95 113 100
1.79395 0.479696 4.13302 207 234 244
1.74389 0.495008 4.15467 202 228 235
1.09737 0.504548 4.22672 81 131 119
1.84814 0.521958 4.15769 105 143 137
-0.336573 0.563548 4.34562 144 211 190
0.366068 0.572114 4.27095 99 133 126
-0.297191 0.586408 4.35158 63 76 60
0.28247 0.58883 4.31834 101 102 98
0.331675 0.611371 4.31971 83 115 110
-0.243988 0.64125 4.3407 100 117 103
-0.522263 0.649434 4.37168 89 140 126
-0.0261368 0.647313 4.33343 103 106 91
-0.263432 0.67715 4.33642 80 103 95
-0.131599 0.700288 4.33914 111 137 123
0.314055 0.725558 4.33473 81 107 101
0.251715 0.72572 4.3369 104 113 110
-0.140072 0.747 4.36128 82 99 78
0.0565731 0.747362 4.36885 224 240 239
0.227467 0.785408 4.39345 77 94 85
0.206416 0.855088 4.37349 106 126 114
0.0761851 0.88873 4.41032 103 136 129
1.26786 0.872851 4.30159 221 243 248
-0.0388847 0.911586 4.41221 86 90 78
-0.096364 0.934868 4.41705 97 121 113
0.330239 0.956152 4.37072 99 112 104
0.116578 0.978271 4.41522 77 91 85
-0.051122 1.0054 4.46485 125 174 166
0.149475 0.993595 4.40806 160 228 211
0.305931 0.973814 4.35609 158 202 195
0.0356302 1.03032 4.44905 158 203 216
-0.105645 1.06365 4.4413 110 149 147
-0.165885 1.06198 4.41091 84 101 92
0.00476873 1.07246 4.42373 102 122 117
-0.0866089 1.09608 4.44047 92 96 90
0.202138 1.11521 4.41977 81 91 79
-0.214344 1.13898 4.44046 81 98 84
-0.17491 1.1405 4.44852 189 229 234
0.0987664 1.14019 4.44677 169 213 212
-0.279345 1.15262 4.45418 84 99 85
-0.302504 1.18828 4.47001 96 119 111
-0.175363 1.18816 4.45398 98 107 104
-0.352235 1.21047 4.4795 238 253 255
-0.253661 1.21522 4.46406 164 202 206
-0.15617 1.21145 4.45126 191 214 229
-0.264246 1.23189 4.46265 144 208 196
