ply
format ascii 1.0
element vertex 1272
property float x
property float y
property float z
property uchar blue
property uchar green
property uchar red
end_header
-1.39706 -1.13087 3.45844 83 121 103
-0.971193 -1.13968 3.50608 92 156 126
-1.37406 -1.1217 3.46903 88 146 117
-1.39898 -1.1153 3.46523 141 217 183
-0.678154 -1.13076 3.5454 103 173 137
0.015824 -1.14918 3.63715 250 255 255
-1.47214 -1.0911 3.46154 94 167 145
-0.94984 -1.10497 3.51695 147 224 186
-0.565044 -1.1163 3.57468 85 128 107
-0.190737 -1.13003 3.60967 134 146 164
-1.45075 -1.08046 3.46916 109 174 152
-0.315963 -1.1195 3.59542 160 177 198
-0.648036 -1.10266 3.54876 64 99 73
-1.04672 -1.08503 3.50949 96 140 117
-0.96619 -1.09061 3.51465 77 135 94
-0.606139 -1.10265 3.562 154 229 185
-0.023957 -1.11587 3.63027 120 176 193
-1.05538 -1.06683 3.50346 100 151 114
0.46433 -1.11974 3.70085 253 255 255
-0.0856945 -1.09935 3.64198 210 238 245
-0.629141 -1.07257 3.58188 93 151 127
2.09811 -1.16547 3.89987 166 193 189
0.523191 -1.10395 3.70749 225 255 253
-0.148272 -1.0761 3.62836 174 241 238
-1.80082 -1.01603 3.44786 119 180 160
-0.160426 -1.06354 3.61951 131 174 195
-0.999037 -1.02585 3.52955 78 113 93
-0.969496 -1.02354 3.5353 85 142 109
-0.383384 -1.03783 3.61077 99 143 150
-0.140854 -1.0424 3.63327 112 174 182
0.484212 -1.06 3.70787 100 168 151
0.0206398 -1.03966 3.66076 91 137 125
-0.92282 -1.00108 3.53351 73 139 97
-1.70492 -0.970287 3.47517 100 143 132
-0.975231 -0.987174 3.54403 91 133 102
-0.420175 -1.00268 3.60547 95 106 136
0.180887 -1.02597 3.68662 120 157 147
-0.391133 -1.00261 3.61579 89 123 129
-1.00561 -0.973582 3.53699 85 148 116
-0.64298 -0.984113 3.59007 91 169 145
0.171033 -0.998197 3.67873 119 169 159
0.440625 -1.00822 3.71783 106 164 153
-1.22279 -0.938547 3.52395 93 156 146
0.174484 -0.98584 3.70094 166 222 211
1.97051 -1.00963 3.82099 84 137 110
-1.33627 -0.923353 3.5102 79 136 115
0.187857 -0.971443 3.70264 87 99 81
0.118973 -0.966481 3.68667 109 126 117
-0.878216 -0.931639 3.56238 91 153 137
-1.10954 -0.92187 3.53826 114 174 163
-0.477059 -0.930753 3.61376 122 166 165
0.110908 -0.947656 3.69906 68 90 78
-0.00982208 -0.935193 3.66668 82 116 115
0.234254 -0.931404 3.68887 120 178 153
-1.42526 -0.883143 3.51251 102 139 129
0.40739 -0.913002 3.72117 220 253 255
2.45101 -0.940923 3.91903 78 147 120
-0.14639 -0.874848 3.65229 93 99 110
-0.830428 -0.848788 3.58558 83 152 132
-0.991576 -0.809824 3.58883 107 167 156
0.334363 -0.843607 3.72065 123 134 148
-0.756373 -0.81441 3.60675 94 163 148
0.361518 -0.836751 3.71157 150 168 179
-1.15844 -0.793041 3.55318 97 159 147
-1.80835 -0.772985 3.50993 80 156 138
-1.16309 -0.781521 3.56288 141 218 204
0.178364 -0.814444 3.72129 60 107 91
-1.70212 -0.760936 3.51302 100 162 148
-1.09733 -0.772447 3.58295 112 177 162
0.406947 -0.809567 3.75111 171 205 211
0.487028 -0.798802 3.78582 135 166 181
0.61631 -0.799541 3.7821 245 255 253
1.389 -0.813935 3.86145 96 163 132
0.3755 -0.789161 3.75836 104 130 144
0.49458 -0.790159 3.77036 123 152 179
-0.709324 -0.75598 3.62425 253 255 255
1.43209 -0.800089 3.86869 95 163 128
-1.63483 -0.727255 3.53593 116 174 169
-1.48533 -0.730053 3.55006 100 155 128
-0.717921 -0.745942 3.62912 103 152 138
0.213252 -0.770619 3.74627 86 133 154
1.3974 -0.796736 3.88346 92 167 135
-0.300047 -0.751006 3.66956 194 250 227
-0.243753 -0.750661 3.67436 107 156 136
1.02189 -0.78018 3.84105 106 177 151
1.8916 -0.787727 3.87426 214 249 222
-0.811656 -0.728436 3.62004 77 143 114
2.08029 -0.76901 3.8142 124 191 152
1.35451 -0.764986 3.89059 112 177 156
-1.96856 -0.68421 3.51034 100 163 143
-1.02628 -0.705572 3.60146 132 184 177
2.08799 -0.749938 3.83289 158 215 164
-0.0336872 -0.726433 3.71824 88 145 106
0.541737 -0.732843 3.76959 104 123 144
-1.00797 -0.697162 3.59826 115 168 158
1.36264 -0.742883 3.88951 112 180 149
0.454851 -0.720714 3.76039 113 140 161
0.474713 -0.723829 3.7838 101 124 150
0.483059 -0.721827 3.77873 171 209 227
-1.03161 -0.684739 3.59495 123 164 156
-0.258474 -0.695864 3.67373 116 179 153
0.254427 -0.709706 3.75844 104 116 128
0.424072 -0.712553 3.77904 110 137 164
1.96013 -0.698346 3.78417 137 155 132
0.478889 -0.68553 3.75828 108 139 164
0.546872 -0.680756 3.7809 195 229 235
-1.80351 -0.630934 3.53612 99 155 136
-1.17538 -0.640745 3.58733 116 175 167
-0.444581 -0.655141 3.6645 253 255 254
-1.13697 -0.639969 3.60227 115 168 159
-0.241599 -0.644209 3.70313 169 224 215
-0.0230717 -0.647405 3.72802 79 129 99
0.520734 -0.658236 3.78618 139 161 186
1.86379 -0.666776 3.86339 95 154 126
0.260888 -0.647743 3.76962 126 150 156
-1.1413 -0.609305 3.61352 101 157 134
-1.55741 -0.598415 3.56103 84 133 105
-0.225371 -0.623347 3.70753 66 119 86
-1.76657 -0.591778 3.54881 111 169 144
1.31565 -0.643808 3.90251 150 163 161
-1.55737 -0.583593 3.56154 193 240 224
1.03003 -0.631086 3.86196 84 147 121
-0.632982 -0.594734 3.66998 87 155 144
0.0626621 -0.604583 3.74235 159 212 202
-0.423586 -0.587086 3.68779 61 112 75
0.0253565 -0.591241 3.75953 139 186 177
-1.95867 -0.553846 3.53871 96 142 123
-1.74216 -0.553897 3.561 95 153 125
-0.43493 -0.570839 3.68737 46 95 51
-1.47241 -0.543738 3.58498 106 161 152
-0.691807 -0.553046 3.67222 164 218 213
2.40284 -0.598446 3.96016 88 145 106
-0.391041 -0.549105 3.693 79 135 94
1.20041 -0.583488 3.8899 97 155 137
-0.132305 -0.546495 3.72385 139 221 172
2.3742 -0.584602 3.9844 100 166 131
-0.311067 -0.538872 3.71264 89 137 119
-0.410243 -0.529827 3.68272 68 101 66
-1.81155 -0.510599 3.56284 78 146 111
-1.76118 -0.510792 3.56118 83 123 111
-1.69505 -0.510326 3.56848 231 252 227
0.0777798 -0.539533 3.76577 53 84 55
0.420965 -0.541521 3.80096 82 113 106
2.31148 -0.572425 3.99987 84 156 120
-0.177209 -0.529102 3.69436 102 166 124
0.36037 -0.537518 3.78049 143 166 192
0.792744 -0.546922 3.84754 188 238 228
0.117628 -0.531469 3.77905 132 185 158
0.387715 -0.537275 3.78882 66 75 89
0.770531 -0.534837 3.84975 178 227 219
0.0352294 -0.518643 3.76112 101 149 120
0.939264 -0.533472 3.86933 111 178 157
1.81124 -0.543425 3.9862 93 125 101
0.794102 -0.524502 3.85867 102 132 121
-1.82622 -0.482229 3.55966 85 143 118
0.428158 -0.512146 3.81219 95 130 140
1.21098 -0.523691 3.90771 165 224 196
-0.401611 -0.494316 3.70879 71 142 102
0.633982 -0.509826 3.84591 237 252 254
-1.79479 -0.467978 3.56401 83 133 101
-1.8703 -0.466345 3.55177 124 160 148
-1.26001 -0.473796 3.62423 89 156 147
-0.785745 -0.479395 3.6669 96 152 129
-0.372582 -0.483606 3.70933 148 233 189
0.0907519 -0.496274 3.78472 85 124 92
1.23191 -0.506364 3.9118 141 222 197
-0.570738 -0.473916 3.70019 48 115 84
-0.366946 -0.47369 3.71637 81 140 109
1.2495 -0.501801 3.91238 136 213 186
-2.20321 -0.445362 3.54971 68 135 98
-1.92983 -0.441405 3.54896 79 156 105
-0.369642 -0.451541 3.71852 179 244 223
-1.89256 -0.423102 3.56878 82 140 115
-0.396217 -0.436895 3.72292 86 138 120
-1.80937 -0.41256 3.56877 161 240 201
-1.72546 -0.415483 3.57392 138 227 188
-0.532444 -0.427409 3.70725 83 137 100
-2.00021 -0.401636 3.55972 142 231 192
-1.76424 -0.40744 3.58287 111 179 154
-1.62127 -0.408057 3.58947 83 147 112
-1.26636 -0.407937 3.6324 90 155 134
-0.375875 -0.409923 3.70908 139 219 172
-1.41623 -0.389443 3.61919 113 167 160
-1.26801 -0.390235 3.62708 88 156 145
-0.59228 -0.397923 3.71186 102 161 140
0.932843 -0.413248 3.87786 105 162 141
-1.92839 -0.379889 3.575 83 144 124
-1.84438 -0.378666 3.57 140 223 178
0.0766315 -0.399185 3.79471 78 87 74
0.117103 -0.399406 3.79628 106 157 149
-2.0105 -0.371611 3.56079 71 132 94
-0.354691 -0.387462 3.72281 55 102 76
-2.03479 -0.36641 3.55122 125 209 167
-1.68869 -0.373249 3.60096 90 155 116
-1.6104 -0.368528 3.60133 139 223 194
-1.77082 -0.364088 3.59235 88 145 114
0.0292971 -0.384305 3.78098 121 178 147
-1.27199 -0.365581 3.64116 76 147 131
-0.481384 -0.374873 3.71349 84 167 115
-0.453524 -0.376339 3.72736 140 229 180
0.182136 -0.382536 3.80604 114 163 147
-2.22742 -0.353035 3.55524 52 111 83
-2.19024 -0.352844 3.54975 60 120 86
-2.01225 -0.355158 3.57036 120 199 158
-0.118109 -0.352272 3.59776 189 238 206
-1.99466 -0.343753 3.57241 57 109 79
-0.553156 -0.360209 3.71817 167 242 196
-0.10952 -0.345272 3.58213 111 174 132
2.09729 -0.38528 3.9868 99 167 132
-1.88245 -0.339135 3.57117 74 142 101
-2.23441 -0.337785 3.56142 47 91 68
-1.71103 -0.336688 3.60578 78 100 75
0.18392 -0.353232 3.80354 137 199 183
0.0624049 -0.34483 3.80142 107 121 117
-2.00932 -0.307152 3.57586 53 114 76
-0.468381 -0.318146 3.71915 63 109 66
-0.139627 -0.307268 3.61544 63 83 70
-0.0925255 -0.307252 3.60563 127 190 146
-1.66109 -0.307801 3.6105 127 184 163
-1.4263 -0.304431 3.63326 102 147 130
-0.462178 -0.31236 3.72047 152 239 189
-1.6401 -0.300223 3.61727 87 148 112
-0.125568 -0.29977 3.6075 87 130 109
0.186247 -0.313507 3.81378 65 81 58
-2.12228 -0.289267 3.57509 89 156 119
-1.66347 -0.292043 3.61279 91 141 107
-1.69624 -0.289443 3.61267 63 117 88
-1.92146 -0.283047 3.57641 54 108 78
-1.27934 -0.285728 3.6503 86 155 144
-1.23336 -0.288521 3.67116 59 129 99
0.273316 -0.300655 3.83488 92 128 114
-2.08369 -0.277012 3.57415 97 169 127
-1.81667 -0.278807 3.59388 57 127 87
-1.74024 -0.279311 3.60671 96 159 119
-1.5951 -0.275766 3.62476 45 83 55
-1.59579 -0.275207 3.62755 43 89 60
-0.432317 -0.287539 3.71479 63 128 82
0.248129 -0.293188 3.83264 88 117 102
-0.626639 -0.282603 3.72313 106 149 138
-0.577898 -0.283027 3.74355 78 147 120
-0.568673 -0.28419 3.7328 149 241 198
-0.549329 -0.281326 3.74501 161 250 211
-0.457519 -0.277859 3.71817 106 184 131
-1.92423 -0.263657 3.57907 129 218 169
-0.598663 -0.276455 3.73185 194 235 220
-0.406912 -0.277169 3.73789 37 82 79
-1.69015 -0.262348 3.62481 74 136 96
-0.611901 -0.270445 3.72888 99 156 148
-0.115638 -0.266076 3.60711 73 107 70
0.30744 -0.278388 3.84922 108 154 148
-1.62956 -0.260647 3.61316 144 225 192
-1.22197 -0.265181 3.66405 63 116 102
-0.427603 -0.266331 3.7218 195 239 210
1.60401 -0.288767 3.99635 84 150 125
-2.05056 -0.254841 3.58621 88 149 113
-1.96039 -0.25416 3.57738 75 172 128
-2.05888 -0.249435 3.57919 148 228 191
-1.59084 -0.252395 3.62705 100 143 110
-1.31673 -0.25645 3.66626 81 141 123
-1.73107 -0.247545 3.60927 81 148 117
-0.532041 -0.25684 3.75225 68 142 100
0.368199 -0.265906 3.84825 91 137 124
-2.15225 -0.24161 3.57106 91 146 107
-1.91452 -0.242934 3.58808 59 113 83
-0.587705 -0.25298 3.7402 101 167 148
-1.7439 -0.239164 3.61003 149 217 186
0.293029 -0.254283 3.84533 95 148 139
-2.10217 -0.231439 3.5808 83 127 98
-1.47516 -0.239744 3.6429 80 138 103
-0.0544139 -0.23835 3.66557 74 105 78
-1.53353 -0.232455 3.63928 82 123 96
-0.04242 -0.232853 3.65987 132 194 164
0.380075 -0.24788 3.84636 179 225 213
-1.93595 -0.226761 3.595 120 193 153
-1.7584 -0.228148 3.61974 52 115 73
-1.56019 -0.228385 3.63282 56 96 68
-1.69914 -0.224265 3.60932 163 230 191
-1.6212 -0.223078 3.60773 114 147 120
0.35718 -0.243078 3.8693 93 153 135
-1.47572 -0.222219 3.64346 158 234 210
0.253096 -0.236299 3.85106 150 204 191
2.13095 -0.243532 4.00179 81 131 101
-1.55098 -0.217423 3.62566 116 170 140
-1.34811 -0.217668 3.66246 110 161 141
2.48598 -0.244412 4.07014 50 86 70
-1.53858 -0.214038 3.6437 136 201 169
-1.32355 -0.216373 3.66734 90 143 130
-1.68888 -0.211765 3.61205 130 208 171
-2.12138 -0.205103 3.58701 61 122 86
-1.61007 -0.20755 3.61596 161 200 178
1.06473 -0.226012 3.92873 73 129 106
-1.94643 -0.199782 3.58938 127 237 189
-1.28799 -0.205616 3.67022 79 156 119
0.257038 -0.214076 3.85072 152 206 199
-1.33279 -0.20265 3.66318 72 116 93
-1.53045 -0.197265 3.64846 151 220 200
-1.44245 -0.199166 3.65884 75 111 87
1.00856 -0.212303 3.92446 75 127 109
-1.81088 -0.189759 3.61595 88 165 121
-0.528594 -0.199969 3.7464 91 150 105
-0.439198 -0.200257 3.76101 190 239 255
0.260546 -0.20409 3.84439 112 157 154
-1.95099 -0.187623 3.59819 56 116 82
-1.46812 -0.185869 3.64105 75 125 91
2.29394 -0.209702 4.03512 97 162 123
-0.547959 -0.187682 3.75318 55 104 72
-2.22362 -0.175413 3.56406 93 145 108
-1.45994 -0.178955 3.64441 122 202 165
1.14589 -0.192696 3.96076 128 222 188
-1.78001 -0.176024 3.60687 148 230 195
0.22883 -0.185264 3.84824 147 173 155
2.47385 -0.19484 4.06658 101 143 118
-1.53364 -0.167516 3.63787 133 189 170
-1.43682 -0.165921 3.64803 45 72 52
0.247817 -0.179013 3.85028 100 129 120
2.27377 -0.187712 4.04274 74 136 122
-2.16247 -0.157163 3.576 151 244 199
-1.58208 -0.159088 3.62659 170 237 200
-1.7657 -0.158368 3.6301 117 203 149
-1.56745 -0.157959 3.63405 64 86 67
-2.03895 -0.154178 3.60284 63 130 103
-1.93464 -0.152677 3.61 106 193 143
-1.20143 -0.156996 3.68884 78 147 132
-0.517522 -0.158585 3.76989 73 133 99
1.13081 -0.166598 3.95513 70 102 78
2.43606 -0.171369 4.0613 149 219 178
-1.87593 -0.14832 3.60875 42 96 61
-2.07644 -0.14461 3.60231 157 236 195
-0.386243 -0.148673 3.76815 62 133 100
-1.58887 -0.133867 3.63286 77 121 92
-1.45441 -0.135785 3.64546 126 183 150
-0.640916 -0.140423 3.75997 108 160 142
-1.48629 -0.12654 3.63937 122 179 148
-1.6029 -0.125793 3.62924 125 182 157
-1.45818 -0.121273 3.64808 98 144 108
-2.0973 -0.12028 3.60311 134 234 182
-0.449549 -0.124873 3.77699 168 251 212
1.10636 -0.129651 3.96531 95 175 140
1.13873 -0.128842 3.9704 154 231 193
2.53293 -0.130883 4.06818 116 172 131
-1.60572 -0.113146 3.63147 81 107 91
-1.83688 -0.109782 3.63796 111 201 148
-1.41647 -0.10672 3.66951 130 191 157
-0.523877 -0.110576 3.77517 78 141 109
2.42958 -0.113232 4.05694 63 98 72
-2.1744 -0.0994916 3.60522 56 113 82
-2.03999 -0.0983256 3.60196 78 143 98
-1.72548 -0.0966599 3.62977 109 175 126
-1.93372 -0.0945657 3.62498 55 133 92
-1.62852 -0.0952212 3.62411 113 153 125
-0.370672 -0.0999934 3.78301 156 225 204
-2.19532 -0.0900013 3.6007 139 234 184
-1.65662 -0.0913603 3.59554 135 200 154
2.52756 -0.10376 4.08747 74 90 66
-1.80989 -0.0895826 3.65002 61 111 81
-1.61211 -0.0882995 3.63537 119 177 182
-0.372795 -0.0918154 3.78866 130 201 174
-0.533601 -0.0904699 3.76775 94 146 129
-2.09307 -0.0803938 3.60537 83 143 109
-1.97652 -0.0823364 3.62249 29 79 47
-1.5735 -0.0803203 3.62492 91 125 141
-1.39609 -0.0821486 3.67643 57 79 61
-1.24931 -0.0837855 3.69845 82 139 118
-1.83884 -0.0738395 3.63226 46 99 66
-1.40949 -0.0783215 3.66275 132 165 144
-1.29735 -0.0812486 3.68704 89 124 110
-0.37413 -0.0787806 3.7993 67 108 81
0.486728 -0.0785682 3.90978 88 141 132
2.05595 -0.079429 4.02593 81 127 108
0.898785 -0.0741892 3.9464 99 169 152
-2.18784 -0.0672297 3.59882 67 125 90
-2.05837 -0.0650633 3.61602 45 96 58
-1.93156 -0.0675816 3.63077 130 208 161
-1.76521 -0.066767 3.6346 45 91 62
-0.438335 -0.0685876 3.79188 70 133 94
-0.379244 -0.0724446 3.78916 63 105 80
-1.58523 -0.0638818 3.62907 167 224 233
-1.56824 -0.0639051 3.6214 121 173 180
-0.396182 -0.0670934 3.78533 157 229 186
-1.79127 -0.0604355 3.64318 51 93 68
1.82472 -0.0647139 4.00631 98 137 116
2.39248 -0.0652346 4.07998 97 135 107
-1.3872 -0.0574725 3.67695 74 95 80
1.12517 -0.0639456 3.98494 105 154 138
-1.80069 -0.0539353 3.62798 128 205 177
-1.37572 -0.0543758 3.68908 125 180 161
2.43146 -0.057705 4.04614 67 109 78
-1.62619 -0.0438764 3.63335 155 229 205
-1.36144 -0.0419422 3.69659 64 105 84
-1.86397 -0.0415325 3.62813 93 154 120
-1.50326 -0.0431957 3.60699 160 207 185
-1.39615 -0.0440356 3.69014 140 201 175
-1.37345 -0.0403454 3.69262 69 108 86
1.07769 -0.0445852 3.97635 139 204 182
1.09222 -0.0440013 3.97242 86 130 107
2.28137 -0.0446415 4.08044 158 227 194
-1.7882 -0.0389886 3.64468 82 133 89
-0.506582 -0.0356051 3.79555 67 118 91
-1.79419 -0.0310176 3.63422 144 216 173
-1.66614 -0.0305651 3.61434 147 221 169
-1.98096 -0.0298363 3.61939 115 192 155
-1.22344 -0.0305877 3.71383 105 156 142
2.06797 -0.0299624 4.03073 138 200 154
-1.81038 -0.0304754 3.64131 54 114 84
-1.70303 -0.0253627 3.60497 124 187 147
-1.64502 -0.0258659 3.63785 43 82 60
2.33805 -0.0342129 4.08087 83 135 105
-1.37186 -0.024342 3.69713 116 196 173
1.0339 -0.0246302 3.97419 94 170 146
-2.1752 -0.0187691 3.61153 62 122 92
-2.07778 -0.0199059 3.60778 67 111 82
-1.38562 -0.0198469 3.68875 75 113 91
-1.33938 -0.0205422 3.70002 75 127 117
-0.350579 -0.0216987 3.813 53 123 83
2.42115 -0.0219529 3.99954 63 104 76
-0.333355 -0.0196685 3.80783 160 223 197
0.514329 -0.0160351 3.91269 82 138 117
-1.41195 -0.00819569 3.67217 55 77 58
-1.91201 -0.0048254 3.64607 136 212 178
-1.79138 -0.00491237 3.64347 76 131 98
-2.04024 0.00145265 3.62747 58 107 79
-1.87125 -0.00107893 3.63822 170 242 195
-1.38532 -0.000763435 3.69391 42 60 43
-0.494947 -0.00128985 3.79239 52 112 81
0.262435 0.00200257 3.897 104 167 128
-1.67556 0.00889398 3.60381 82 123 85
-1.40119 0.0124148 3.69581 141 207 165
1.5231 0.009221 4.03461 98 167 140
-1.82938 0.00954357 3.64316 79 139 105
-1.5934 0.0111634 3.62414 95 145 151
-1.40089 0.0150095 3.68843 134 197 155
-0.824767 0.0176447 3.77095 88 150 134
-1.44255 0.0214843 3.69057 100 144 121
-0.214643 0.021813 3.83114 89 156 125
2.39161 0.0228495 4.02337 93 141 113
-1.19919 0.0220976 3.72774 86 153 138
-0.652674 0.0276246 3.77676 96 151 132
-1.7296 0.0286664 3.60734 101 189 129
2.04761 0.0323062 4.03108 80 118 100
-0.655949 0.0327809 3.79571 83 129 116
-0.442159 0.0356574 3.8259 99 164 143
2.21659 0.0404846 4.09063 128 190 166
-2.03224 0.0377771 3.63481 135 213 176
-1.39288 0.0368802 3.69917 121 184 164
-1.96575 0.0480372 3.65209 117 168 130
-2.09542 0.0481436 3.62166 97 137 112
-1.60281 0.0481955 3.64465 99 160 180
-1.43995 0.0514187 3.69017 98 150 120
-1.33541 0.0491699 3.71041 50 104 87
-1.31127 0.0504381 3.71318 55 116 102
0.166655 0.0515053 3.88625 181 234 220
-1.69069 0.0492058 3.61663 104 201 151
-1.68125 0.0502421 3.63975 63 136 98
-1.64325 0.0528663 3.64674 49 77 58
1.29516 0.0548039 4.00559 90 139 117
-2.19812 0.0574637 3.62272 144 236 193
-1.95387 0.054863 3.65967 63 110 72
-1.96701 0.0654576 3.66003 50 85 58
-1.70779 0.0618323 3.61495 65 103 55
-1.22334 0.0655418 3.71884 82 140 129
2.4499 0.0653224 3.97502 104 160 131
-1.68148 0.0671955 3.62991 143 222 171
-1.40656 0.0689712 3.71191 79 136 115
-2.1912 0.0707939 3.62185 73 127 98
0.730198 0.0811204 3.9649 112 181 171
-1.72337 0.0760307 3.61567 157 241 186
-1.67518 0.0833998 3.629 58 132 80
-0.396996 0.087675 3.82855 92 140 116
0.295812 0.0883201 3.90479 103 164 144
-1.97659 0.085904 3.657 56 106 82
-1.20915 0.086604 3.72256 72 139 134
-1.86451 0.0883546 3.6692 66 120 85
-1.7741 0.0904845 3.65452 66 129 97
-2.24808 0.0923074 3.63073 65 122 101
-1.63572 0.09876 3.65215 82 122 117
1.29544 0.110347 4.03394 62 108 86
-1.98344 0.103928 3.66238 74 123 95
-1.90565 0.102944 3.66975 55 79 61
-1.6717 0.10385 3.64347 85 169 115
-1.66213 0.101643 3.66487 57 105 69
-1.89053 0.106197 3.67091 167 229 211
-1.86747 0.109393 3.668 91 133 115
-0.889077 0.110967 3.77428 87 155 132
-0.873138 0.109597 3.78087 81 143 125
-2.11367 0.113196 3.63735 41 77 53
-1.66697 0.113859 3.64817 146 219 169
2.42075 0.123087 4.03175 160 241 196
-1.35013 0.116319 3.72843 72 123 103
-1.18325 0.118752 3.7506 80 139 131
2.31574 0.126931 4.08043 79 119 101
-2.06285 0.119878 3.63834 146 207 173
-1.37495 0.119898 3.72738 45 87 70
-1.03972 0.120882 3.75955 52 107 88
-1.94347 0.120427 3.67462 55 88 61
-1.58372 0.120109 3.66586 74 126 102
-1.44913 0.121135 3.69793 110 151 120
-1.02471 0.124611 3.76503 83 154 137
1.38476 0.130249 3.99333 103 139 123
-1.6047 0.123489 3.66054 80 113 92
1.26878 0.137951 4.03856 111 164 150
1.88423 0.143558 4.09627 101 154 127
-1.45031 0.130404 3.7136 100 124 89
2.25864 0.152401 4.09886 99 155 132
-0.485577 0.145906 3.8265 110 166 143
-0.283371 0.148167 3.85287 91 156 140
-2.02611 0.148593 3.65257 116 206 171
1.83239 0.171383 4.08077 127 141 129
-1.75574 0.158785 3.67694 89 157 126
-1.56128 0.158701 3.67526 156 219 193
-1.39079 0.16436 3.73041 150 211 197
-1.98353 0.171277 3.65641 53 111 83
-1.63735 0.168589 3.68739 130 202 160
-1.00277 0.173889 3.77836 81 165 137
-1.40571 0.175872 3.73523 79 121 103
0.0541591 0.182891 3.89523 172 228 217
-1.98812 0.17615 3.6608 44 103 72
-2.04204 0.179362 3.65004 56 94 64
-1.95628 0.178462 3.65657 143 225 183
-1.93221 0.185075 3.67109 115 193 156
-1.88888 0.184984 3.67308 140 226 192
-2.07676 0.190169 3.65674 74 134 100
2.37287 0.207331 4.0254 78 124 102
-1.56436 0.199693 3.69216 85 152 137
-1.94907 0.196592 3.66287 84 141 110
-2.10841 0.20641 3.65864 143 221 184
-1.14334 0.221829 3.76786 61 107 85
-2.11425 0.219327 3.6555 78 136 108
-1.88319 0.222548 3.68394 85 138 105
-1.65309 0.222733 3.69538 79 126 100
1.81086 0.244593 4.07592 134 190 171
2.15452 0.245318 4.12157 69 104 90
-1.65963 0.229307 3.71523 81 123 105
-1.61476 0.234331 3.71402 93 152 137
-1.63606 0.237859 3.71136 98 163 141
-1.43643 0.24794 3.74199 135 204 184
-2.32697 0.247379 3.67746 70 117 95
-0.0584481 0.258808 3.92328 127 198 165
2.18375 0.277139 4.12954 91 137 124
-1.83663 0.256394 3.70313 73 120 88
-1.63228 0.256049 3.72612 93 153 152
-1.78083 0.261178 3.71007 149 227 186
-0.830253 0.269313 3.81829 80 142 130
-1.90766 0.272473 3.71048 143 219 177
-1.65484 0.275652 3.73048 86 110 86
-1.09594 0.281775 3.77994 92 163 137
-1.46315 0.288008 3.74906 94 149 124
-1.60871 0.293889 3.73607 61 96 82
-1.74533 0.297897 3.71919 98 161 135
-1.39692 0.30288 3.76533 85 132 123
-1.35076 0.312017 3.77429 93 143 119
-1.65624 0.309288 3.74 161 222 194
-2.05314 0.307772 3.6914 90 148 123
-2.02602 0.30898 3.69541 75 129 100
-1.67383 0.312862 3.729 147 209 179
-2.12745 0.313499 3.69516 90 139 111
-0.707313 0.330828 3.85109 86 151 130
-0.604997 0.334098 3.86219 90 156 161
-1.69492 0.328088 3.73686 94 138 102
-1.98134 0.330799 3.72269 80 130 100
-1.87547 0.328911 3.71823 96 154 130
-0.115906 0.346138 3.92444 168 223 230
-2.17302 0.335769 3.70585 86 159 127
-1.81676 0.346218 3.72998 97 134 108
-0.20803 0.375874 3.92258 98 157 189
-1.64773 0.365096 3.74527 77 141 112
-0.213374 0.386554 3.91699 96 144 172
-1.47325 0.375513 3.77392 83 147 128
-1.99911 0.371907 3.71933 86 147 127
0.644418 0.42362 4.02993 105 148 145
-0.859808 0.407177 3.85043 75 140 138
0.831067 0.451144 4.05324 109 156 147
-2.06463 0.419897 3.731 113 166 152
-1.46903 0.429 3.78071 97 166 146
-2.27373 0.429312 3.72295 102 171 158
0.629056 0.476723 4.03634 104 132 119
2.30374 0.511029 4.26462 126 185 170
2.30151 0.5148 4.22097 131 211 164
-0.896106 0.484214 3.86819 92 170 159
2.26139 0.532466 4.26289 84 141 116
0.67996 0.509643 4.02945 114 157 142
2.20041 0.547954 4.23875 95 143 131
-0.906966 0.511168 3.86757 74 132 114
-1.25653 0.520868 3.82729 79 141 127
-0.775495 0.536331 3.89533 103 180 159
0.0754036 0.548135 3.98023 93 162 142
1.10795 0.580539 4.12213 107 163 150
2.16298 0.606648 4.26161 103 155 148
1.067 0.595264 4.1214 84 127 114
-0.0761589 0.587033 3.99073 79 146 131
-1.20029 0.578322 3.84527 94 156 140
2.41209 0.639081 4.21846 78 139 105
1.20693 0.640465 4.14089 91 139 121
1.70565 0.68918 4.23743 116 169 160
1.21505 0.692714 4.17467 62 106 89
2.36362 0.698272 4.23179 141 222 175
-1.20829 0.643931 3.85892 75 125 107
-0.225229 0.664523 3.98293 91 151 141
2.20796 0.712146 4.24268 98 139 124
0.342075 0.692803 4.05153 93 149 136
1.14968 0.7262 4.15455 81 126 107
1.12297 0.730958 4.14759 93 137 120
1.65159 0.743003 4.23438 105 175 158
2.41953 0.747968 4.25217 90 163 117
-0.203004 0.712638 3.99904 254 255 253
-0.204106 0.715458 3.99945 253 255 255
1.14833 0.75674 4.15927 96 137 116
-0.15886 0.740522 3.99117 88 147 132
1.24896 0.781626 4.18665 85 131 119
-1.31058 0.731431 3.86799 170 223 214
-0.107414 0.771585 4.01574 83 148 146
-0.467947 0.766434 3.96996 103 154 140
-1.42325 0.771981 3.87444 89 151 139
-1.21245 0.770833 3.87958 87 152 127
1.23601 0.845414 4.18785 90 139 123
-2.21183 0.801766 3.80418 64 135 119
-1.68653 0.80836 3.84209 204 235 232
-1.37015 0.827807 3.88029 92 145 131
-1.40608 0.828146 3.87321 84 138 121
-0.643361 0.850798 3.96748 95 151 138
-1.3433 0.836143 3.87769 94 135 130
2.36994 0.970838 4.35081 141 211 171
-2.10164 0.858926 3.81786 100 163 137
-2.37244 0.8745 3.81263 91 140 112
0.624034 0.957286 4.14154 97 160 144
-2.0924 0.915057 3.83499 88 155 140
-1.40441 0.962431 3.91662 114 177 151
-1.34854 0.976922 3.91854 108 157 141
0.269744 1.03672 4.12454 98 163 148
2.47961 1.08809 4.34081 64 88 86
1.29526 1.07069 4.25897 112 173 159
-1.23326 0.992432 3.92389 72 133 107
-1.39011 0.998183 3.91071 88 146 122
-0.336135 1.05842 4.05265 85 147 135
0.286277 1.07903 4.12746 75 141 116
2.40797 1.13273 4.3275 116 180 145
0.850788 1.10526 4.20806 91 147 136
-1.23008 1.04989 3.93804 73 134 114
-2.23506 1.04846 3.8403 221 251 238
1.44006 1.17957 4.29865 115 167 157
-1.34901 1.08774 3.93673 93 145 128
2.17094 1.21832 4.38532 89 143 126
-1.51852 1.08984 3.91282 188 237 223
-1.5126 1.09481 3.93872 89 135 123
-1.36632 1.09875 3.93083 173 231 220
-1.99841 1.10392 3.88584 95 143 119
-1.4656 1.12017 3.93161 72 126 89
-1.27469 1.12463 3.95195 86 150 114
-1.43563 1.12866 3.94592 62 129 90
-0.823229 1.14118 4.00962 92 154 140
0.859196 1.20757 4.22855 95 140 124
1.46415 1.23536 4.31694 107 163 152
-1.52843 1.12799 3.92695 86 143 112
0.910667 1.21472 4.22798 99 161 147
-1.39623 1.13475 3.93666 82 138 109
-1.55411 1.13707 3.93474 92 165 133
-0.0747549 1.19121 4.11526 97 161 142
-1.88534 1.12618 3.88989 77 138 102
-2.00629 1.13205 3.88659 83 131 95
1.46105 1.2578 4.32322 144 206 190
-2.06724 1.14254 3.88559 76 133 95
-1.71904 1.15637 3.91671 95 159 140
-1.83617 1.15849 3.90146 76 115 94
-1.39324 1.18487 3.95421 66 108 90
-1.31243 1.18324 3.96375 125 191 166
1.51436 1.29917 4.32887 71 95 83
-1.4462 1.19695 3.9447 63 107 78
-1.43249 1.19222 3.94858 74 133 105
-1.37304 1.19635 3.95218 93 130 122
-1.50282 1.21173 3.95135 171 224 215
-1.4774 1.23281 3.95606 98 156 131
0.491508 1.30288 4.19901 82 119 111
0.621776 1.32571 4.2084 83 140 119
-1.77181 1.2593 3.93713 85 128 117
-1.08612 1.29742 4.01874 80 152 130
2.1683 1.43365 4.41339 146 218 175
0.392584 1.37316 4.2011 99 152 139
0.901086 1.40961 4.28216 101 131 120
2.19508 1.46562 4.40115 68 84 61
2.25925 1.48968 4.37824 217 252 218
2.26728 1.51122 4.42336 101 129 109
0.116641 -1.34849 3.62411 136 156 161
0.850978 -1.36213 3.66144 71 124 85
-1.45058 -1.26212 3.40135 114 171 146
-0.825944 -1.2953 3.49677 61 107 71
0.570971 -1.35982 3.6627 132 169 165
0.08856 -1.33301 3.61577 93 108 111
0.779113 -1.36536 3.69905 75 93 70
-1.10095 -1.26762 3.45809 44 94 64
-0.955282 -1.2818 3.49702 86 135 113
0.123588 -1.32367 3.6154 112 152 164
0.251469 -1.32175 3.62226 153 167 185
0.0887213 -1.3093 3.60704 192 207 216
-0.972924 -1.25867 3.47754 47 87 52
-0.849923 -1.24559 3.48088 56 100 61
-0.688286 -1.27135 3.5314 99 142 127
0.079291 -1.29423 3.60085 114 119 120
-0.501957 -1.26789 3.55446 168 218 208
0.106107 -1.28847 3.60211 103 106 114
0.590993 -1.32118 3.68777 110 161 147
-0.943814 -1.24489 3.48932 80 124 111
-0.769778 -1.25371 3.52904 106 165 151
0.0906032 -1.28048 3.60903 188 231 228
-1.18107 -1.21897 3.46759 130 199 162
-0.0377312 -1.25708 3.58059 80 157 159
-0.573692 -1.23543 3.53259 66 116 92
-0.517108 -1.24203 3.54441 98 135 109
0.204833 -1.26383 3.64087 136 166 193
-0.623048 -1.22205 3.5366 83 139 118
-0.0131485 -1.24426 3.60421 90 158 157
0.112886 -1.25081 3.62378 77 101 101
-1.10969 -1.19471 3.4895 75 137 101
-0.176091 -1.23287 3.5897 227 246 253
-0.163773 -1.23105 3.59787 92 110 109
-1.32279 -1.17961 3.4464 89 143 120
-1.27976 -1.18296 3.45837 151 213 189
-1.41261 -1.16661 3.43831 81 140 112
-0.486522 -1.2119 3.56161 91 125 115
-1.27236 -1.17522 3.46954 66 105 90
-1.55863 -1.15774 3.4395 80 135 110
-1.29668 -1.16323 3.46206 156 232 190
-0.97307 -1.17263 3.49354 44 79 45
-0.560198 -1.19376 3.56131 94 143 123
-1.18891 -1.1538 3.47574 88 146 118
0.604754 -1.22896 3.69965 110 168 157
0.801439 -1.23532 3.70453 214 235 232
-1.07702 -1.14302 3.48034 75 117 82
-1.04282 -1.14662 3.50869 76 126 84
-0.977271 -1.15066 3.53447 101 167 132
-1.22845 -1.12637 3.48302 71 116 97
-0.610212 -1.14449 3.55344 135 209 181
-0.0587293 -1.17104 3.62339 123 176 186
-1.50136 -1.11276 3.46499 113 175 153
-1.44204 -1.11372 3.46033 83 143 125
-1.032 -1.13485 3.51975 111 165 142
-1.12852 -1.11254 3.47437 82 107 87
-0.187653 -1.15531 3.60132 73 94 102
-1.31905 -1.10805 3.47444 93 144 130
-0.0773308 -1.15358 3.61907 109 155 173
-1.82731 -1.0911 3.42979 188 228 217
-1.44888 -1.09834 3.45024 143 225 202
-0.192234 -1.14381 3.59951 140 175 185
-0.908471 -1.10901 3.52427 101 153 130
-1.50918 -1.08701 3.46437 104 156 139
-0.17994 -1.12685 3.60124 87 99 105
-1.0472 -1.08436 3.51164 101 145 116
-1.04463 -1.08427 3.50802 107 155 129
-0.820896 -1.09191 3.53894 108 175 166
-0.640589 -1.10318 3.58031 139 211 188
-0.165996 -1.10717 3.61464 56 77 79
0.0118698 -1.12149 3.63748 255 255 255
0.978017 -1.15072 3.75964 227 254 244
-0.201332 -1.08263 3.60326 94 145 148
-0.137639 -1.08657 3.62381 83 140 137
2.0999 -1.1698 3.90082 176 202 202
0.00258021 -1.09023 3.64177 75 110 106
-0.892176 -1.04815 3.54309 84 136 106
-0.521376 -1.04994 3.57245 118 169 161
-2.00421 -1.00486 3.44508 102 164 150
2.3035 -1.13695 3.90491 76 127 113
-1.203 -1.01828 3.5094 170 226 215
0.46408 -1.0712 3.71796 109 171 149
0.191638 -1.05947 3.67795 105 154 132
-0.00137788 -1.04572 3.65204 94 134 129
0.441467 -1.05693 3.71378 87 138 124
-0.923138 -1.00108 3.54181 65 135 88
0.0196767 -1.03786 3.66216 65 112 103
-0.0434772 -1.02613 3.63214 85 156 160
2.1758 -1.07677 3.84829 99 149 117
-0.394143 -1.00959 3.63643 97 126 135
-1.0052 -0.973596 3.53514 90 153 121
-1.47859 -0.947332 3.50317 115 165 153
-1.4196 -0.946465 3.50536 104 172 141
-1.56032 -0.932545 3.49145 90 151 131
-0.0193021 -0.981104 3.67255 72 130 129
0.0557385 -0.982916 3.66964 225 243 244
0.154997 -0.981091 3.69519 118 150 145
-1.3269 -0.932573 3.52752 69 137 120
0.156514 -0.981006 3.71089 118 140 128
-0.909694 -0.933261 3.55539 80 132 108
-0.569956 -0.945831 3.60403 104 151 148
0.187722 -0.971424 3.70535 86 98 80
-0.0767966 -0.954983 3.66275 137 170 179
0.204837 -0.965258 3.71159 170 215 199
-1.2205 -0.910934 3.53166 107 167 156
-0.144408 -0.939526 3.65988 90 129 131
0.682072 -0.947792 3.75097 110 155 136
-0.205895 -0.908053 3.64874 110 135 139
-0.913834 -0.884598 3.57032 79 150 134
-0.502665 -0.891081 3.60986 88 128 133
-0.226153 -0.882164 3.64579 119 131 143
0.246165 -0.898879 3.7101 146 192 179
-0.146359 -0.874745 3.65526 93 99 110
2.00946 -0.907334 3.83796 233 255 233
-0.763783 -0.841404 3.58689 103 168 152
0.783698 -0.877657 3.78291 102 159 151
-0.988886 -0.811356 3.57594 105 167 155
0.214501 -0.843445 3.74277 80 105 91
0.203122 -0.82933 3.72725 109 174 159
1.21153 -0.847653 3.81106 69 128 100
0.388599 -0.827163 3.73959 167 192 208
1.31434 -0.851997 3.84981 38 74 57
0.342452 -0.80395 3.73152 228 240 242
-0.77559 -0.770868 3.60768 86 142 119
1.09689 -0.81881 3.84454 113 142 133
1.32316 -0.826409 3.86476 46 103 72
1.43346 -0.822239 3.86683 98 147 115
0.532725 -0.797415 3.77271 90 105 114
0.375852 -0.788994 3.7662 106 130 150
-0.708515 -0.756066 3.62295 255 255 255
1.17112 -0.794639 3.80202 106 161 136
-0.548405 -0.744035 3.64393 64 122 104
1.50241 -0.79285 3.8622 72 113 86
-0.550734 -0.743479 3.65192 95 150 131
1.33997 -0.778988 3.87552 93 155 133
2.37109 -0.802222 3.97389 67 102 88
-0.368689 -0.728787 3.68866 108 154 142
0.228058 -0.742917 3.74308 61 77 84
2.00525 -0.760877 3.83152 93 138 105
2.03576 -0.758346 3.83645 88 117 102
-1.96848 -0.684272 3.50965 99 159 141
-0.428229 -0.708819 3.66872 255 254 255
-0.0113778 -0.718799 3.7108 78 128 116
0.455581 -0.720646 3.76125 100 129 150
-1.09022 -0.68226 3.59074 106 171 156
-0.382285 -0.693417 3.67378 121 172 158
0.6525 -0.704609 3.82137 132 179 171
1.01016 -0.715324 3.8445 215 240 230
-1.1093 -0.661188 3.59113 82 149 134
-0.551697 -0.67346 3.66925 93 160 145
-0.343623 -0.67843 3.69274 93 124 109
1.44257 -0.719527 3.91917 90 143 123
1.50016 -0.705143 3.91039 106 184 153
-0.339561 -0.661972 3.68511 63 83 64
-0.967304 -0.622926 3.61933 121 183 169
-0.502127 -0.626479 3.68925 200 234 228
-1.11601 -0.61543 3.60157 93 142 114
-1.11324 -0.614738 3.61294 78 128 110
-0.238045 -0.627932 3.72648 90 147 109
-0.207017 -0.630177 3.71106 153 215 197
-1.55974 -0.597849 3.56605 87 139 109
-0.0994827 -0.619071 3.73001 70 134 92
2.39194 -0.654839 3.96926 142 222 179
-0.482413 -0.605944 3.69978 95 164 144
-0.204854 -0.60531 3.70444 145 249 196
-0.169657 -0.602345 3.7153 58 111 78
-0.108592 -0.603572 3.72412 164 223 209
0.236974 -0.609842 3.75815 111 149 151
-0.332229 -0.59526 3.70581 67 121 84
0.0155508 -0.603938 3.7562 77 99 75
-0.123408 -0.591673 3.72617 59 91 67
0.633228 -0.602532 3.819 114 176 160
1.96934 -0.605776 3.83914 113 162 130
-0.580251 -0.575485 3.68243 100 165 149
-0.165733 -0.580249 3.70732 140 238 186
0.0256914 -0.591518 3.75695 148 191 182
0.066183 -0.58812 3.75718 63 89 73
-1.68589 -0.54707 3.55389 76 127 89
-0.108674 -0.57714 3.72956 148 240 189
0.00597957 -0.577742 3.7419 107 135 106
-0.306354 -0.566053 3.70439 126 195 150
-0.136926 -0.57242 3.71526 107 205 151
-1.69348 -0.547483 3.57243 65 106 69
2.38387 -0.601706 3.97661 160 232 186
2.40667 -0.596358 3.96467 80 140 99
-0.418788 -0.556207 3.68887 44 73 40
2.00055 -0.575015 3.83409 123 170 148
-0.390207 -0.548831 3.6952 74 133 95
-0.365039 -0.551773 3.70283 102 144 127
-1.95291 -0.52266 3.53317 87 160 120
-0.244892 -0.545654 3.7026 153 223 206
2.37411 -0.585865 3.98165 108 168 134
-0.365113 -0.548992 3.72571 98 175 141
-1.62445 -0.519054 3.57351 231 255 255
0.147833 -0.55114 3.78211 81 113 89
0.363077 -0.547139 3.79638 110 132 157
-1.81243 -0.510249 3.56539 75 143 108
-1.66392 -0.512261 3.56434 77 124 86
-0.497582 -0.533194 3.68744 84 161 124
0.388371 -0.536831 3.79244 77 81 99
-0.443195 -0.51818 3.708 128 239 177
0.0364848 -0.517691 3.75309 115 163 134
0.0922975 -0.522907 3.78376 119 170 136
-1.96998 -0.485 3.5402 246 255 255
-1.71205 -0.486787 3.56742 85 127 92
-1.55408 -0.49011 3.58716 81 148 116
-0.404857 -0.506738 3.7165 147 215 198
0.144922 -0.518296 3.78174 147 195 183
0.930964 -0.529567 3.8599 96 166 143
0.873269 -0.522953 3.8456 89 145 126
-0.883595 -0.490478 3.66067 95 160 145
0.637698 -0.513689 3.84496 253 255 254
-1.93949 -0.462844 3.5511 67 141 93
-0.867199 -0.480219 3.66135 56 100 87
-0.528592 -0.487914 3.70376 74 132 104
2.27661 -0.526699 3.99764 89 160 143
-1.90717 -0.458752 3.56027 108 161 122
-1.65303 -0.461132 3.58564 80 134 111
-2.10063 -0.449875 3.54365 82 155 123
-1.85601 -0.455499 3.56553 101 161 137
-1.76876 -0.451238 3.57622 87 138 101
-0.766984 -0.468599 3.68287 84 129 113
-0.441352 -0.46579 3.7112 69 139 102
-1.59748 -0.442158 3.58773 81 126 100
-2.15591 -0.431427 3.55605 86 146 116
-1.63352 -0.437933 3.58438 96 151 126
0.6926 -0.467535 3.84442 120 176 153
1.31871 -0.481938 3.93997 106 156 146
1.31667 -0.482405 3.93647 118 170 160
-1.60271 -0.440057 3.60123 87 142 117
-2.10575 -0.424264 3.54882 99 162 136
-1.82157 -0.421312 3.56992 48 90 49
0.131036 -0.444848 3.79925 141 199 188
-2.06844 -0.416184 3.5528 83 154 114
-0.421965 -0.435394 3.72677 68 98 87
-0.370158 -0.429797 3.7217 69 103 79
-2.09021 -0.408463 3.56634 140 232 189
-1.78742 -0.405266 3.58248 79 135 106
-1.67473 -0.409583 3.58689 84 148 118
-0.60828 -0.423696 3.69641 92 150 132
-0.102434 -0.410756 3.58713 65 108 71
0.116866 -0.438968 3.79926 64 81 67
0.0910107 -0.426514 3.78402 51 64 48
-2.00563 -0.400152 3.56855 148 234 200
-2.08309 -0.389617 3.55316 76 113 87
1.76229 -0.443182 4.01084 56 81 61
-1.99088 -0.382322 3.55081 135 236 191
0.0784713 -0.399262 3.79414 75 98 84
0.933286 -0.413352 3.87714 94 149 130
-0.375416 -0.389077 3.7127 48 67 46
-0.523735 -0.38205 3.70389 90 152 112
0.0765311 -0.386823 3.79325 128 175 153
2.17918 -0.407869 3.98331 77 147 117
-1.72615 -0.364787 3.59276 91 142 108
-1.40325 -0.368158 3.63432 89 161 141
-0.52701 -0.379306 3.72037 66 131 86
-1.85478 -0.358239 3.5775 79 125 96
0.124701 -0.371374 3.79929 140 197 176
0.214706 -0.365394 3.80427 92 135 126
-2.20276 -0.332426 3.55634 145 224 185
-0.352409 -0.352391 3.7305 64 88 70
-2.15344 -0.328193 3.55961 57 87 58
-1.21266 -0.338614 3.65739 66 116 98
-0.437047 -0.349773 3.73922 127 215 162
0.189821 -0.355055 3.80516 145 210 194
0.99655 -0.363718 3.9016 91 156 117
-1.74097 -0.332984 3.59832 107 151 122
-1.02516 -0.334332 3.68082 79 158 137
0.217402 -0.350576 3.80946 155 214 200
-1.72737 -0.328964 3.60255 137 221 187
-0.433406 -0.33206 3.71645 58 106 64
0.0629433 -0.344334 3.80427 111 123 117
-0.0928043 -0.318825 3.59979 66 118 81
0.13536 -0.341888 3.78109 125 162 154
2.4244 -0.357178 4.01916 113 173 149
-2.17081 -0.313534 3.56647 117 193 145
-0.091641 -0.317431 3.60711 65 119 84
2.13207 -0.347433 4.00374 85 128 115
-1.57403 -0.30588 3.63231 61 96 62
-1.55797 -0.308795 3.61925 83 127 96
-1.52662 -0.305496 3.6238 96 135 109
-0.425268 -0.320596 3.71123 55 106 62
-1.92791 -0.299761 3.5877 58 108 76
-1.42692 -0.303827 3.63641 106 150 133
-1.90148 -0.297001 3.5888 131 223 182
-0.0685726 -0.30104 3.61636 132 197 152
-1.53036 -0.295376 3.62295 94 123 97
-0.566702 -0.305124 3.73184 71 118 80
0.0715403 -0.306267 3.81085 91 110 95
-2.19564 -0.279059 3.55698 123 192 149
-1.71465 -0.281452 3.60751 82 137 104
-0.415435 -0.294339 3.72273 158 239 190
-0.0807977 -0.281746 3.64136 41 54 40
-2.03393 -0.271419 3.5689 139 227 197
-1.32268 -0.279614 3.65342 92 161 146
-1.13453 -0.278184 3.67259 255 255 255
-2.04064 -0.269448 3.57856 144 231 198
-1.57427 -0.270195 3.62567 147 226 185
-0.407808 -0.276579 3.74096 42 89 87
-0.39095 -0.277357 3.72899 157 230 228
0.287537 -0.283007 3.85892 159 218 204
-1.692 -0.261425 3.59355 161 245 203
-0.147062 -0.261259 3.61251 144 199 184
-1.77771 -0.260608 3.60347 54 92 64
-1.2215 -0.265475 3.66258 63 116 102
-0.170114 -0.259136 3.5896 154 223 186
-1.67765 -0.252332 3.62455 131 208 180
-0.481627 -0.263088 3.74608 58 147 104
0.934045 -0.276046 3.91112 115 176 162
-1.61318 -0.250102 3.64247 47 86 54
0.00556046 -0.248838 3.63924 69 121 91
0.231805 -0.266034 3.82969 127 183 164
-2.02088 -0.234692 3.58845 118 190 148
-1.57884 -0.242712 3.63094 42 57 29
-0.53587 -0.25211 3.77117 83 173 120
2.15923 -0.268808 4.00818 81 115 105
-0.445743 -0.247092 3.7482 94 164 123
-1.53477 -0.231762 3.64257 89 128 102
-0.0779514 -0.22824 3.63656 46 56 39
0.975159 -0.252518 3.92647 123 175 158
2.11614 -0.254356 4.01535 46 62 38
2.14646 -0.256195 4.00237 131 218 168
-1.57748 -0.222999 3.63138 136 191 152
-0.0483376 -0.229567 3.65926 131 198 167
0.252036 -0.236544 3.84986 141 197 184
1.51621 -0.248852 4.01489 68 123 98
-1.88162 -0.223869 3.59824 68 124 81
-1.3939 -0.222422 3.65569 87 131 114
-2.03513 -0.215005 3.58262 58 120 84
-1.53558 -0.21378 3.63788 136 201 169
-1.93326 -0.214188 3.60058 51 83 59
-1.5683 -0.215085 3.63346 58 94 64
-1.44012 -0.214063 3.65488 152 217 195
0.980709 -0.230048 3.9221 112 163 149
-2.05942 -0.205444 3.58217 141 226 188
-1.77067 -0.209245 3.6129 39 85 62
1.0664 -0.225008 3.93382 75 131 108
-2.07744 -0.200384 3.58476 52 112 72
-1.36125 -0.206034 3.66606 77 135 110
-1.32804 -0.202709 3.65514 67 110 89
-1.66536 -0.194632 3.61369 61 121 87
-0.437185 -0.200627 3.75922 198 239 255
0.909199 -0.215059 3.92358 99 155 134
2.18763 -0.217933 4.0296 90 148 119
0.259984 -0.202006 3.8545 118 158 156
1.15821 -0.200205 3.93442 80 124 93
1.54897 -0.20676 3.98621 71 156 124
-0.546433 -0.187599 3.75277 52 102 70
-2.1543 -0.179 3.58744 149 241 206
-1.31324 -0.182058 3.6715 74 121 99
1.16494 -0.196271 3.95373 42 84 53
-1.38396 -0.178447 3.66107 67 117 85
1.14461 -0.191343 3.9592 129 223 189
-1.10907 -0.172153 3.69347 51 121 104
-2.15424 -0.162547 3.59054 53 115 85
-1.76963 -0.167487 3.62566 52 100 74
-1.75102 -0.165948 3.6438 34 98 76
-1.48245 -0.166242 3.64913 64 87 83
-1.45571 -0.167752 3.64094 138 209 176
-1.43701 -0.165851 3.64834 45 72 52
-1.25927 -0.166693 3.67603 148 217 197
2.49497 -0.186086 4.07573 92 153 127
-1.56919 -0.156743 3.63929 58 84 71
2.46539 -0.183323 4.06838 82 125 98
-2.10065 -0.155202 3.58706 49 85 63
-1.5242 -0.15623 3.63958 70 109 84
-1.4623 -0.158937 3.62509 129 184 157
-1.61099 -0.147086 3.6454 52 83 54
-0.517531 -0.158062 3.77223 66 130 95
-1.44248 -0.149604 3.65131 154 215 181
0.686411 -0.148399 3.91696 105 162 141
-1.89299 -0.131211 3.61802 119 211 158
-2.07651 -0.124906 3.5963 71 125 90
-1.61676 -0.127939 3.61412 52 69 60
-1.41295 -0.126035 3.66877 127 196 153
0.774572 -0.127348 3.92188 96 132 118
-1.67413 -0.117005 3.61979 50 93 56
2.45817 -0.123387 4.07919 46 56 43
1.74607 -0.123495 3.98058 115 164 144
2.11692 -0.121126 4.02782 176 230 213
2.1518 -0.120007 4.00379 104 163 125
-1.38027 -0.102575 3.67321 67 115 86
-1.60363 -0.0955308 3.62915 120 185 169
-1.40221 -0.0953986 3.67938 123 185 161
-1.37278 -0.0945104 3.68087 63 100 80
0.999629 -0.0994201 3.95289 114 174 150
-1.27553 -0.0923632 3.68898 166 214 215
-2.08525 -0.0847456 3.59749 76 143 106
-1.97338 -0.0834267 3.61818 37 88 54
-1.39806 -0.0807166 3.68216 63 87 69
-1.60458 -0.077869 3.63851 66 104 122
-1.40618 -0.0796439 3.66437 121 162 134
-2.06026 -0.0649835 3.61974 45 96 58
0.475075 -0.0764096 3.91292 144 210 199
-1.65682 -0.0675308 3.66378 46 58 46
0.191692 -0.0692837 3.86431 116 182 170
2.16428 -0.0714998 4.03045 40 66 50
2.45299 -0.0734448 4.02536 33 40 27
-1.93767 -0.0549928 3.63137 83 144 108
-1.38585 -0.065037 3.68577 75 99 87
-0.408953 -0.0614922 3.79578 79 132 93
1.304 -0.0684428 3.99399 57 119 83
1.36033 -0.0683992 3.97994 68 125 100
2.14119 -0.0645283 4.03172 135 208 170
-1.64108 -0.0546653 3.64374 45 55 43
1.07314 -0.0553132 3.98882 86 144 120
1.85533 -0.0607778 4.01707 154 232 201
2.37028 -0.0583403 4.0399 89 138 110
0.402797 -0.0534939 3.8899 96 127 120
1.92544 -0.0551606 4.00244 94 148 125
1.72257 -0.0516956 3.98686 144 225 180
2.04136 -0.0520545 4.00957 143 215 169
-1.78894 -0.0381965 3.64768 73 127 84
-1.67947 -0.0412472 3.62846 47 84 44
-1.485 -0.0395337 3.6227 119 152 137
-1.46966 -0.0383131 3.6191 139 187 169
-0.500994 -0.0375218 3.80144 81 129 111
2.49558 -0.0459334 4.02914 131 176 127
2.49309 -0.0470063 4.02459 135 179 132
-1.94177 -0.0312263 3.61945 50 101 64
-1.70494 -0.0372559 3.61063 58 104 62
-2.17978 -0.0299105 3.61018 125 197 161
-1.79207 -0.0323253 3.62932 122 194 148
-1.54271 -0.0285354 3.60935 93 136 127
-1.94891 -0.0279219 3.6318 33 81 45
-1.92919 -0.0272997 3.64672 55 110 71
-1.17316 -0.0217534 3.71135 78 137 122
-0.472575 -0.0273282 3.80236 79 126 104
2.04383 -0.0255705 4.02977 39 64 50
2.42169 -0.0221102 3.99886 61 98 72
-1.47794 -0.0212655 3.60927 121 173 143
-1.30298 -0.0156727 3.69981 155 215 209
1.0818 -0.0129408 3.99241 89 154 128
2.05828 -0.0107528 4.0077 50 74 64
-1.98309 -0.0095826 3.64599 152 225 187
-2.05999 0.000896361 3.63092 73 105 86
-1.42655 -0.000148682 3.67637 121 186 140
-0.384197 -0.000188017 3.80279 81 135 105
2.28025 -0.0021101 4.09652 84 133 105
2.45369 0.00259114 4.00487 154 217 178
-1.90658 0.00589676 3.64914 49 74 48
1.37798 0.00505806 3.97216 96 161 129
2.44999 0.00199084 4.00256 155 221 180
-1.66879 0.00742966 3.63819 52 90 62
-1.60156 0.00634602 3.62518 77 108 111
-2.18565 0.0131773 3.61799 72 116 85
-2.00789 0.0109472 3.62701 116 179 139
-1.68404 0.0139351 3.62182 104 149 110
-1.40025 0.0112522 3.69157 133 204 161
-1.37506 0.0123864 3.7051 84 130 111
-0.463441 0.0132039 3.83891 98 148 124
-1.9933 0.021614 3.6394 125 190 145
-1.89816 0.0228994 3.65022 110 183 143
0.753266 0.0202524 3.94744 124 179 162
-1.407 0.0302085 3.69662 51 80 54
-0.432905 0.0308477 3.82678 96 155 134
-2.20478 0.0272718 3.62138 129 218 168
-1.66778 0.0300978 3.62437 121 199 152
-0.655496 0.0312819 3.79021 82 136 119
-1.69732 0.037678 3.60829 123 199 151
1.10459 0.0438268 4.01145 88 140 117
1.19802 0.0420909 4.00699 90 148 130
-2.03345 0.0377434 3.63469 134 208 172
-1.67749 0.0390447 3.61793 45 90 57
-0.302866 0.0450729 3.82764 91 158 127
-2.09889 0.049962 3.62794 97 147 123
-1.33709 0.0511832 3.71753 51 105 92
2.45032 0.0560248 3.985 161 229 194
-1.6566 0.0557263 3.63514 52 108 65
-1.43723 0.0587235 3.69113 51 99 71
-0.443037 0.0629949 3.82245 114 176 158
1.43368 0.061251 4.00507 122 175 155
1.06834 0.0659205 4.00287 100 161 147
-1.70982 0.0635999 3.62096 67 99 64
-1.37183 0.0656947 3.71216 52 98 75
-1.64523 0.0716317 3.64121 105 176 126
-1.40733 0.0699488 3.7153 79 136 115
-1.38292 0.0731775 3.69803 162 226 197
2.29741 0.0808427 4.1005 81 138 107
-1.84985 0.0704748 3.66605 91 158 121
-1.6287 0.0772635 3.66588 60 110 116
-1.44254 0.0752014 3.6979 114 179 153
-0.814812 0.0755702 3.79125 82 153 133
0.731162 0.0824441 3.96976 117 188 178
1.82581 0.0878269 4.0769 85 120 110
2.36764 0.0803685 4.05607 156 229 191
-1.08138 0.0878501 3.74609 89 160 134
1.47171 0.0955761 4.00145 118 190 160
2.31624 0.0919037 4.10279 156 221 189
-1.66853 0.0951396 3.63943 121 224 167
2.37015 0.102559 4.05971 54 76 58
-2.25279 0.0957316 3.62937 61 120 99
-1.90879 0.100176 3.67941 52 78 62
-0.993547 0.10208 3.75788 68 130 112
0.83328 0.110209 3.98756 99 164 148
2.3349 0.114618 4.09039 134 190 171
-1.50793 0.104683 3.66519 60 89 56
-1.35386 0.102589 3.7149 150 217 202
-0.206795 0.110102 3.85615 90 155 139
-1.45734 0.109474 3.70476 35 45 28
-2.10862 0.110466 3.62843 31 53 34
-1.92355 0.110016 3.65796 146 212 177
-1.35065 0.117006 3.73073 72 123 103
-1.43078 0.120803 3.71198 112 164 124
-1.03917 0.120791 3.75924 55 110 93
-1.60484 0.123281 3.65986 80 113 92
-1.49182 0.128754 3.69915 105 155 121
1.92515 0.140242 4.04656 85 143 114
-2.07461 0.133316 3.64053 65 101 77
-1.6751 0.131917 3.65795 75 128 89
-2.01219 0.139248 3.66265 40 69 46
-2.17703 0.139836 3.62671 73 142 105
-0.485128 0.144387 3.82143 111 167 148
-2.11798 0.144925 3.63508 60 99 77
-1.39427 0.149607 3.72727 55 93 71
0.958504 0.16412 4.01119 110 151 143
-2.24976 0.157475 3.63267 72 132 98
-1.85555 0.157036 3.66562 134 215 190
-1.41705 0.161236 3.73172 116 170 157
2.02979 0.176716 4.06428 92 137 120
-1.56267 0.159054 3.67639 150 217 188
-1.38919 0.164683 3.73142 146 204 193
-0.0418483 0.174462 3.89393 105 165 147
1.28966 0.179596 4.04585 89 133 120
-2.09752 0.168159 3.6396 143 220 182
1.30618 0.185863 4.04088 157 220 200
2.00283 0.185033 4.05103 90 110 111
-1.99574 0.177569 3.67605 45 112 75
-1.86322 0.176063 3.68259 45 90 57
-1.56138 0.172681 3.69081 33 85 61
-1.40525 0.175835 3.73511 77 122 103
-1.96701 0.177793 3.65052 74 142 107
-1.96302 0.175587 3.68024 141 232 187
-1.88118 0.181144 3.6709 131 220 181
0.167605 0.186972 3.91251 106 165 145
0.942347 0.194771 4.00874 115 161 142
-1.74103 0.18653 3.67168 154 232 195
2.38026 0.207187 4.0345 77 119 101
-2.0003 0.186894 3.65944 131 216 171
-1.82533 0.192131 3.69017 45 98 55
-1.85844 0.202408 3.69288 88 142 107
-1.41269 0.208319 3.743 61 84 70
-1.99229 0.20863 3.6741 148 232 190
-1.9764 0.21442 3.66818 82 140 105
0.817848 0.237845 4.00782 80 145 124
1.80719 0.242609 4.06868 137 188 174
-1.9804 0.219469 3.67332 53 100 74
-1.84041 0.221064 3.69515 90 149 121
0.327363 0.253072 3.94989 97 151 138
-1.83636 0.240937 3.71528 135 215 180
-1.26185 0.247285 3.76797 79 157 134
-1.79712 0.246771 3.70603 80 130 106
-1.89031 0.251524 3.68854 70 132 96
-1.66959 0.257741 3.72077 50 107 74
-1.56453 0.263786 3.72065 107 158 138
-0.313826 0.280522 3.89516 72 115 88
-1.92561 0.267938 3.69206 69 106 90
0.216058 0.285701 3.94579 102 163 149
-1.97728 0.279526 3.67739 53 94 66
-0.793751 0.284893 3.8468 94 162 139
-1.46487 0.289917 3.75461 96 152 131
-1.65003 0.293582 3.72857 87 138 111
-0.87643 0.303492 3.82193 76 148 128
-1.71379 0.305271 3.7286 68 119 81
-2.05733 0.310703 3.69968 70 135 113
-1.43192 0.305301 3.75303 87 143 120
-1.34604 0.307763 3.76206 82 134 111
-2.02705 0.310187 3.69882 59 115 94
-1.90281 0.312482 3.70061 90 136 107
-1.69351 0.315189 3.73142 130 199 162
-1.77046 0.322711 3.73083 91 139 113
-2.0321 0.327819 3.7098 77 114 88
-1.87932 0.332162 3.72733 100 163 143
-1.85024 0.328365 3.72018 92 153 139
-2.17404 0.336587 3.70812 86 159 127
-1.32957 0.340447 3.77906 100 153 140
-2.0069 0.342701 3.72093 85 154 117
-1.71843 0.337398 3.72327 76 146 99
-1.46309 0.349795 3.76935 86 140 117
-1.96189 0.34778 3.71308 85 136 108
-1.62997 0.359927 3.75695 79 132 112
-1.47385 0.37637 3.77628 93 158 142
-1.83678 0.383325 3.7374 59 110 82
-1.55742 0.386608 3.76993 69 121 97
-1.50523 0.399045 3.77353 50 74 50
-0.860034 0.408871 3.85209 83 148 146
0.644671 0.424221 4.03163 104 149 146
-1.42213 0.397626 3.7748 90 146 127
-1.673 0.40644 3.75535 100 147 115
-1.54289 0.411071 3.76811 73 135 89
0.785022 0.448129 4.0455 103 172 159
-1.66104 0.419886 3.76152 79 122 95
-1.60405 0.422951 3.76743 68 108 80
