ply
format ascii 1.0
element vertex 573
property float x
property float y
property float z
property uchar blue
property uchar green
property uchar red
end_header
-9.63994 -7.89581 17.5826 83 143 125
-4.10995 -6.1328 20.0258 84 149 133
-5.86247 -5.67099 18.9446 150 213 193
-3.93781 -6.04132 20.4304 76 132 111
-9.44703 -4.1423 16.1565 133 202 189
-6.41247 -4.58592 18.7916 76 142 137
2.156 -4.51452 22.8705 165 203 197
1.81542 -3.97364 22.0461 136 197 171
1.55415 -3.90427 22.0349 97 128 127
0.474223 -3.14814 22.1952 137 189 165
-10.7431 -1.96176 13.6581 84 159 127
-4.36908 -2.65867 19.4746 159 223 204
-9.01404 -2.02984 16.0827 72 151 124
-11.3351 -1.54231 13.1675 156 241 203
-8.01441 -1.47263 16.8877 93 157 138
-8.53978 -0.41016 16.4032 71 133 115
-8.50216 -0.392761 16.281 137 199 177
-2.18996 -0.129806 21.0599 98 151 148
-8.34299 0.0791083 16.1758 135 176 161
-11.2433 0.12045 11.8473 151 201 191
-11.0583 0.481143 12.6638 91 145 138
-10.9027 0.623675 12.873 115 169 139
-10.408 0.883752 13.6857 74 136 118
-11.3528 0.898473 11.2135 197 203 222
-9.92411 1.53998 14.591 78 129 101
-6.11826 2.75488 18.1876 96 115 96
-6.00601 2.89624 18.3178 76 114 92
-5.72481 3.17446 18.4203 77 126 112
-7.54286 2.87122 16.9551 223 255 251
-5.83336 3.32482 18.9111 137 185 167
-6.38189 3.15101 18.0051 112 133 124
-9.55092 2.59139 14.4858 91 157 145
-9.12002 2.7687 15.1771 148 222 210
-6.49368 3.71983 18.4657 80 116 92
-10.2213 2.71789 13.5657 105 130 132
-6.145 3.85534 18.2523 72 124 107
-6.18079 3.93275 18.1516 64 118 113
-5.82714 4.82256 18.6519 117 173 160
-10.7817 -6.25795 15.9563 155 215 197
-4.86833 -6.14731 20.0586 70 135 103
-9.53325 -4.37381 16.3255 58 108 76
2.41133 -4.43019 22.3327 162 226 191
-6.68354 -3.10032 18.1531 90 146 133
-10.7336 -1.95989 13.6447 84 159 127
0.418839 -2.93583 22.3286 73 118 91
-9.51047 -1.99971 15.3712 83 146 120
-8.98679 -2.02379 16.0282 68 149 122
-10.5885 -1.71863 14.0414 71 148 104
-11.3031 -1.28572 13.0993 79 143 113
-10.3295 -0.988982 14.0423 79 159 130
-10.0015 -0.583459 14.8312 50 120 84
0.494435 -0.489916 22.1981 112 159 156
-8.65761 0.050801 15.9599 132 200 175
-10.9741 0.315906 12.6758 157 188 185
-10.9962 0.425908 13.1422 136 171 167
-10.7431 0.730465 12.8177 101 130 107
-10.3025 0.795879 13.6314 123 172 150
-11.3608 0.899486 11.2222 197 203 222
-6.33315 2.21325 17.9054 70 101 94
-6.36072 2.6684 18.3125 118 161 148
-6.70048 2.89536 17.9714 69 130 126
-5.95908 3.28702 18.7798 155 211 192
-9.94175 2.40837 14.3093 99 193 169
-6.17577 3.4133 18.5993 129 161 150
-6.19099 3.36408 18.2996 129 175 163
-9.54081 2.5883 14.4688 99 165 153
-5.94221 3.44315 18.486 48 84 72
-6.47345 3.65644 18.0812 221 237 243
-11.1509 -7.16248 15.7085 102 166 154
-9.82933 -7.81655 17.2623 75 131 120
-12.1372 -6.25033 14.1263 104 146 139
-10.0785 -7.47905 17.0104 37 96 75
-2.33186 -9.1734 21.3483 77 152 138
-5.06729 -8.23594 20.4511 105 159 159
-10.7373 -6.09209 15.7459 98 162 150
-9.62185 -6.63223 17.4283 76 136 118
-12.8036 -4.6958 12.3004 145 191 178
-8.00141 -6.38378 18.0561 75 132 123
-9.27428 -5.6819 16.6595 70 104 93
-6.22976 -6.29336 19.396 82 139 118
-10.4355 -5.02629 15.8877 111 169 141
-5.27495 -6.04703 19.7877 75 136 116
-10.6223 -4.41942 15.2093 89 151 127
-9.67375 -4.47381 15.905 51 90 68
-5.56352 -5.35487 19.2019 73 117 100
-9.34121 -4.58544 16.5074 107 156 140
-5.20472 -5.24788 19.2834 103 157 150
-10.515 -4.14069 15.1697 121 177 158
-9.38821 -4.25367 16.1322 125 209 185
-10.2641 -4.05107 15.6144 107 133 120
-9.45158 -4.13014 16.1228 82 151 136
-7.90944 -4.50799 17.6703 100 152 135
-11.586 -3.454 13.4121 71 141 105
-10.1575 -3.88818 15.5488 106 159 145
0.799418 -5.40198 22.2865 85 143 115
-11.7446 -3.20021 12.8619 76 132 113
-6.35872 -4.55506 18.7013 73 134 124
-9.45749 -3.85213 16.0203 69 144 130
-5.54018 -4.49548 19.057 92 136 119
0.443563 -4.96629 21.7945 100 138 120
-12.1052 -2.78726 11.8436 111 175 170
-7.45977 -4.006 17.7272 85 144 130
-5.16578 -4.42161 20.0144 96 148 125
-5.38991 -4.27758 19.446 71 115 86
-5.3911 -4.18586 19.1769 75 125 113
-11.1677 -3.20767 14.4937 74 147 125
-3.75877 -4.34795 20.3086 94 143 121
-5.51124 -4.11234 19.3633 55 113 84
2.14344 -4.44869 22.5228 169 210 205
-11.1206 -2.86128 14.1308 130 188 164
2.48441 -4.34316 22.4134 148 192 185
-9.9343 -3.01601 15.3454 84 148 143
0.178282 -4.12271 21.8921 147 218 178
-11.4612 -2.53034 13.0331 78 144 115
0.652522 -4.08558 21.9161 89 120 123
2.51505 -4.1314 22.5774 89 147 129
-11.506 -2.41451 12.8011 91 154 138
2.04297 -4.09747 22.8727 125 179 166
-8.1263 -3.15888 17.3435 86 158 138
2.42477 -4.02312 22.7912 104 151 149
-6.34713 -3.31587 18.4056 86 166 143
-11.0342 -2.53315 13.793 92 155 135
-5.62788 -3.44939 19.3248 98 122 110
-9.96809 -2.69638 15.0894 90 157 150
-11.2607 -2.37285 13.2428 87 162 134
-6.6938 -3.10509 18.1857 83 139 126
-10.7188 -2.45786 14.1871 91 143 119
3.06602 -3.62943 22.4969 122 179 171
1.54049 -3.56494 22.6085 96 130 123
-11.4558 -2.1695 13.1331 92 165 149
0.976061 -3.43865 22.0666 151 218 179
-6.86189 -2.76063 17.9701 73 139 120
1.78139 -3.31252 22.6363 160 217 184
-9.88225 -2.2628 15.2849 78 148 118
-3.85434 -2.76575 19.7908 116 151 165
-10.7987 -2.01954 13.9618 73 140 119
1.28884 -2.9748 22.31 184 227 216
-9.565 -2.00059 15.2251 85 167 138
-10.3194 -1.88824 14.3774 131 210 167
-12.0362 -1.46461 11.0631 153 187 180
-10.3721 -1.86017 14.6888 143 211 180
-10.4884 -1.8245 14.5042 73 147 113
-7.77516 -1.99294 16.8955 87 150 130
1.77042 -2.56238 23.2745 79 138 117
-6.66851 -2.03989 17.8778 103 167 148
-7.61227 -1.84409 17.2033 84 135 108
-11.1741 -1.40465 12.9798 77 160 122
-11.2025 -1.27937 12.9718 79 137 102
-11.3035 -1.28859 13.0999 76 143 111
-7.69588 -1.55259 16.9841 70 129 109
-10.0926 -1.36418 14.6991 84 142 117
-10.8334 -1.26178 13.8557 94 171 137
-10.2459 -1.01396 14.2704 152 221 194
-10.5492 -0.947648 13.8243 61 145 110
0.921083 -1.08563 22.6256 70 120 102
-0.272293 -0.764285 22.7475 135 200 185
-9.91086 -0.563022 14.6314 124 190 161
-7.39165 -0.522503 17.1788 213 251 251
0.444768 -0.468291 22.1352 154 211 202
-11.5872 -0.344618 11.5147 133 193 183
-8.70934 -0.294947 16.5662 112 152 127
-0.317705 -0.113735 21.7749 69 138 118
-8.41511 -0.0481022 16.2016 98 137 116
-5.3362 0.0305393 18.898 93 155 139
-11.2904 -0.082906 12.1072 106 118 100
-6.72079 0.0352619 17.8758 96 171 143
-8.76261 0.00923966 15.8474 95 171 159
1.10733 0.355454 22.7654 99 152 138
-11.1668 0.0392883 12.1388 111 125 121
-11.1632 0.0388487 12.1345 111 125 121
-8.77253 0.150009 16.0776 104 148 125
-11.2519 0.0783864 12.1796 124 147 139
-11.4647 0.137217 12.459 123 154 147
-1.93194 0.643972 21.4094 90 137 129
-11.2466 0.234802 12.5219 120 140 135
-8.72685 0.394597 15.9441 138 196 168
-8.47255 0.402816 16.0364 116 167 160
-8.67194 0.463136 15.8488 84 144 126
-10.9736 0.33432 12.7049 83 121 123
-11.2233 0.32906 12.2836 119 170 163
-10.9676 0.348889 12.6653 168 213 217
-10.7574 0.412573 12.8266 139 187 181
-10.9166 0.402742 12.5871 97 113 119
-10.9456 0.423692 13.0735 136 177 172
-11.066 0.459761 12.214 160 192 197
-11.0954 0.498748 12.6901 90 132 125
-9.90392 0.63005 14.1368 78 102 84
-10.4731 0.85311 13.8502 118 171 162
-10.4424 0.876773 13.5382 147 205 194
-10.8212 0.926526 12.8721 144 192 186
-10.6747 0.943153 12.9992 129 163 153
-10.7691 1.01964 13.0782 140 198 187
-9.93562 1.56019 14.4627 83 138 123
-9.89117 1.56375 14.4563 120 180 169
-4.0173 2.37912 19.9504 101 154 141
-6.48321 2.16876 18.1722 88 149 139
-9.25617 1.77654 14.9412 139 236 202
-4.13702 2.73863 20.3627 80 148 131
2.5892 3.46839 23.2709 157 226 211
-6.51564 2.60412 18.031 68 100 89
-6.57934 2.72479 18.2669 98 126 107
-7.01052 2.71643 17.8532 56 96 94
-9.90565 2.08416 14.0363 57 114 89
-6.89555 2.75712 17.7832 122 152 157
-10.3261 2.03723 13.4437 95 152 137
-6.92695 2.84532 17.5489 74 109 105
-5.96078 3.11893 18.6771 69 101 82
-6.50238 3.05596 18.1611 84 116 115
-6.48488 3.05116 17.7947 62 112 108
-9.6147 2.40634 14.3503 93 165 152
-5.78331 3.28986 18.727 136 186 168
-7.6062 2.95408 17.0685 248 253 254
-6.65332 3.16858 18.0995 74 115 108
-6.49177 3.16445 18.0479 137 184 182
-6.11532 3.24204 18.1844 86 134 122
-8.93991 2.76003 15.4219 236 255 255
-8.61678 2.91825 15.8141 246 255 254
-9.16389 2.84104 15.2694 92 150 149
-5.82933 3.73877 18.4527 149 202 189
-6.51615 3.74235 18.5619 89 124 98
-6.46539 3.62763 17.9741 102 118 135
-6.17251 3.87804 18.2736 78 112 101
-6.14501 3.90882 18.227 45 59 57
-5.54416 4.61375 19.0267 124 178 149
-5.63141 4.63527 19.0997 94 137 116
-5.61489 4.62153 18.8994 159 204 187
-5.64325 4.61533 18.7472 144 210 191
-6.18578 4.872 18.4848 117 175 170
-10.8665 -7.29684 16.3253 73 125 115
-10.2242 -7.61308 17.2026 48 108 68
-10.2949 -7.43944 16.8874 71 130 110
-10.3724 -7.26016 16.637 88 142 129
-11.5136 -6.49788 15.1706 99 158 150
-9.07417 -7.61024 17.7879 185 217 212
-10.0633 -7.15227 16.7331 86 131 128
-9.99166 -7.21357 16.9214 100 153 139
-6.3866 -8.33036 19.5957 85 139 126
-10.7343 -6.52103 15.8188 98 154 141
-12.3546 -5.53977 13.4618 92 148 129
-9.894 -6.87439 17.1537 95 149 132
-10.7559 -6.2541 15.8883 147 220 204
-9.70518 -6.74436 17.1375 81 138 117
-10.8044 -6.13594 15.8542 100 165 149
-12.6603 -4.54437 12.0703 115 163 151
-9.2438 -5.60136 16.864 61 111 101
-4.08277 -6.19525 20.9228 105 154 134
-6.1652 -5.58994 19.1753 80 136 117
-11.3748 -4.12479 14.0324 81 152 135
-9.5681 -4.56952 16.13 46 97 70
-10.2587 -4.34386 15.3526 103 157 128
-9.75272 -4.42664 15.8864 116 179 163
-5.76001 -5.23647 18.9232 91 139 121
-12.0131 -3.44086 13.0442 80 135 120
-9.58994 -4.19577 16.1159 74 139 113
-10.0922 -4.02514 15.5932 86 138 121
-11.6609 -3.4766 13.485 79 147 106
-6.32998 -4.67923 18.4939 77 128 108
2.96737 -5.52369 22.3841 79 133 128
-4.44917 -4.70232 19.8765 82 138 119
-5.51682 -4.47715 18.996 87 136 116
1.82822 -5.01864 22.0076 76 117 102
-10.2889 -3.55802 15.4823 88 142 125
-7.46221 -4.00711 17.7339 85 144 130
-11.4608 -2.97728 13.2882 90 168 144
-4.27327 -4.3031 19.7898 59 96 80
-11.0728 -2.97015 13.9444 51 108 77
2.93608 -4.69478 23.3469 147 205 181
2.15136 -4.45998 22.5802 169 210 205
-10.0216 -3.04497 15.4951 93 156 146
-11.5232 -2.54712 13.0914 81 142 114
2.42476 -4.02311 22.7911 104 151 149
-11.0387 -2.53317 13.7991 92 155 135
-9.85224 -2.83579 15.5834 80 151 134
1.17858 -3.82169 22.1376 86 153 116
1.48206 -3.75162 21.9459 148 209 183
3.07419 -3.6376 22.5424 128 180 173
-11.5253 -2.18438 13.2203 99 172 156
-11.6249 -1.94505 11.9633 85 148 132
0.840728 -3.18658 21.9395 150 213 197
-11.0606 -2.1061 13.7603 91 151 121
1.69536 -3.09493 22.4321 135 153 170
2.92963 -3.19569 23.2236 100 153 144
-0.0100786 -3.01045 21.8478 52 74 46
-10.9588 -1.97224 13.7925 94 161 140
-11.8456 -1.7428 12.0192 88 120 109
2.04258 -3.025 22.6976 184 226 225
2.18709 -2.94362 22.8811 95 136 131
-10.5167 -1.93606 14.2373 83 142 114
-10.3545 -1.86974 14.2257 86 149 117
0.855339 -2.586 22.4074 89 139 115
1.95641 -2.51973 22.3427 73 116 103
1.6542 -2.45605 22.3086 79 125 106
1.94197 -2.27915 22.3803 67 123 88
-10.7866 -1.44625 13.7863 212 255 243
-7.64569 -1.69237 17.2539 95 150 125
-11.2838 -1.28537 13.0749 79 143 113
-9.58982 -1.4236 15.2529 71 142 116
-9.99018 -1.15624 15.0736 91 150 122
-10.3448 -1.08867 14.2818 160 240 203
-1.08672 -1.08483 21.2447 207 240 236
-2.08534 -0.845384 21.2185 184 225 227
-2.24412 -0.794756 21.0659 78 131 117
1.15794 -0.763978 22.4325 184 224 222
-10.0117 -0.539023 14.7552 65 115 91
1.56383 -0.46341 22.019 179 233 220
-11.5737 -0.345013 11.5 136 196 188
-10.1982 -0.282368 14.5673 46 81 54
-2.19152 -0.135441 20.9281 100 159 151
-8.52912 0.103463 16.2026 104 149 122
-8.70495 0.148126 15.8212 56 130 106
-6.53748 0.342836 17.9613 131 170 184
-8.39056 0.377445 16 59 94 80
-11.3161 0.233004 12.3727 165 213 214
-8.45119 0.401494 15.9907 116 167 160
-1.25736 0.725456 21.6261 201 230 235
-11.1679 0.256517 12.3001 134 183 175
-11.2177 0.328842 12.2769 116 167 160
-11.1624 0.395878 12.3967 116 139 134
-11.4302 0.462442 12.532 102 132 121
-11.0602 0.477623 12.42 110 144 143
-11.0546 0.492908 12.639 111 144 137
-11.1878 0.50941 12.2589 105 143 137
-10.761 0.801963 12.9067 96 128 104
-10.3501 0.841269 13.2951 93 162 142
-10.2777 1.01551 14.3896 95 133 115
-11.3041 0.73338 11.098 96 146 152
-10.3773 1.15186 14.3646 83 128 112
-5.84502 1.64666 18.9866 91 149 121
-10.1843 1.32543 14.2062 72 137 121
-10.1565 1.37926 13.9533 99 170 150
-10.1026 1.42842 13.9973 61 115 86
-10.2531 1.49339 14.3519 44 98 69
-9.89785 1.5412 14.3667 66 115 101
-6.34138 2.23854 17.59 74 126 116
-6.71049 2.59793 18.0011 72 99 90
-6.12609 2.76491 18.3498 102 156 133
-6.52253 2.77609 18.1182 124 167 156
-9.90089 2.16665 14.1546 201 240 249
-10.1795 2.15154 13.7119 87 147 136
-6.52382 3.07128 18.2422 64 93 90
-6.20873 3.1751 18.6145 107 171 152
-6.50499 3.06184 17.8597 58 109 105
-6.61342 3.15364 17.9576 84 129 120
-9.5354 2.58403 14.6226 247 255 255
-6.23112 3.46022 18.131 60 106 84
-6.26554 3.4992 17.8714 36 36 30
-6.5302 3.64732 18.475 31 42 32
-6.59648 3.75863 18.5286 237 244 247
-6.53085 3.9554 18.4681 88 137 153
-5.61627 4.62126 19.0375 96 138 120
-9.08758 -7.62135 17.8173 191 228 220
-11.8127 -6.26264 14.678 79 123 116
-9.95287 -7.27598 17.2636 76 133 118
-12.4512 -5.41547 13.1417 95 141 128
-12.3601 -5.54527 13.4684 92 142 124
-12.4357 -5.50335 13.6937 88 128 117
-12.6526 -4.73382 12.3403 83 118 98
-12.663 -4.63876 12.1648 134 180 167
-12.7966 -4.6901 12.3039 152 205 185
-9.33252 -5.69931 16.7881 79 136 121
-6.34794 -6.33372 19.0568 94 153 139
-10.1048 -5.0236 15.9566 131 187 174
-10.0688 -4.58307 15.7751 109 147 129
-10.1636 -4.38951 15.3508 129 193 174
-9.83153 -4.59499 16.3049 55 100 81
-9.82878 -4.42307 15.9051 86 124 112
-9.6695 -4.48756 16.2895 78 121 106
-10.114 -4.27336 15.6832 111 176 161
-9.55052 -4.49258 16.6747 89 145 126
-9.62799 -4.40331 16.5008 65 116 88
-10.1198 -4.19874 15.712 86 127 119
-10.002 -4.06055 15.4904 113 181 170
-6.34532 -4.69105 18.5468 80 131 111
-6.26609 -4.8392 19.0895 81 120 104
0.433809 -5.50215 21.9796 117 162 153
-9.62379 -3.83784 16.2363 79 136 127
-11.7162 -3.02152 12.7724 60 96 90
-8.22043 -3.88934 17.1128 184 228 229
1.52684 -5.08709 23.1574 168 225 217
2.39989 -4.88558 22.3924 94 159 134
-10.8945 -3.1263 14.1049 81 149 124
-11.5163 -2.90756 13.256 84 158 132
2.01809 -4.74892 23.0039 86 148 126
1.28329 -4.59135 22.3414 205 236 233
-11.8333 -2.71629 12.7716 107 160 147
-11.6323 -2.68728 12.8732 104 164 146
-0.326356 -4.28068 21.7301 69 127 109
-6.00194 -3.64613 18.667 77 137 113
-3.36086 -3.93126 20.6199 175 210 220
1.02351 -4.20472 22.3773 106 162 143
1.74508 -3.99327 22.2347 150 220 189
1.40696 -4.1682 23.2703 92 142 132
-11.5265 -2.45896 13.2171 87 158 138
1.15412 -3.77556 22.6493 95 139 122
1.84543 -3.87191 23.245 85 134 114
-11.5714 -2.15634 12.8201 91 149 124
2.25575 -3.60239 22.8108 97 128 125
1.56375 -3.5331 22.4473 88 120 115
-4.76205 -3.1 19.4974 74 113 98
-11.6537 -1.94925 11.9957 93 156 140
1.30396 -3.35736 22.2574 69 115 93
2.9459 -3.30777 22.6844 98 137 146
-11.0438 -2.10272 13.7374 91 151 121
-11.9366 -1.53686 10.881 96 108 102
0.205995 -2.78908 21.4635 70 99 66
-9.43104 -1.96797 15.2059 101 171 140
-10.5525 -1.83487 14.6017 78 154 120
-7.89741 -1.86218 17.1726 100 164 129
-11.8237 -1.34679 11.9327 75 99 81
-11.1924 -1.44976 13.1393 69 132 100
-9.60689 -1.42845 15.2832 68 141 115
-10.3667 -1.03339 14.304 58 107 79
1.95385 -0.941486 22.6454 142 205 185
2.08196 -0.928155 22.1063 164 218 205
-11.8388 -0.58181 11.8415 68 92 74
1.19106 -0.764906 22.6266 181 217 217
-7.45302 -0.522313 17.3427 209 249 247
0.609939 -0.486915 22.5197 188 223 227
-11.5899 -0.35799 11.4668 106 152 146
0.464582 -0.375535 22.351 190 228 228
-8.53938 -0.236878 16.1658 72 100 77
-11.5766 -0.183201 11.0186 90 146 127
-8.59288 -0.118392 16.1321 121 183 169
-8.45609 -0.12718 16.1784 98 131 110
-8.75824 -0.0134122 16.2027 77 104 84
-8.75382 0.058009 16.1428 132 200 175
-8.30742 0.158359 16.4323 114 167 154
-8.78631 0.190644 16.0241 120 196 172
-11.1347 0.14199 12.0775 115 151 145
-8.70663 0.26448 15.8713 73 115 92
-11.0897 0.184464 12.2309 70 84 72
-8.40648 0.380269 16.0342 86 125 117
-11.2772 0.242238 12.2511 123 166 157
-11.2514 0.230765 12.2951 161 210 212
-11.2355 0.262326 12.3817 129 176 167
-1.25958 0.737642 22.0149 188 217 224
-8.51303 0.44631 16.0258 65 97 86
-11.1811 0.296609 12.3386 80 90 78
-8.51493 0.472774 15.6929 96 153 144
-11.1181 0.348562 12.2229 166 214 215
-11.1635 0.433644 12.4911 143 194 196
-11.2507 0.450554 12.4352 168 209 211
-11.0433 0.473614 12.3993 87 110 106
-10.8542 0.473549 12.4508 141 204 194
-1.83603 1.26806 21.7022 93 152 148
2.36634 1.54545 23.1059 182 224 217
-10.8307 0.781867 13.0999 96 128 109
-10.5342 0.833268 13.5821 90 123 108
-10.4787 0.889951 13.9339 56 94 72
-10.4349 0.876224 13.5084 147 207 196
-10.9083 0.851603 12.9443 66 79 63
-10.3469 0.949184 13.7088 100 144 131
-11.3664 0.736158 11.2879 109 135 149
-11.2165 0.962199 13.2635 92 135 120
-11.346 0.823281 11.5141 250 254 255
-10.6587 0.960328 12.7341 73 87 75
-10.0069 1.10857 14.4106 127 170 157
-10.7294 1.01853 13.0089 155 208 198
-10.0138 1.20454 14.3681 60 99 74
-10.2099 1.33028 14.2456 72 137 121
-9.86652 1.44164 14.2651 121 200 181
-10.0762 1.46962 14.2944 55 81 68
-11.3452 1.20308 11.4793 142 157 173
-11.2811 1.24803 11.2487 98 131 116
-6.7286 2.50857 17.8077 135 199 187
-6.56481 2.57882 18.1574 124 181 172
-6.4724 2.67644 18.3419 115 168 158
-6.58817 2.6595 17.8853 115 169 164
-9.88919 2.07618 14.002 100 156 133
-6.08901 2.99607 18.7714 113 166 156
-2.16667 3.47246 21.215 199 228 232
-10.0174 2.14673 13.9015 106 128 123
-6.66617 2.90426 17.971 47 86 84
-6.45389 3.09667 18.3037 104 153 155
-6.59042 3.17777 18.3268 110 167 166
-6.0706 3.24326 18.6614 59 84 70
-5.96899 3.27663 18.7962 128 185 170
-6.14886 3.2054 18.2413 81 124 111
-9.52293 2.59246 14.6191 255 254 254
-6.2712 3.4209 18.4646 109 155 143
-6.44594 3.48805 18.3542 119 182 162
-9.22956 2.88963 15.1926 147 214 209
-6.51129 3.67766 18.1704 61 86 76
-6.44848 3.70346 18.3494 57 86 63
-10.2294 2.72251 13.5864 93 117 117
-6.3947 3.99246 18.5229 51 63 67
-13.035 -4.85657 12.5256 50 54 42
-12.6273 -4.72098 12.3154 78 113 93
-12.5026 -4.47881 12.077 70 122 105
-9.81993 -4.45579 15.2735 88 112 88
-10.3301 -4.46576 15.4642 88 143 118
-10.1574 -4.31272 15.7635 102 167 151
-10.713 -3.97839 15.2504 80 106 90
-10.1868 -4.01679 15.4886 96 121 107
-11.7805 -3.47073 13.5512 93 132 111
-10.1465 -3.94621 15.5999 121 181 170
-10.422 -3.59253 14.7283 87 123 107
-10.238 -3.78956 15.7437 65 109 92
-9.98173 -3.68958 15.3081 80 124 107
2.41319 -5.14064 22.0183 111 147 163
-10.8501 -3.56952 14.9924 105 156 148
-10.6349 -3.40973 14.8909 70 96 78
-10.2622 -3.35696 14.9844 72 99 83
-4.38382 -4.40072 20.1971 84 120 104
-10.7611 -3.23127 15.1696 105 158 144
1.22335 -4.04035 22.4416 78 110 105
1.89156 -3.90741 22.7871 133 205 175
2.2988 -3.78052 22.8562 104 166 150
0.749701 -3.52197 22.5074 89 149 118
-11.3431 -1.96495 12.7783 58 108 74
0.718928 -3.32456 23.5799 67 89 71
-12.1836 -1.61919 11.1018 123 161 149
-0.106922 -3.09155 22.7608 51 71 42
1.57545 -3.05179 22.7535 175 228 218
-11.9488 -1.52995 10.9042 81 92 84
1.92481 -2.8803 22.5666 127 165 167
2.11822 -2.68779 23.8204 75 117 106
2.38301 -2.53272 22.981 101 173 143
-10.7432 -1.6512 14.1544 85 144 113
-11.3257 -1.3509 13.0743 95 151 130
-11.7838 -1.15991 11.8152 81 114 117
-10.2922 -1.15078 15.0617 102 167 142
1.94143 -0.967436 22.8845 137 198 178
-11.6884 -0.572812 11.6885 75 98 83
-11.6216 -0.473788 11.0734 250 255 255
0.554039 -0.472237 22.1614 181 214 217
-8.42822 -0.404863 16.3685 53 87 57
-11.6438 -0.183515 11.7254 60 80 68
-2.23594 -0.0617171 21.3583 179 217 221
-11.5904 -0.0495456 11.8075 59 78 59
-11.1178 0.146296 11.7214 120 177 162
-11.2778 0.175133 12.2104 158 206 210
-11.2016 0.199532 11.8424 92 118 112
-6.59048 0.531783 18.102 99 147 129
-11.2415 0.279147 12.3158 89 112 108
-11.3908 0.298952 12.5867 89 95 90
-8.72577 0.454484 16.0387 68 95 79
-10.8736 0.348967 12.9964 78 100 76
-11.2886 0.356028 12.3759 158 213 210
-11.3953 0.441141 12.6781 100 127 117
-11.258 0.495848 12.3578 108 131 123
-11.2672 0.460068 12.6187 152 194 201
-10.9431 0.548486 12.9106 79 116 90
-10.9505 0.630353 12.8838 139 204 183
-10.911 0.716597 12.8054 60 74 50
-10.9808 0.738463 12.7922 92 135 122
-10.3712 0.880058 13.7762 65 97 78
-10.9558 0.930319 12.8973 108 155 139
-10.6856 0.967025 12.7694 84 110 97
-10.2738 1.11044 14.237 68 101 86
-10.0244 1.15273 14.5848 55 75 56
-10.2078 1.15542 14.3191 140 204 185
-10.061 1.23972 14.6313 115 185 168
-11.3438 0.935764 11.2296 245 250 249
-9.91439 1.34372 14.333 80 117 101
-9.91033 1.43914 14.3535 133 211 194
-10.2303 1.55827 14.1333 103 170 139
-6.30173 2.25036 17.8988 90 122 111
-6.91453 2.45537 18.1143 80 115 105
-6.27399 2.48005 17.9459 128 187 179
-9.85205 2.02186 14.1514 66 117 103
-6.19882 2.79817 18.5821 104 160 137
-6.41469 2.82059 18.1764 84 121 105
-2.22246 3.50007 21.3885 192 226 226
-7.63873 2.96108 17.2147 255 253 254
-6.41724 3.07749 17.6645 127 184 186
-9.60877 2.58318 14.5448 104 176 164
-6.23975 3.40812 18.4476 117 171 158
-5.98878 3.54431 18.8397 110 167 158
-6.20179 3.7028 18.169 20 26 21
-6.52061 3.70022 18.0425 168 205 231
-6.44668 3.81155 18.3889 24 36 30
-6.25816 3.89681 18.1374 45 56 54
