ply
format ascii 1.0
element vertex 1273
property float x
property float y
property float z
property uchar blue
property uchar green
property uchar red
end_header
-0.52125 0.84912 3.83077 79 150 124
-0.445282 0.848413 3.82945 71 126 99
-0.182341 0.816299 3.67402 143 191 162
-1.57779 0.823673 3.71077 87 128 100
-1.45361 0.836994 3.742 57 88 61
-1.85985 0.832346 3.71116 46 113 74
-0.181825 0.833052 3.67754 51 97 78
2.38863 0.923883 4.09143 120 202 143
0.633044 0.903023 3.97211 100 163 147
0.608693 0.903723 3.96307 79 126 110
-1.3992 0.86519 3.76153 79 117 95
-0.458762 0.883395 3.83141 72 152 105
2.47359 0.943131 4.08038 120 176 127
-0.495054 0.898301 3.86434 71 127 114
0.366498 0.919896 3.94215 142 209 188
2.22267 0.969303 4.1069 141 186 159
2.38225 0.961056 4.06003 48 92 63
2.48879 0.961488 4.06879 90 167 116
-1.57067 0.885814 3.72996 139 203 181
0.483121 0.948004 3.97134 97 156 142
1.09173 0.962886 4.01995 77 122 105
0.868432 0.954742 3.98868 89 147 129
-1.6053 0.896192 3.72459 137 192 167
-0.543524 0.927152 3.85384 96 150 120
-1.45667 0.905385 3.73714 61 98 60
-0.245209 0.896471 3.70944 154 202 173
-1.48686 0.908126 3.7387 54 77 55
-1.32955 0.914622 3.77682 70 130 106
-0.511165 0.933955 3.85484 77 124 92
-0.429568 0.938398 3.85976 48 132 98
-0.463779 0.950957 3.86577 59 96 62
-0.54094 0.952137 3.85466 156 225 205
2.40747 0.999243 4.02539 50 74 50
1.08817 1.0123 4.04395 92 150 126
-1.41917 0.951607 3.773 121 179 155
-1.41585 0.947508 3.76508 104 170 141
1.77257 1.03065 4.05694 68 110 92
-1.39519 0.955994 3.76393 137 182 165
-2.04682 0.951942 3.73108 30 79 59
-2.05302 0.956959 3.73054 44 91 65
-1.19358 0.971582 3.79241 176 238 214
0.760947 1.02699 4.00563 184 230 224
2.38524 1.04265 4.03877 75 114 89
0.262046 1.02442 3.96139 113 163 153
-2.01915 0.964984 3.72398 63 114 76
0.267051 1.0367 3.955 101 158 149
-0.501967 1.01755 3.86826 138 212 164
1.4957 1.06636 4.05841 128 183 158
-0.520756 1.01837 3.86362 78 148 108
-1.78195 0.989311 3.73419 147 214 169
-1.39207 1.0033 3.78183 72 112 100
0.944964 1.06927 4.03235 81 141 123
1.43102 1.07802 4.0582 112 173 139
-1.52297 0.993406 3.71719 80 116 102
-0.506028 1.03748 3.88029 53 116 84
2.27034 1.09866 4.10792 83 138 111
-1.63987 0.999173 3.72885 177 242 220
-1.64391 1.00265 3.73531 165 233 210
-1.3059 1.02434 3.7956 99 152 139
0.343148 1.07439 3.97296 92 140 128
1.04417 1.09859 4.05834 98 160 142
-0.687078 1.05042 3.86231 73 129 110
1.45624 1.09718 4.03527 131 197 162
0.988384 1.10378 4.04885 93 147 134
1.46113 1.1047 4.04975 121 191 154
2.40703 1.09225 4.00589 72 121 93
-1.39541 1.03653 3.78614 46 74 51
-0.448824 1.06531 3.89422 90 146 133
2.27508 1.12306 4.09959 126 183 150
-0.841237 1.05688 3.85051 102 153 139
-1.90399 1.03861 3.76469 70 114 97
-1.67603 1.02789 3.72807 62 84 55
-1.40297 1.04467 3.78792 41 67 43
0.703428 1.11698 4.02526 120 186 175
-1.80679 1.04137 3.74697 67 110 77
-1.49209 1.03834 3.71411 66 90 72
-2.3037 1.05304 3.73928 73 121 95
-1.67075 1.05503 3.73964 134 225 186
1.39112 1.14409 4.01662 149 219 183
2.37757 1.15839 4.0774 108 172 126
1.40212 1.14645 4.01603 54 106 83
-1.35387 1.09088 3.80527 57 96 88
-0.397142 1.12245 3.90573 101 164 144
-0.492439 1.12865 3.90087 101 154 141
-1.42724 1.11164 3.80153 61 114 87
-1.97476 1.10566 3.77294 73 107 76
0.892072 1.19728 4.04968 101 128 118
1.21798 1.20927 4.09221 81 140 120
0.725237 1.1963 4.03569 98 170 150
2.16925 1.24014 4.16057 157 241 207
-1.35881 1.1393 3.8118 109 160 152
-1.35916 1.14185 3.81637 104 153 145
-1.45908 1.15033 3.81441 116 173 152
-0.104047 1.19769 3.96315 91 152 138
-1.75005 1.14228 3.74919 77 143 101
-1.69264 1.15508 3.75297 92 163 113
-0.283458 1.21547 3.93882 149 209 179
-1.66873 1.18652 3.77369 87 139 115
0.0884845 1.25963 3.98158 96 144 126
-1.44639 1.22659 3.83912 65 87 82
0.21314 1.33794 4.01588 102 159 150
-0.0118364 -1.28903 3.45905 108 152 129
1.16616 -1.33317 3.60501 107 160 140
0.515484 -1.28323 3.49298 116 123 132
0.0277072 -1.25748 3.47423 102 135 120
0.379917 -1.25818 3.4853 159 147 167
0.170442 -1.25638 3.5013 253 255 255
0.0221077 -1.2367 3.46365 85 128 101
-0.00498014 -1.22973 3.46686 117 166 150
0.36079 -1.23485 3.50337 140 139 155
-0.986962 -1.15177 3.34341 89 161 148
1.10642 -1.24595 3.6162 94 148 131
0.238475 -1.20678 3.51756 185 206 207
0.485708 -1.2084 3.53894 190 207 216
0.254919 -1.18814 3.48894 155 160 163
-1.73018 -1.0946 3.25914 78 133 108
1.02051 -1.2099 3.62401 247 255 255
0.860911 -1.19486 3.59139 218 236 235
0.8658 -1.18891 3.60419 130 141 145
0.221938 -1.13927 3.52641 132 166 159
0.381363 -1.1312 3.52342 199 189 201
0.786621 -1.15511 3.60559 105 147 140
0.400882 -1.11693 3.5186 195 196 200
0.602482 -1.13309 3.5867 226 253 255
0.822386 -1.1388 3.60996 172 194 192
0.93499 -1.13822 3.62151 124 141 138
1.21895 -1.15872 3.67842 97 148 134
0.948518 -1.13403 3.61733 108 132 122
-1.11778 -1.04789 3.35031 93 157 145
0.0079091 -1.07116 3.49554 118 175 154
-0.0838938 -1.06014 3.49191 114 166 148
0.479036 -1.07606 3.55316 112 105 120
0.425369 -1.05739 3.54245 195 204 217
1.14484 -1.09286 3.65669 126 176 172
1.05687 -1.08081 3.65724 100 150 140
-0.215127 -1.00922 3.4873 84 113 87
0.675901 -1.04645 3.60882 75 112 104
0.464188 -1.0309 3.56694 186 182 193
1.35423 -1.03963 3.6973 226 253 244
1.95792 -1.06033 3.8067 178 222 215
0.342816 -0.985374 3.55555 191 191 197
0.197952 -0.966262 3.55365 160 143 154
1.76237 -1.02785 3.78233 99 123 113
1.49364 -1.01348 3.73995 103 117 115
0.94261 -0.988015 3.65982 120 174 161
0.509192 -0.962718 3.58119 247 252 255
1.8598 -1.01873 3.78547 147 205 187
1.79055 -1.00342 3.76708 109 144 134
-0.174838 -0.927693 3.49228 66 90 55
1.72613 -0.99901 3.76799 148 190 173
1.60611 -0.99342 3.75497 102 149 140
-0.179987 -0.915711 3.48915 187 237 197
-0.140058 -0.920923 3.51298 94 134 116
1.09443 -0.966157 3.6831 125 166 159
1.39505 -0.97316 3.72567 111 164 151
1.55737 -0.976276 3.75188 72 92 73
-0.172647 -0.908417 3.49745 80 107 98
1.29763 -0.959608 3.69316 179 174 175
1.52951 -0.971891 3.75185 128 162 145
1.83276 -0.979686 3.79034 165 225 201
1.64042 -0.970683 3.76362 83 110 100
1.936 -0.981357 3.79927 136 160 148
1.61745 -0.964811 3.75743 150 192 181
1.39535 -0.955449 3.74363 105 131 131
1.7532 -0.960855 3.77555 175 207 182
1.78149 -0.963998 3.77781 106 114 103
1.09681 -0.936882 3.68765 100 131 128
0.306002 -0.899783 3.5651 201 204 209
1.69937 -0.953808 3.77934 186 232 220
0.0603288 -0.889508 3.54834 199 200 221
0.587643 -0.904811 3.61836 166 162 168
0.0787743 -0.884524 3.55729 253 255 255
0.908181 -0.906349 3.65557 139 152 150
0.308995 -0.883447 3.57491 126 109 123
0.707483 -0.907344 3.65467 99 100 96
0.857965 -0.888899 3.64976 109 140 133
1.73772 -0.92485 3.78138 87 111 101
1.65088 -0.917044 3.76398 128 167 151
1.74488 -0.918677 3.77929 130 192 176
0.625084 -0.874093 3.62338 213 255 255
0.185177 -0.852758 3.5705 249 255 254
1.70873 -0.898206 3.78849 139 211 191
1.66324 -0.887881 3.78865 62 78 55
0.598259 -0.850106 3.63974 144 190 178
0.476173 -0.841441 3.60358 187 184 186
0.605149 -0.827426 3.63839 143 214 194
1.66347 -0.851466 3.79165 126 184 156
1.68918 -0.851983 3.80737 70 115 99
0.0218073 -0.794656 3.55012 132 162 163
-1.76806 -0.740867 3.33924 91 135 122
0.0631131 -0.790486 3.57234 246 255 255
0.51121 -0.790842 3.61623 187 195 202
-0.492638 -0.760894 3.50953 199 221 219
-1.79068 -0.724426 3.33805 91 159 136
-0.367692 -0.761431 3.52293 68 79 63
1.02277 -0.795975 3.69326 144 160 176
-0.360327 -0.755373 3.52203 133 168 164
-0.00100446 -0.767103 3.57082 138 161 157
-0.407503 -0.74487 3.48734 165 213 201
-0.0168626 -0.7612 3.56322 223 224 220
-0.352195 -0.747478 3.52996 83 90 77
-0.410074 -0.736094 3.49355 97 138 131
2.04241 -0.797644 3.838 132 146 140
-1.49801 -0.698682 3.37143 69 145 111
-0.467799 -0.71176 3.47201 182 231 217
-1.15458 -0.697075 3.41922 101 165 143
-0.337876 -0.720849 3.53256 154 213 209
0.821908 -0.748062 3.67089 237 242 241
1.01384 -0.74812 3.69967 152 162 169
2.03844 -0.779053 3.86341 144 167 152
0.652436 -0.720828 3.65637 225 244 235
-0.876372 -0.682352 3.46249 93 136 127
0.289404 -0.708529 3.60415 168 147 149
0.802646 -0.714319 3.67129 160 175 178
2.06328 -0.753559 3.86316 148 201 188
1.02713 -0.716713 3.69159 142 218 206
2.14227 -0.750463 3.87715 227 245 238
2.17033 -0.752128 3.88351 179 221 210
-0.397133 -0.672254 3.48998 170 222 204
0.40485 -0.699925 3.62905 191 195 196
-0.866175 -0.666519 3.46584 85 140 123
0.667952 -0.705625 3.67464 121 161 156
-1.06112 -0.658575 3.44575 52 89 73
-0.518882 -0.668555 3.50131 88 117 114
-0.334431 -0.673926 3.54312 76 76 70
0.551332 -0.698311 3.65715 101 144 141
0.972083 -0.703278 3.68308 107 105 111
0.223259 -0.687983 3.61686 255 255 255
-1.17853 -0.639109 3.44022 66 118 94
0.360153 -0.671138 3.64005 123 121 121
-0.110525 -0.65479 3.58088 182 232 230
-1.21326 -0.619165 3.4164 68 104 74
-1.21209 -0.622442 3.43288 66 105 83
-0.295378 -0.638615 3.54628 206 247 250
-0.38267 -0.631853 3.51771 98 132 125
-1.06684 -0.615619 3.45354 88 115 81
-0.383551 -0.622403 3.51262 187 241 224
-0.30263 -0.623529 3.55803 179 216 220
-0.366473 -0.615692 3.52312 200 254 241
-0.335421 -0.610738 3.52822 92 119 109
-1.24812 -0.592065 3.42985 60 95 69
-1.13627 -0.594597 3.44722 61 83 65
-0.0738267 -0.622937 3.5896 126 195 175
-0.607729 -0.60265 3.52015 95 149 132
-0.294529 -0.609607 3.56124 79 90 88
0.746518 -0.629455 3.69383 128 149 157
-0.314554 -0.602089 3.537 48 65 61
-0.178516 -0.590108 3.53715 191 244 230
-0.318811 -0.585694 3.53041 102 139 135
0.396403 -0.592599 3.64614 132 153 138
0.397277 -0.592335 3.64852 120 149 133
-0.0389716 -0.583839 3.60517 66 89 85
-0.847045 -0.558478 3.48632 140 210 173
-0.288159 -0.567477 3.56205 86 136 126
-0.886711 -0.549709 3.48234 88 146 117
-0.0445939 -0.570432 3.59537 204 244 233
-1.08966 -0.542535 3.46879 95 130 120
0.256881 -0.569107 3.64125 182 187 190
-1.2147 -0.533901 3.43643 80 125 108
-1.35375 -0.53099 3.44072 103 159 140
-0.0521147 -0.555135 3.5958 249 251 252
-1.22991 -0.525875 3.43369 121 206 178
0.226733 -0.55296 3.63161 253 255 255
-0.331873 -0.535658 3.54692 101 125 123
-0.0789033 -0.541747 3.58363 184 229 220
0.218746 -0.552293 3.65063 100 95 97
-0.0323364 -0.538712 3.59184 232 255 255
-0.31161 -0.527278 3.56765 73 109 103
-0.112927 -0.533226 3.58756 211 251 240
0.589131 -0.548887 3.70236 227 242 238
0.819082 -0.550244 3.71199 93 147 124
-1.26816 -0.505785 3.42738 42 101 70
0.461098 -0.540983 3.66888 116 164 152
0.637894 -0.540369 3.69294 255 255 255
2.20685 -0.566443 3.90302 63 77 49
0.696958 -0.534756 3.70918 151 196 180
-0.142845 -0.507938 3.58517 203 229 223
-0.239228 -0.502114 3.5744 95 132 122
-2.07182 -0.474849 3.37912 90 144 137
-1.51064 -0.479629 3.41604 106 146 128
0.259785 -0.510083 3.65855 255 254 255
0.629466 -0.516797 3.70558 187 214 194
-1.16167 -0.474823 3.45388 66 104 82
-0.400033 -0.488125 3.54794 188 229 221
-0.224209 -0.493827 3.56771 195 249 232
-0.134163 -0.497157 3.58897 99 110 108
-1.18559 -0.47505 3.45618 148 225 204
-0.284951 -0.491543 3.5755 99 128 125
-1.26941 -0.463718 3.42831 113 190 132
-0.418983 -0.4789 3.55609 93 134 129
-0.39772 -0.483876 3.55987 216 237 238
-1.0505 -0.464488 3.48906 95 145 127
-0.0198027 -0.482753 3.59152 203 241 241
2.05868 -0.521324 3.90034 171 219 207
-0.859926 -0.459305 3.50677 97 146 130
-0.350859 -0.459095 3.54343 228 246 247
-0.107174 -0.467354 3.59759 155 175 186
-0.442391 -0.451388 3.54081 244 255 255
0.201941 -0.461356 3.64903 191 188 197
-0.287127 -0.449438 3.58132 196 253 245
-1.2724 -0.42055 3.43789 96 159 133
-0.141964 -0.440037 3.61405 115 169 169
-0.914767 -0.425209 3.50247 94 152 141
0.818326 -0.456047 3.72199 73 127 84
-0.285544 -0.431056 3.56095 55 76 74
-0.21321 -0.435317 3.61039 97 172 156
2.01133 -0.457715 3.91464 123 137 126
-0.399816 -0.410565 3.57301 142 161 164
-0.814242 -0.401294 3.53793 200 239 237
-2.03481 -0.379364 3.40852 80 145 124
-1.4266 -0.385001 3.45 71 139 104
-0.931102 -0.396201 3.51986 56 98 81
0.552444 -0.411291 3.6992 107 154 145
-1.57005 -0.378886 3.43856 209 248 232
0.663558 -0.410495 3.73557 175 196 197
-0.154867 -0.399333 3.61711 77 103 103
0.700034 -0.405836 3.73921 255 255 255
-0.160487 -0.390294 3.61175 204 241 237
-0.254438 -0.385715 3.59912 198 200 200
0.59904 -0.393934 3.70878 97 143 131
-0.823101 -0.371936 3.52954 143 219 187
0.0443344 -0.383869 3.64092 70 87 100
0.359793 -0.387623 3.68336 112 164 157
0.406472 -0.39274 3.69655 118 121 119
0.0277312 -0.378325 3.63441 153 178 188
-0.264801 -0.371594 3.59691 226 255 255
2.01116 -0.393905 3.92252 223 249 243
-2.06533 -0.341288 3.41478 81 141 131
-0.970971 -0.347096 3.51218 153 238 224
-0.812711 -0.349217 3.53872 88 144 115
-0.405446 -0.352478 3.58551 78 87 90
-0.0936191 -0.356975 3.62363 65 126 122
0.0103464 -0.355099 3.62669 109 154 167
0.0531572 -0.354242 3.63241 171 202 203
-0.364181 -0.346066 3.58234 242 255 255
-0.258583 -0.345122 3.60539 203 241 245
0.386174 -0.352849 3.69703 128 113 117
0.400816 -0.356606 3.70649 228 238 238
-0.542549 -0.336262 3.58155 169 227 209
-0.442503 -0.333096 3.58796 230 255 255
0.0480008 -0.338354 3.63479 149 234 220
-0.124293 -0.334823 3.62682 189 222 225
-0.264579 -0.321349 3.61779 219 251 255
-0.292946 -0.314389 3.59627 49 67 68
-1.36675 -0.302534 3.46702 75 125 107
-0.122734 -0.318126 3.63129 232 215 194
0.104663 -0.31646 3.65823 101 125 137
0.701307 -0.321633 3.70893 80 149 112
-0.927237 -0.30296 3.51863 76 152 111
-0.728114 -0.303969 3.54604 86 140 123
2.34671 -0.335221 3.90777 144 234 191
-0.537112 -0.302621 3.56944 82 131 85
-1.23294 -0.288608 3.49693 160 195 191
-1.11224 -0.28452 3.48399 134 237 200
-0.832089 -0.290072 3.55049 67 109 84
-0.973939 -0.282903 3.53772 92 137 121
-0.303699 -0.288812 3.59796 255 255 255
-0.584391 -0.282617 3.57381 78 116 98
0.27298 -0.291856 3.67563 146 165 162
-0.355522 -0.28453 3.61994 110 170 164
-0.237073 -0.277319 3.61909 76 105 109
0.0491194 -0.277597 3.64735 94 165 169
-1.38473 -0.256961 3.47868 169 237 214
0.346619 -0.270694 3.71014 252 254 255
-0.600583 -0.261087 3.56957 78 110 79
-0.27405 -0.263709 3.61413 68 125 127
0.852475 -0.271539 3.75539 166 206 204
-0.539783 -0.251456 3.58723 97 139 114
-0.110638 -0.255862 3.65288 86 134 146
0.734224 -0.255345 3.76117 239 253 249
2.40565 -0.267092 3.93526 83 147 135
-0.57401 -0.236146 3.58006 203 247 234
0.303222 -0.237877 3.70621 245 255 253
-1.12493 -0.222467 3.51575 62 114 96
-0.547853 -0.225432 3.58124 88 129 101
-0.483274 -0.229365 3.60657 220 243 238
-0.509354 -0.224627 3.61345 173 210 218
-0.187407 -0.216371 3.6514 235 252 255
-1.02134 -0.205388 3.52514 131 203 180
-0.627978 -0.208515 3.59507 93 131 113
-0.611569 -0.205165 3.60061 78 117 101
-1.13155 -0.193912 3.52801 99 156 135
-0.493625 -0.196512 3.61188 79 115 99
-0.0857466 -0.197417 3.65947 248 255 255
-0.196744 -0.187056 3.64936 191 242 245
0.609453 -0.191899 3.76298 113 176 156
-0.507391 -0.180396 3.61417 61 100 84
-0.278018 -0.180031 3.63169 254 254 254
-0.632163 -0.170973 3.58856 75 127 103
0.0459891 -0.17425 3.67211 80 90 114
-0.0769952 -0.168416 3.67469 248 254 253
0.0159201 -0.171141 3.68763 110 134 164
0.0868563 -0.171529 3.68594 253 255 255
2.16422 -0.17154 3.95285 96 160 130
-1.26474 -0.149907 3.53811 126 207 180
0.0386066 -0.154949 3.68531 129 142 158
-1.02122 -0.149055 3.54307 132 194 158
-0.208718 -0.147762 3.6696 162 211 225
-1.01471 -0.143832 3.5623 77 125 96
0.0938878 -0.151987 3.69668 149 162 170
-1.3195 -0.136947 3.51802 45 91 69
2.04475 -0.155247 3.96583 212 236 226
2.06613 -0.158934 3.96481 116 118 118
-1.03576 -0.134137 3.54606 69 118 74
-0.829131 -0.133434 3.57615 109 163 150
-0.697329 -0.132727 3.59682 108 159 155
-1.29766 -0.124626 3.52521 51 99 63
-1.20948 -0.125103 3.53889 50 110 86
0.209808 -0.131607 3.7185 131 170 172
0.452395 -0.129814 3.75319 248 255 254
2.15937 -0.135916 3.93646 146 229 191
0.858637 -0.126838 3.80828 117 177 159
-1.02183 -0.1158 3.56299 89 135 122
-0.198189 -0.113978 3.64946 58 71 85
-1.98968 -0.107302 3.47592 63 132 112
-1.9065 -0.107268 3.48023 86 163 142
-0.659941 -0.109366 3.61118 69 126 88
-1.3446 -0.0987308 3.52817 121 174 164
-0.570507 -0.10059 3.62537 59 95 83
0.451104 -0.103558 3.75622 253 255 255
-0.993487 -0.0854371 3.58417 101 161 130
-0.610332 -0.0869203 3.61698 165 235 194
-0.560413 -0.0883365 3.63164 87 149 125
0.110571 -0.0894951 3.71154 239 255 255
-1.39724 -0.0805563 3.54075 80 107 103
-0.0947411 -0.0826716 3.67598 237 255 255
-0.402763 -0.0811306 3.63836 177 221 215
0.475515 -0.079582 3.76702 245 255 254
-0.00955091 -0.0740223 3.70278 66 86 87
-1.4415 -0.06495 3.52405 90 158 135
0.183377 -0.0690753 3.72278 251 255 255
0.92663 -0.0691257 3.82967 253 253 253
-0.63098 -0.0561119 3.62654 94 147 120
0.403049 -0.0467224 3.76473 78 130 120
-2.00434 -0.0400152 3.49858 84 144 133
-0.119812 -0.039952 3.69091 91 155 155
0.944484 -0.0408272 3.84843 135 153 146
1.00111 -0.0410673 3.83835 95 128 107
0.364476 -0.036712 3.77253 70 99 90
0.849845 -0.0377346 3.81317 82 144 122
2.34076 -0.0380037 3.99236 57 86 83
0.000120143 -0.0310883 3.70783 162 216 209
1.03865 -0.0363799 3.83697 180 203 195
-1.3966 -0.0254786 3.5453 84 134 110
-0.177122 -0.0254864 3.689 79 128 150
-0.390979 -0.020011 3.6564 84 120 126
0.932887 -0.0198342 3.83651 76 115 107
-1.12648 0.00162154 3.58133 110 159 131
-1.20826 0.00818112 3.5616 98 152 139
-0.278754 0.0068026 3.67559 250 255 254
-0.427186 0.0147573 3.64873 48 73 89
-1.31219 0.0163595 3.55841 180 232 222
0.838597 0.0191234 3.8215 71 142 116
0.00730517 0.0359647 3.72564 94 158 153
0.0455294 0.032799 3.72848 242 255 255
0.180688 0.0435477 3.75477 83 112 97
-1.69755 0.0471593 3.54525 76 123 107
-0.353982 0.0603206 3.68391 202 236 230
-0.0997689 0.0613652 3.70657 93 151 156
2.55618 0.0715266 3.97895 158 229 186
0.7616 0.0769877 3.83007 94 152 134
-1.71424 0.0799204 3.55027 90 146 135
-0.154925 0.078979 3.70576 86 120 119
0.086843 0.0863877 3.74882 153 208 199
2.23162 0.0862836 3.92844 90 151 115
-0.881525 0.0869002 3.62454 88 141 127
-1.69668 0.0887799 3.55096 92 151 130
0.0611238 0.0931537 3.74771 78 123 114
-0.561751 0.0933471 3.66152 106 126 131
-1.11307 0.0970046 3.61098 109 172 162
0.643322 0.107327 3.8126 70 103 89
2.05129 0.109856 3.93377 166 227 189
-1.75885 0.1246 3.54856 93 148 133
-1.42664 0.136409 3.58546 82 134 117
0.206854 0.145761 3.77278 110 140 127
-0.240493 0.157593 3.69717 119 141 147
0.318272 0.166826 3.77915 179 211 222
0.375489 0.173599 3.80233 196 230 223
0.332748 0.187987 3.78618 76 82 93
-0.125319 0.197711 3.71511 94 111 114
-0.764843 0.205818 3.65934 79 146 125
0.600526 0.222132 3.84439 244 255 254
0.463807 0.221306 3.82051 94 120 126
2.44755 0.237323 4.02496 134 233 187
2.0118 0.23693 3.892 112 145 124
0.385063 0.233226 3.82082 85 113 113
0.563013 0.253543 3.83958 93 131 125
2.03028 0.257081 3.87605 185 220 194
2.41136 0.281252 4.04781 105 151 129
0.180833 0.264334 3.78443 172 200 217
0.209393 0.275811 3.79005 64 71 66
0.49865 0.276736 3.82709 85 99 121
-0.293428 0.271687 3.73754 70 98 85
0.581365 0.278842 3.83691 86 113 110
0.836826 0.281891 3.86715 177 236 216
1.02007 0.287442 3.89478 248 255 252
0.466062 0.300575 3.83403 205 229 247
0.860547 0.304726 3.87609 83 127 120
-0.800279 0.294161 3.67642 85 130 111
-1.48515 0.292312 3.61684 79 133 103
0.237164 0.312269 3.80717 94 99 108
0.598542 0.314089 3.84955 156 185 190
0.601608 0.325506 3.85712 82 97 106
2.05244 0.328068 3.89071 179 237 178
0.528917 0.33678 3.84546 87 109 121
0.922683 0.342062 3.89476 171 231 221
-0.130248 0.341917 3.77633 93 150 129
2.3449 0.396387 4.04 64 100 84
2.58718 0.40376 4.05675 102 165 121
-0.411451 0.374566 3.74854 182 234 224
-0.281105 0.385172 3.76345 71 129 101
2.33541 0.408936 4.03186 155 219 184
-0.254646 0.390859 3.76277 79 138 107
0.940045 0.404841 3.89891 81 132 112
-1.14014 0.384268 3.669 94 153 139
-0.436514 0.391444 3.7518 167 222 213
-0.338642 0.391216 3.75983 164 221 212
-0.200478 0.410652 3.78765 63 96 75
0.867782 0.417127 3.89408 195 247 230
-0.228058 0.409389 3.772 49 98 70
-0.132976 0.406764 3.77812 68 120 102
-0.172349 0.416716 3.78503 116 183 156
-0.122898 0.422335 3.7974 131 200 167
2.27504 0.447502 4.04875 72 136 101
0.331632 0.431616 3.84865 105 161 150
-0.148159 0.429191 3.78499 166 233 196
0.00834879 0.432772 3.81257 154 203 195
0.0518454 0.438104 3.82928 71 85 73
-0.221011 0.437613 3.77098 91 161 130
-0.143357 0.438678 3.78081 53 90 64
-0.434861 0.437487 3.74694 34 86 46
-0.0117463 0.446845 3.79871 106 133 100
0.673111 0.454137 3.87067 118 170 152
-0.152183 0.448788 3.772 144 238 183
-1.56654 0.44503 3.65678 211 248 238
-1.09896 0.447198 3.6918 81 151 134
-0.44914 0.454485 3.75059 47 95 53
-2.0811 0.448377 3.61054 82 127 108
-0.231124 0.470145 3.78 84 115 82
0.824198 0.486846 3.91042 73 105 100
-0.369699 0.473988 3.76607 97 144 128
0.74907 0.49066 3.90646 166 218 211
-0.418893 0.478032 3.74892 153 231 177
-0.405997 0.478408 3.77036 51 92 64
-1.15101 0.47803 3.69414 90 160 137
0.147628 0.495784 3.83778 102 154 136
0.742065 0.50293 3.90704 60 112 89
0.0497918 0.498298 3.82155 116 182 131
1.03204 0.516599 3.94054 185 246 226
1.36933 0.512883 3.94061 105 147 136
0.613158 0.515683 3.89991 245 253 252
-0.425486 0.497259 3.75403 66 107 76
0.0194616 0.508239 3.82804 135 185 155
-0.329014 0.51319 3.77826 252 254 255
1.28308 0.537876 3.97322 75 124 104
2.30886 0.547091 4.05039 128 215 177
-2.04373 0.490285 3.61549 92 141 113
0.126996 0.536845 3.84812 159 212 198
0.395701 0.54674 3.87883 86 95 109
-1.69475 0.517456 3.64391 236 255 240
0.128436 0.5535 3.84855 172 230 212
-1.26156 0.531798 3.6952 87 155 144
-0.542101 0.541563 3.77152 53 97 68
-0.460017 0.543295 3.77616 43 91 49
-0.436225 0.542235 3.77025 46 95 57
-1.7981 0.539106 3.65017 48 97 65
-0.464683 0.560254 3.77421 35 78 41
-0.308148 0.562907 3.76984 165 233 198
0.954449 0.588351 3.93468 96 138 121
-1.83024 0.547817 3.64632 87 137 113
-0.330994 0.574078 3.78108 227 248 246
-0.35524 0.576131 3.78244 123 175 158
2.22151 0.612708 4.05082 64 117 97
0.782786 0.597741 3.91874 127 172 163
-1.80008 0.561759 3.6463 58 104 75
-1.88334 0.566301 3.6513 106 159 126
-0.413009 0.591769 3.79233 71 120 98
0.0563095 0.609254 3.84737 128 167 152
-0.535267 0.603207 3.78659 73 133 103
-2.19515 0.584135 3.62766 84 131 99
-0.164366 0.59562 3.67184 86 118 93
1.63508 0.644306 3.97955 80 153 107
-0.391578 0.619117 3.77789 141 201 161
0.0567697 0.628153 3.85106 61 74 60
0.314815 0.635456 3.87981 177 232 223
-2.145 0.597044 3.63251 89 144 111
2.4655 0.673464 4.07396 75 137 113
0.294927 0.645326 3.88454 96 155 141
-1.78051 0.620067 3.6801 149 218 197
-0.475642 0.631843 3.77332 153 247 188
-0.447849 0.635946 3.7674 55 108 69
0.00955748 0.643966 3.84176 112 170 135
-0.413036 0.641905 3.77535 171 223 183
0.731918 0.667601 3.93142 118 171 168
2.3954 0.69214 4.06971 162 231 194
0.0320865 0.662186 3.84698 86 116 81
0.191277 0.663752 3.87148 91 137 115
-1.90187 0.641473 3.66593 93 143 111
0.163679 0.677481 3.87523 136 188 171
0.197083 0.679983 3.87996 169 219 207
-1.84306 0.643592 3.66644 81 135 100
-0.473161 0.667618 3.79512 87 159 107
-0.580681 0.678479 3.80188 78 130 93
-0.409761 0.673313 3.7848 164 229 184
2.265 0.723479 4.06908 76 142 107
-1.282 0.665811 3.71896 54 113 99
-0.565462 0.689062 3.79965 49 97 55
2.64531 0.758341 4.15189 81 131 121
-0.494286 0.699781 3.82365 74 134 93
0.165426 0.715783 3.87361 52 70 53
0.888424 0.740297 3.96696 108 171 151
2.08857 0.754196 4.04777 128 197 164
-0.48499 0.713178 3.79092 38 89 51
2.41733 0.76632 4.08015 78 128 96
-1.21773 0.707997 3.76088 116 171 154
-0.549258 0.719246 3.80863 94 152 127
-1.58005 0.698699 3.69781 113 161 135
0.17559 0.738056 3.89065 150 215 199
2.23193 0.772322 4.07437 125 211 169
2.67403 0.786103 4.12885 89 149 125
-1.59098 0.7108 3.68629 168 248 211
0.182673 0.74668 3.89395 69 89 76
-0.443982 0.735442 3.78357 55 124 79
0.946118 0.773519 3.9813 96 149 129
0.343993 0.764426 3.90818 85 127 116
-1.67404 0.728271 3.70595 107 162 143
0.209106 0.764562 3.89629 126 169 148
-0.643169 0.752421 3.81014 87 134 126
-0.561824 0.751943 3.80644 172 249 215
-0.423696 0.752613 3.79784 43 77 77
2.61091 0.821607 4.1398 44 89 72
-1.67426 0.743848 3.70527 98 154 119
0.35887 0.785648 3.922 186 226 221
1.49767 0.811268 4.04673 84 131 123
2.26205 0.819674 4.08686 80 131 104
-0.585554 0.775236 3.81945 70 124 89
-1.46522 0.761422 3.72255 94 140 118
-0.195221 0.749006 3.65771 166 222 181
1.33244 0.824031 4.02319 80 123 108
-1.99295 0.756792 3.68773 141 248 205
-1.58476 0.76856 3.72303 154 228 194
-0.423677 0.784151 3.80267 107 141 134
2.45549 0.857254 4.13157 159 220 186
0.920949 0.829585 3.97801 160 216 205
2.58877 0.859877 4.10156 138 222 168
-1.83969 0.779026 3.69846 86 149 117
-1.58593 0.790854 3.71194 48 74 44
-0.85064 0.807669 3.80186 62 113 99
-0.0505318 0.800944 3.7418 86 140 110
-0.0623712 0.803039 3.74565 148 211 179
0.864316 0.860372 3.97064 101 152 132
-2.16344 0.800064 3.68019 76 120 91
-1.40013 0.811033 3.72883 77 114 94
-0.545022 0.835983 3.82885 57 116 85
0.22458 0.855033 3.92206 71 107 95
2.21485 0.886359 4.06994 90 138 114
-1.33676 0.821877 3.76186 94 137 126
2.51909 0.911201 4.09889 93 151 116
2.3744 0.912458 4.09067 130 220 167
-1.76171 0.830839 3.71164 132 217 172
-1.15283 0.84382 3.77539 61 110 94
-0.184297 0.816971 3.672 155 201 172
-1.46388 0.84981 3.72047 126 185 154
-1.49475 0.854091 3.73086 150 212 190
-0.534032 0.876372 3.84399 83 133 99
-0.566994 0.877496 3.83331 58 123 91
-1.4752 0.861397 3.74375 128 208 173
-1.3977 0.862695 3.7565 102 136 112
-0.563304 0.881479 3.83862 88 148 117
-1.75739 0.871182 3.72783 57 96 80
-1.4985 0.873175 3.743 26 54 41
0.157248 0.915368 3.92547 149 221 198
-1.7823 0.872266 3.72099 81 131 99
-0.562014 0.905002 3.84623 87 155 114
-0.531181 0.90593 3.85025 90 151 125
-1.77764 0.88218 3.72739 113 200 150
2.22174 0.968148 4.10449 141 186 159
-1.61472 0.88785 3.72662 55 85 56
-0.622524 0.918536 3.84166 95 139 122
0.732977 0.951641 3.98833 93 155 139
0.967874 0.960059 4.01677 95 151 128
1.29141 0.959911 4.03361 41 80 55
0.868242 0.954998 3.98921 89 147 129
2.02394 0.971042 4.0621 33 52 37
-0.542016 0.925755 3.85105 74 125 91
0.463341 0.95509 3.97214 69 118 104
1.09235 0.96396 4.02215 77 122 105
1.34891 0.9597 3.99465 69 110 82
-1.89643 0.894565 3.71765 58 102 73
-1.32675 0.912454 3.77256 74 132 108
-0.511487 0.933236 3.85341 66 115 83
-0.429213 0.938725 3.86127 48 132 98
-2.21343 0.904355 3.70689 75 127 104
-1.48388 0.91131 3.741 63 79 62
-0.64137 0.939523 3.84423 67 113 94
-1.61699 0.915165 3.725 140 198 170
-1.57794 0.912957 3.71792 156 228 198
-0.392053 0.951948 3.85001 56 94 64
0.509475 0.992392 3.98172 98 139 131
2.40776 0.999063 4.02503 50 74 50
-0.56153 0.963969 3.85723 171 233 217
-1.44162 0.937664 3.75765 64 103 81
0.509284 0.992523 3.98198 98 139 131
-1.48031 0.940862 3.74667 106 151 118
-1.41509 0.951135 3.77525 101 163 123
-1.92281 0.936873 3.71244 147 245 201
-1.3989 0.961581 3.77468 124 176 152
-2.144 0.950056 3.71316 91 157 128
-1.62705 0.955708 3.73923 133 178 181
-1.80914 0.958011 3.74366 125 206 167
-0.400913 0.99074 3.8716 57 126 81
-1.49306 0.962547 3.74649 75 105 80
-1.38822 0.970342 3.77259 63 102 81
-1.59126 0.963256 3.72613 55 91 107
-0.422807 1.00749 3.87399 51 120 83
-0.398271 1.00639 3.86593 77 148 98
-1.95203 0.975333 3.73485 155 243 203
0.998029 1.05204 4.03024 105 175 158
1.48495 1.05957 4.05428 90 139 111
-1.95122 0.978856 3.74158 130 217 173
-1.80823 0.985042 3.74965 40 80 62
2.39636 1.05672 4.02993 151 220 175
1.27237 1.07246 4.07996 155 227 191
1.71538 1.0691 4.06933 145 206 186
-2.30027 0.986304 3.72055 82 137 112
-0.408317 1.03885 3.88078 65 114 86
2.31178 1.09571 4.1002 78 117 95
-1.40366 1.02521 3.78982 65 102 76
2.31646 1.10322 4.07872 160 229 186
2.40786 1.09491 4.01446 76 124 96
2.27957 1.12679 4.10679 151 211 177
0.141732 1.08702 3.94551 192 237 221
1.40802 1.10967 4.04064 65 85 72
-1.90361 1.03851 3.76451 70 114 97
-1.88921 1.04624 3.74499 166 245 204
-1.41193 1.04989 3.77673 146 219 173
0.85707 1.11797 4.01312 140 202 184
-1.49248 1.03804 3.71356 62 86 68
-2.03079 1.0764 3.75491 42 81 55
-1.48426 1.08113 3.76733 136 204 163
-1.45201 1.09556 3.8057 135 212 168
-1.93184 1.07837 3.75676 56 103 71
-2.27297 1.08153 3.73456 93 145 115
0.596755 1.17174 4.02146 91 156 141
-1.97605 1.10614 3.77379 66 103 71
-1.66586 1.10278 3.75705 36 63 43
-1.06109 1.12964 3.841 76 153 125
-1.46391 1.12164 3.79888 109 185 153
-1.09991 1.13324 3.83892 79 141 127
1.01283 1.20303 4.08234 87 117 104
-1.98471 1.11512 3.76832 41 90 58
1.21747 1.20878 4.0913 81 140 120
-1.82764 1.11528 3.74814 92 179 141
2.1716 1.24223 4.16445 159 243 208
1.20682 1.2214 4.09168 177 230 217
-2.221 1.12466 3.74954 82 130 101
-2.00565 1.14085 3.77849 59 105 83
-1.45731 1.14778 3.80989 138 197 176
-1.47749 1.15823 3.80889 35 48 26
-1.91871 1.16232 3.79651 166 222 209
-1.62835 1.17716 3.77622 65 97 78
0.789687 1.27068 4.05306 107 161 144
0.203956 1.28966 4.01383 80 135 120
0.186186 -1.28884 3.486 180 196 208
-1.11466 -1.20623 3.30653 125 177 159
0.175853 -1.25897 3.49791 255 255 255
0.561666 -1.2448 3.5062 159 160 174
0.397029 -1.19663 3.49769 169 166 182
-0.143316 -1.15071 3.47176 97 158 144
1.00127 -1.20503 3.624 248 255 254
1.01233 -1.19449 3.6196 133 175 157
0.38091 -1.13109 3.52034 199 189 201
1.02287 -1.15599 3.63146 77 105 92
1.2217 -1.159 3.68495 100 155 138
0.534556 -1.11403 3.57386 120 115 142
0.426426 -1.05742 3.54442 166 174 191
-0.216793 -1.03041 3.48469 100 133 119
0.402486 -1.03956 3.56068 134 132 154
1.93991 -1.09809 3.7651 190 227 217
-0.233037 -1.01084 3.47024 93 154 110
0.372927 -1.03283 3.555 143 156 170
-0.214653 -1.00923 3.49138 88 114 90
1.13579 -1.05695 3.64488 121 180 159
-0.166847 -1.00585 3.49454 86 116 91
-0.150077 -1.00761 3.49854 92 135 108
-0.22341 -0.998702 3.46904 160 220 179
1.78215 -1.08125 3.76925 121 172 158
1.82387 -1.07326 3.77227 103 150 141
0.590315 -1.01351 3.58589 203 192 202
1.32807 -1.05298 3.70201 101 136 122
1.7271 -1.06539 3.74964 132 174 156
1.89118 -1.06875 3.77507 111 128 124
1.53543 -1.04345 3.72235 126 180 173
-0.204053 -0.971461 3.49065 84 120 90
0.982108 -1.01748 3.64992 112 181 160
1.83503 -1.05179 3.77268 127 161 155
1.95676 -1.06028 3.80391 176 222 216
0.394127 -0.990056 3.56287 141 142 156
1.08124 -1.0158 3.66325 120 173 160
1.42297 -1.0089 3.69807 111 148 144
1.74179 -1.02744 3.77399 159 219 195
0.290314 -0.96155 3.56485 193 198 199
0.38436 -0.962654 3.56511 113 105 122
1.88182 -1.02144 3.79222 129 179 167
0.535651 -0.965895 3.6184 159 164 179
1.83721 -1.01683 3.78668 125 156 141
0.85493 -0.971232 3.64249 142 198 185
-0.0953995 -0.933187 3.51571 75 133 109
2.14579 -1.02092 3.8363 170 208 212
0.189085 -0.942761 3.56113 255 255 255
1.00748 -0.953755 3.64642 103 152 130
1.85313 -0.992217 3.78464 92 106 95
0.307898 -0.936068 3.5758 199 195 201
1.41632 -0.976258 3.73842 170 233 207
1.24223 -0.959883 3.69128 123 146 138
1.62823 -0.979172 3.77001 166 207 199
2.19309 -1.00786 3.86471 148 197 177
-0.17261 -0.908275 3.50291 77 102 92
1.74364 -0.97472 3.77091 75 85 62
1.64 -0.968906 3.76357 87 114 104
1.33662 -0.951441 3.71411 145 150 153
1.44215 -0.960134 3.73709 148 195 179
1.79686 -0.961208 3.77114 160 199 174
2.06137 -0.983962 3.83115 139 158 149
1.3601 -0.949967 3.72943 136 143 146
1.77579 -0.962933 3.77055 108 116 105
1.96167 -0.96977 3.80889 165 188 174
2.13589 -0.972943 3.84412 126 141 137
0.0799447 -0.897957 3.54145 162 199 195
0.586354 -0.905496 3.59245 88 92 103
0.898796 -0.924316 3.6677 117 149 160
-0.619917 -0.869627 3.46576 220 252 241
0.0607686 -0.889609 3.54512 199 205 224
1.67351 -0.945649 3.78176 109 117 100
2.02927 -0.965742 3.83143 130 162 145
0.454096 -0.899593 3.60122 199 203 214
1.35151 -0.928523 3.72001 120 98 100
-0.175602 -0.864218 3.4967 88 136 100
1.31622 -0.918221 3.71938 253 255 255
1.65436 -0.91689 3.77096 141 179 161
1.68288 -0.919873 3.77473 145 201 180
0.900862 -0.879084 3.649 94 120 114
0.0269091 -0.847347 3.53478 91 118 115
1.58694 -0.901983 3.75516 138 164 146
0.57773 -0.854082 3.60028 121 124 129
1.64364 -0.897927 3.77745 123 176 149
0.534588 -0.854148 3.62802 132 137 135
0.581826 -0.853221 3.62155 102 112 112
1.93619 -0.896056 3.81428 173 207 197
1.66887 -0.8875 3.8015 62 78 55
0.282925 -0.827275 3.57306 120 121 125
1.70328 -0.877824 3.79189 73 102 87
0.612108 -0.837933 3.64667 78 101 96
0.797542 -0.838223 3.65688 133 139 146
0.526697 -0.822883 3.61064 250 252 252
0.90379 -0.831527 3.66494 111 118 135
0.243638 -0.806506 3.59269 198 220 218
-1.51956 -0.746077 3.36712 110 160 142
-1.57344 -0.736344 3.35958 90 148 130
-0.454679 -0.765451 3.49917 74 86 68
-0.493464 -0.760852 3.5101 196 220 218
0.998645 -0.78665 3.67995 136 136 152
-0.507634 -0.733554 3.48953 82 109 100
-0.351762 -0.74764 3.5277 88 96 85
0.720417 -0.775744 3.66622 126 155 152
0.934346 -0.769723 3.68421 187 187 203
0.607028 -0.75168 3.6231 251 253 253
0.612213 -0.75113 3.63118 223 227 228
-1.48489 -0.695859 3.38977 96 157 137
0.840636 -0.756907 3.68134 255 255 255
1.94443 -0.781828 3.82918 132 196 177
-1.23102 -0.692395 3.41128 94 147 120
0.802207 -0.74587 3.6817 255 255 255
0.990414 -0.739629 3.68518 150 156 167
2.14665 -0.774593 3.84479 61 63 57
0.363156 -0.712831 3.63022 174 183 193
0.392767 -0.718545 3.64869 194 199 208
0.76944 -0.722606 3.67941 114 126 138
-1.95703 -0.655704 3.34273 146 213 198
-0.366649 -0.687546 3.51714 170 237 222
0.194571 -0.704838 3.60823 253 255 255
2.05806 -0.755478 3.84691 135 178 167
2.1691 -0.753014 3.87232 188 228 216
2.13981 -0.748761 3.87792 219 236 232
-1.0746 -0.659312 3.43571 87 126 105
-1.06195 -0.658172 3.44986 70 106 90
-0.881696 -0.663036 3.47002 82 140 116
2.03264 -0.738751 3.86173 200 235 221
-1.53485 -0.644097 3.38863 90 158 127
-0.408639 -0.665414 3.51029 57 84 68
-0.335524 -0.673113 3.55194 69 70 61
-0.194985 -0.676185 3.56527 117 159 148
-0.930136 -0.653864 3.45063 162 210 204
0.345458 -0.682174 3.62407 149 153 158
-0.307888 -0.660111 3.55007 79 110 101
-1.21402 -0.621321 3.42862 53 92 66
-0.462067 -0.632846 3.50977 191 234 225
-0.442572 -0.639363 3.52175 105 160 141
-0.092648 -0.643818 3.57809 172 216 203
-1.1625 -0.619143 3.43908 62 95 80
-1.06738 -0.615416 3.45537 88 115 81
-0.294004 -0.633381 3.55285 232 255 255
0.409621 -0.649883 3.64267 251 255 254
-0.312158 -0.625092 3.54384 55 62 47
-0.110394 -0.633087 3.57206 130 181 167
0.330374 -0.639405 3.63495 185 174 176
-1.11964 -0.606736 3.44539 167 231 209
-1.65458 -0.584044 3.39729 88 148 114
-0.607963 -0.602226 3.52392 105 160 143
-0.086422 -0.61183 3.56896 47 57 51
2.15166 -0.670709 3.88844 70 99 73
0.249028 -0.619965 3.6335 169 173 191
-0.94204 -0.579421 3.47951 101 142 114
-0.374076 -0.588547 3.52314 189 239 221
-0.129902 -0.597255 3.56309 164 248 224
-0.087935 -0.596868 3.58858 165 208 195
0.933319 -0.606704 3.66626 139 215 181
-1.24566 -0.561741 3.44492 102 148 126
-1.11358 -0.56321 3.46109 64 102 74
0.0393176 -0.58915 3.60975 255 255 255
0.399472 -0.591396 3.65693 102 135 120
2.02419 -0.62611 3.86949 162 205 190
-0.249956 -0.569339 3.53374 106 137 134
2.39836 -0.626977 3.88281 139 183 170
-0.188699 -0.563044 3.54196 102 148 135
0.197984 -0.571726 3.63623 137 131 142
-1.26281 -0.529598 3.42055 143 231 185
-1.20586 -0.537643 3.44193 99 140 132
-1.03892 -0.541403 3.47451 113 158 139
0.612432 -0.575199 3.68767 113 178 153
-0.942414 -0.540365 3.49222 80 133 100
0.391144 -0.567694 3.65392 109 113 114
-1.22846 -0.525954 3.4332 136 226 197
-0.857153 -0.53656 3.48383 68 90 65
0.227113 -0.556881 3.6409 253 255 255
0.591479 -0.555572 3.68458 255 255 254
2.12766 -0.588035 3.89192 177 211 201
-0.968143 -0.522999 3.47163 67 91 67
-0.132588 -0.539536 3.56684 133 206 190
-0.959635 -0.517025 3.47999 52 73 48
-1.36413 -0.504161 3.43922 154 215 189
-0.132016 -0.51847 3.56392 86 120 110
0.00472731 -0.528405 3.61931 68 84 77
0.698053 -0.533468 3.70444 121 153 152
0.321582 -0.525058 3.65272 173 185 195
0.0145575 -0.513847 3.62623 111 138 134
2.26365 -0.556944 3.90377 122 194 148
-1.38081 -0.477723 3.41677 164 231 186
-0.0227887 -0.499603 3.58754 82 82 82
-1.3654 -0.478371 3.44114 123 198 166
0.708033 -0.512811 3.70511 99 131 114
2.07066 -0.541974 3.8956 95 102 99
0.781453 -0.502511 3.71281 65 118 85
-1.48443 -0.461466 3.43762 76 134 99
-0.0194517 -0.481661 3.59911 239 255 255
-1.24477 -0.464287 3.45524 72 113 106
-0.357991 -0.476897 3.54768 55 68 70
2.09628 -0.524629 3.93341 172 223 216
0.702104 -0.490967 3.71675 89 126 106
0.790035 -0.491981 3.72485 103 146 125
2.02544 -0.512068 3.89859 142 187 178
0.189497 -0.47818 3.64914 117 127 144
0.45894 -0.48182 3.68794 254 254 254
-1.07205 -0.450279 3.48407 133 209 185
-0.914673 -0.450809 3.48501 151 213 177
-0.496797 -0.462718 3.56062 180 231 227
0.628726 -0.478311 3.70795 189 189 195
-1.02374 -0.44633 3.48954 92 136 119
-0.302163 -0.459955 3.57454 84 97 99
-0.922048 -0.445248 3.52038 181 249 218
-1.09197 -0.435826 3.47347 150 240 187
-1.61551 -0.427692 3.43589 100 148 120
-1.6305 -0.420449 3.42458 184 243 212
-0.894267 -0.430903 3.51877 102 163 143
-1.17079 -0.423157 3.46853 182 241 226
-0.251498 -0.431892 3.59441 104 158 145
0.190975 -0.445259 3.64366 174 185 207
0.705452 -0.45484 3.7203 255 255 255
0.328891 -0.441214 3.67019 118 165 162
-1.29544 -0.401445 3.45225 103 158 139
0.659102 -0.432934 3.73113 161 198 194
2.02417 -0.447283 3.89633 113 150 140
0.414171 -0.417086 3.68485 105 141 127
2.30605 -0.44811 3.93182 158 229 213
-0.390841 -0.401738 3.55901 144 167 169
-0.00227999 -0.409 3.62617 126 141 150
-1.55164 -0.382879 3.44454 68 94 80
0.553041 -0.411079 3.70053 106 158 148
-1.25754 -0.376431 3.47604 89 118 123
-1.08608 -0.381675 3.48151 64 128 93
0.368313 -0.402265 3.694 103 156 142
-0.866617 -0.380364 3.53368 63 92 66
-0.244727 -0.388781 3.59691 255 255 255
0.79501 -0.394059 3.71187 149 226 192
-0.18775 -0.379288 3.62092 63 72 69
2.04551 -0.411087 3.86402 150 198 192
-0.406615 -0.372878 3.57573 75 104 109
0.79862 -0.391403 3.72814 139 226 200
-0.9817 -0.355741 3.49816 130 196 161
0.232633 -0.369451 3.67572 255 255 255
-0.813238 -0.348674 3.54168 89 142 115
0.0698583 -0.359888 3.65222 57 70 68
0.532988 -0.367443 3.72488 141 187 175
0.599633 -0.366222 3.71988 129 192 176
0.0361933 -0.354879 3.63191 109 142 157
0.0387815 -0.354783 3.63248 63 92 101
-1.28783 -0.329272 3.48607 62 103 72
-0.308878 -0.341767 3.6016 58 78 83
-0.483699 -0.334167 3.59106 185 238 241
-0.395959 -0.329072 3.58796 63 87 79
0.448607 -0.34155 3.70837 253 255 254
-0.201224 -0.323049 3.60507 246 255 255
0.665719 -0.330596 3.73867 149 195 183
-1.04813 -0.305922 3.51046 26 56 67
2.50787 -0.342451 3.9325 105 186 161
-1.34389 -0.295459 3.4658 100 170 130
-0.72825 -0.30356 3.54813 93 144 130
-2.02394 -0.288588 3.4267 68 107 91
-1.22549 -0.293853 3.47966 146 205 185
-1.39749 -0.284779 3.48035 162 215 206
-0.909477 -0.290701 3.51992 147 221 185
-0.290909 -0.300456 3.59892 102 126 126
-2.06339 -0.277858 3.43454 73 125 107
-1.32342 -0.281245 3.46763 50 101 67
-1.0863 -0.281986 3.50413 55 102 69
0.388703 -0.291275 3.70451 250 252 252
-1.21371 -0.272303 3.49415 64 126 104
-0.459249 -0.275187 3.5999 106 140 133
0.0693594 -0.282086 3.66716 120 119 121
0.611733 -0.29312 3.74346 219 234 236
-1.11256 -0.263717 3.50551 163 224 190
-1.13676 -0.263021 3.52339 69 110 79
-2.038 -0.250925 3.44019 80 129 113
-1.25616 -0.255709 3.50049 33 66 39
-0.687818 -0.257382 3.57194 71 115 98
0.251575 -0.260627 3.6844 129 173 160
0.592245 -0.259453 3.73868 101 142 135
-0.768916 -0.23959 3.57038 85 147 123
-0.577022 -0.235963 3.58186 202 244 233
-1.07135 -0.228104 3.51284 127 192 146
-1.11969 -0.217568 3.5072 67 122 103
-0.578088 -0.222077 3.59015 80 119 103
-1.63697 -0.212124 3.47959 78 122 93
-1.37584 -0.210844 3.48006 57 106 86
-1.27024 -0.207389 3.50238 51 103 79
-1.03345 -0.198543 3.52816 31 72 74
0.589248 -0.213079 3.74925 93 146 133
-2.049 -0.174255 3.45061 80 133 119
0.572001 -0.194782 3.75262 250 255 255
-0.253455 -0.180874 3.62113 97 121 139
-1.00634 -0.164726 3.54017 38 76 54
-0.356661 -0.172428 3.62471 228 242 248
-1.26463 -0.161244 3.52539 65 93 74
-1.62683 -0.160425 3.49381 111 181 151
2.16227 -0.172928 3.94622 82 149 117
-1.43363 -0.150119 3.49266 106 143 133
-1.0233 -0.147448 3.54976 134 197 158
0.0263372 -0.150852 3.69058 142 155 171
-1.55355 -0.144269 3.5093 80 125 106
2.06481 -0.159366 3.96277 116 118 118
-0.831402 -0.132343 3.58062 104 166 148
-0.195343 -0.140207 3.65736 59 75 81
-1.03513 -0.131358 3.549 66 114 72
-1.45984 -0.120663 3.50188 64 98 74
-1.0252 -0.119149 3.5532 93 149 120
0.452986 -0.129274 3.75552 242 255 252
2.09274 -0.133204 3.96905 99 97 96
-0.659111 -0.109894 3.60905 69 126 88
-1.90796 -0.106383 3.4837 91 168 147
2.11031 -0.120039 3.96869 168 196 197
0.000286001 -0.105695 3.6941 253 255 255
-0.236251 -0.100459 3.65753 125 177 194
-0.444416 -0.091015 3.63296 121 159 163
-1.40179 -0.0876166 3.51732 77 115 97
-0.256146 -0.090067 3.65957 226 249 255
-0.247986 -0.0904209 3.66041 228 248 253
-0.992383 -0.086254 3.58098 102 161 130
-0.175686 -0.0899261 3.66459 46 77 74
0.138334 -0.0803141 3.72191 255 254 253
-2.0878 -0.0711389 3.49221 92 159 132
0.927755 -0.0683485 3.83287 255 255 255
-0.631792 -0.0544533 3.63292 88 141 114
0.866252 -0.0584498 3.8104 92 171 144
2.33182 -0.0609238 4.0074 145 214 193
-1.37262 -0.0520623 3.54619 83 123 105
-1.42661 -0.0415467 3.542 110 162 144
0.174848 -0.0456754 3.73032 67 116 102
0.470258 -0.0430485 3.77686 102 170 145
-0.253405 -0.0394331 3.64934 151 198 220
0.178004 -0.0423775 3.72342 86 138 121
0.850183 -0.0379606 3.81228 91 153 131
0.945538 -0.0401293 3.85123 133 154 146
0.27408 -0.0371252 3.73568 84 120 114
-0.013574 -0.028634 3.70445 69 113 107
-1.4192 -0.0262995 3.53844 116 167 147
-0.949852 -0.0191415 3.59388 66 112 83
0.0069265 -0.0205788 3.7079 74 109 95
0.933796 -0.0192124 3.83895 86 125 117
-0.893345 -0.0139959 3.60288 73 127 92
0.279324 -0.00430819 3.7274 84 110 104
2.5122 -0.00224419 3.98199 95 147 123
0.26798 0.0135915 3.73113 172 217 198
-0.926484 0.0161475 3.60628 83 149 107
2.28443 0.0148847 3.95346 152 225 179
-0.950947 0.0208558 3.60451 69 127 99
0.158448 0.0197119 3.73519 108 145 137
-0.26599 0.0346049 3.68907 117 165 169
-0.0612206 0.0391305 3.71034 123 174 200
0.141008 0.0370404 3.7402 118 152 142
0.172626 0.0468594 3.74953 60 79 60
-1.3466 0.0484541 3.56729 114 173 158
0.10915 0.0534553 3.75473 77 94 73
0.189019 0.0530867 3.75277 160 223 207
0.698369 0.0575018 3.80927 134 186 162
0.170725 0.0697445 3.75304 111 134 120
0.662204 0.0712289 3.80967 102 123 108
-2.0612 0.0714361 3.51928 103 157 158
-1.41473 0.0714879 3.56674 94 155 117
-1.71984 0.0821505 3.54739 110 169 154
2.38424 0.0954723 3.98642 104 147 134
0.631762 0.0923489 3.81713 102 132 119
0.633049 0.0912376 3.81325 99 124 110
0.739556 0.0916395 3.83848 188 227 229
-1.27848 0.0918963 3.58502 79 153 127
0.231837 0.0969291 3.75568 87 114 98
-0.220761 0.111518 3.7186 93 116 132
-1.21898 0.107827 3.59458 90 144 127
-0.186775 0.119844 3.71404 94 121 117
-0.0720369 0.117902 3.72415 87 146 125
-0.0231685 0.140054 3.73876 78 98 93
-0.158144 0.145298 3.7202 77 76 85
0.163332 0.143414 3.7744 107 144 136
0.637433 0.154484 3.81265 95 136 131
0.203546 0.157938 3.7715 127 156 140
-0.762544 0.165307 3.65499 87 146 125
0.199856 0.176388 3.78418 74 88 70
0.322424 0.180573 3.77781 94 100 111
-1.2474 0.180402 3.61239 86 156 133
0.187834 0.191587 3.78808 116 173 164
0.370686 0.193524 3.79461 159 188 202
2.00272 0.226501 3.90521 159 201 170
-1.06208 0.217442 3.64068 102 162 144
0.472905 0.227751 3.82122 109 116 141
0.38641 0.235122 3.82669 74 100 100
-1.035 0.230732 3.63626 102 163 143
-1.21955 0.240901 3.62091 86 149 129
-0.783134 0.251396 3.68069 79 134 117
0.882157 0.266932 3.8664 105 158 138
0.210216 0.279183 3.80007 60 65 63
0.991485 0.289046 3.90104 251 255 255
-0.560737 0.278671 3.71401 76 138 114
1.99029 0.292873 3.88209 78 110 91
0.872913 0.295659 3.88471 177 227 215
0.991813 0.307878 3.9061 216 243 234
0.603513 0.307155 3.85809 86 108 114
-1.48411 0.293429 3.62053 81 138 107
0.239255 0.31229 3.80724 102 113 121
0.690718 0.312591 3.86258 117 175 157
0.627949 0.316642 3.85783 115 151 145
-0.43961 0.314504 3.73706 255 255 255
0.897137 0.327854 3.87461 113 160 144
-0.394858 0.329782 3.73721 88 136 124
2.36268 0.353936 4.04517 53 93 75
0.464983 0.341711 3.86312 146 161 187
2.56649 0.368657 4.06283 84 119 109
-0.355302 0.344069 3.7452 89 115 97
0.370387 0.354446 3.84916 100 138 120
-0.561873 0.349555 3.72722 63 129 110
-0.13537 0.371602 3.7729 65 109 86
-0.038621 0.373883 3.78162 61 115 86
2.58787 0.403584 4.05624 105 160 121
2.37123 0.405864 4.03238 96 139 124
-0.254288 0.394824 3.77351 68 127 96
0.0937736 0.406517 3.8124 112 161 159
-0.328566 0.404843 3.76352 82 131 117
2.39324 0.442401 4.02639 158 239 182
-0.172136 0.418774 3.79053 117 182 156
-0.00120053 0.419008 3.80126 73 82 61
-0.414581 0.417488 3.74811 99 151 121
-0.413986 0.423256 3.76338 105 159 122
-0.12384 0.422437 3.79767 165 232 200
-0.405113 0.42683 3.74663 54 118 82
0.0453548 0.439988 3.82914 62 84 66
-0.344183 0.428693 3.76022 72 110 88
-0.220854 0.440434 3.77838 75 141 112
-0.165699 0.441122 3.77319 53 113 65
-0.122669 0.448719 3.79732 159 250 201
0.673861 0.455067 3.87315 108 160 142
-1.76655 0.434765 3.62519 91 148 127
-0.203783 0.461264 3.79082 58 68 52
-0.152905 0.453701 3.78479 130 231 175
-0.2048 0.464108 3.78501 46 58 38
-0.11075 0.460367 3.78072 138 207 162
0.128877 0.473677 3.83662 88 111 96
0.401222 0.484844 3.86635 66 102 88
0.825167 0.487912 3.91322 73 105 100
-0.37806 0.47399 3.76662 77 120 99
0.0735817 0.482859 3.80798 127 201 173
-0.345032 0.47746 3.77522 69 112 91
-0.163017 0.479085 3.76843 184 249 210
0.168747 0.495759 3.85259 124 164 162
0.74094 0.504129 3.9049 65 114 94
-1.15141 0.478935 3.69641 93 167 143
2.43918 0.533014 4.07603 94 155 119
0.0754173 0.503414 3.84658 104 159 132
0.617146 0.512787 3.90681 245 247 247
-0.266954 0.49477 3.77221 82 126 109
-0.195437 0.499144 3.76453 125 187 135
-0.180499 0.502762 3.77794 35 44 31
0.020074 0.51129 3.83579 131 185 155
0.127773 0.506064 3.82918 150 208 197
-0.292376 0.504615 3.77496 67 114 88
-1.7491 0.490162 3.63566 87 134 101
0.126747 0.529935 3.85419 65 106 85
1.28788 0.542137 3.97887 92 137 128
-1.96472 0.50057 3.64755 76 113 93
-0.539693 0.538302 3.76296 62 109 77
-0.436235 0.543778 3.79543 67 112 79
-0.302827 0.538528 3.77407 163 246 208
-0.287966 0.545449 3.77325 65 101 85
-0.788765 0.545712 3.73918 91 140 124
1.66867 0.593359 4.03874 98 137 112
-1.7984 0.539956 3.6522 53 102 70
-0.879316 0.549172 3.74202 66 103 87
-0.794421 0.551257 3.75255 77 130 110
-0.495859 0.554191 3.76512 57 123 74
0.123671 0.565605 3.85802 91 128 112
-0.582556 0.553669 3.76754 81 150 117
-1.80178 0.541493 3.63456 161 244 205
-0.776906 0.558527 3.74643 61 108 99
-0.309194 0.564952 3.77477 162 222 191
-1.98113 0.54771 3.64532 251 255 255
-0.796437 0.571168 3.75168 74 144 114
0.0481653 0.581037 3.84779 105 118 96
0.814999 0.593675 3.93154 87 155 132
2.22385 0.613991 4.05404 63 110 94
-1.915 0.572655 3.65194 103 151 115
-0.387333 0.60031 3.79943 60 88 65
0.752986 0.615462 3.90835 93 132 124
-0.535027 0.600118 3.77929 70 122 92
-0.184407 0.58312 3.66728 128 186 151
-2.10145 0.581397 3.63329 77 132 105
-1.60875 0.59045 3.68396 78 128 98
-0.547288 0.604029 3.78532 65 116 79
-0.496696 0.601322 3.76206 56 110 63
-1.79063 0.589012 3.65253 142 219 181
2.40302 0.656234 4.06393 161 233 191
-1.74257 0.596487 3.66405 99 145 122
0.0555909 0.625682 3.84268 62 69 54
-2.14601 0.597697 3.62977 88 146 111
-0.413617 0.618128 3.77607 161 241 194
0.658795 0.642796 3.91921 110 154 141
2.60761 0.68451 4.141 119 196 159
-1.78747 0.608861 3.66374 59 103 72
-2.117 0.610147 3.65328 79 141 111
-1.8275 0.611219 3.66244 52 79 45
-0.48783 0.634682 3.77978 44 100 59
0.0573965 0.641481 3.85432 136 176 158
-0.580012 0.630967 3.78064 46 91 58
-0.12598 0.615743 3.64248 124 179 146
0.00893664 0.644603 3.84325 110 165 132
0.105065 0.657892 3.86445 143 195 178
-0.538269 0.648501 3.79239 84 147 107
0.19569 0.664982 3.87535 85 132 110
2.66629 0.708869 4.15293 57 110 90
-0.130997 0.626976 3.66778 139 222 177
-1.42988 0.638917 3.6968 110 165 148
-0.156203 0.648086 3.67458 53 75 57
-0.530988 0.680339 3.80144 69 111 76
-0.575963 0.685558 3.80435 60 106 63
-0.432342 0.683171 3.80092 62 125 85
-0.11643 0.657423 3.65847 92 143 115
-1.73819 0.670114 3.69014 89 143 113
