ply
format ascii 1.0
element vertex 912
property float x
property float y
property float z
property uchar blue
property uchar green
property uchar red
end_header
0.477528 -0.738973 1.73817 54 133 90
0.206456 -0.73214 1.79299 100 143 140
0.4187 -0.694943 1.7412 112 160 131
0.102907 -0.703346 1.80283 148 186 190
0.089097 -0.692823 1.80604 64 108 101
0.0477531 -0.686511 1.80732 167 224 215
0.339301 -0.655735 1.75507 142 205 179
0.049949 -0.674803 1.81061 150 203 193
0.594923 -0.6274 1.72813 54 107 87
0.121939 -0.652709 1.80529 161 201 196
0.217058 -0.637426 1.79819 58 71 69
-0.0720061 -0.640584 1.82181 63 123 113
0.362658 -0.62198 1.77253 147 203 182
-0.459259 -0.649659 1.85855 140 193 173
0.413065 -0.613861 1.76214 62 107 88
0.103614 -0.625395 1.80881 133 185 175
0.263417 -0.612104 1.78022 154 193 171
0.141358 -0.611147 1.80637 73 123 119
-0.0862696 -0.611244 1.82822 66 142 124
0.208008 -0.596658 1.80222 183 212 209
0.233261 -0.582135 1.80088 154 184 179
0.230472 -0.579154 1.80112 149 193 192
0.234833 -0.571039 1.80068 194 220 226
0.296646 -0.543048 1.79324 135 160 150
-0.36832 -0.557963 1.8607 113 173 167
0.279216 -0.530583 1.79923 97 137 135
0.282611 -0.530226 1.79682 88 108 113
0.241915 -0.51072 1.80596 136 183 181
-0.12039 -0.507869 1.83415 133 187 170
-0.128992 -0.505087 1.83662 140 199 179
0.388551 -0.490944 1.78781 141 191 179
0.260249 -0.489403 1.80284 79 110 103
-0.136172 -0.498448 1.8372 150 198 186
0.280193 -0.487513 1.80138 97 108 105
-0.0187324 -0.490611 1.82283 126 166 165
-0.141668 -0.491706 1.83924 129 177 149
0.220158 -0.473461 1.80725 166 219 209
0.362833 -0.469163 1.79288 170 229 208
-0.15754 -0.465333 1.84295 145 190 193
-0.15578 -0.465791 1.84485 99 138 146
0.795277 -0.441348 1.75566 170 227 206
-0.126033 -0.458159 1.83885 148 187 179
0.362315 -0.445769 1.79614 157 220 204
-0.0663346 -0.452919 1.83151 133 176 165
0.452182 -0.442309 1.79038 78 139 129
0.799537 -0.42735 1.75865 147 201 184
0.746877 -0.422732 1.76205 140 192 174
-0.302634 -0.429665 1.86157 74 114 112
0.417522 -0.412235 1.79069 89 156 141
0.263874 -0.41041 1.80948 86 159 143
0.392661 -0.400625 1.79298 171 223 213
0.208682 -0.403249 1.81651 83 150 143
0.168308 -0.396283 1.82208 67 100 120
0.345455 -0.388673 1.79983 66 116 104
0.34811 -0.388751 1.79932 155 208 195
0.171762 -0.385173 1.82418 64 100 116
0.322655 -0.379361 1.80348 144 190 178
0.434487 -0.376494 1.79264 70 131 117
0.350536 -0.375616 1.80058 71 128 119
0.466625 -0.373536 1.79141 103 140 138
0.74372 -0.366352 1.76137 152 215 189
0.501724 -0.369057 1.78667 112 160 148
0.394315 -0.36833 1.79491 79 126 117
0.176622 -0.364859 1.82373 79 133 128
0.209663 -0.359841 1.81671 67 116 108
0.5923 -0.351205 1.77887 52 99 83
0.720071 -0.340466 1.76716 69 133 121
0.594927 -0.341003 1.77565 129 182 168
0.187595 -0.335829 1.82361 88 123 136
0.513949 -0.329239 1.78437 120 180 156
-0.238326 -0.332378 1.8639 158 215 206
0.806711 -0.313403 1.76222 71 134 118
0.641407 -0.313845 1.77476 97 148 134
0.468975 -0.298855 1.79687 151 212 198
0.567615 -0.258688 1.78634 140 198 187
0.845133 -0.251285 1.76549 102 162 152
0.193853 -0.250058 1.82648 80 135 132
0.517272 -0.242276 1.7936 95 148 138
0.0753802 -0.245365 1.83242 120 150 151
-0.315938 -0.243452 1.87487 91 152 142
0.547354 -0.221919 1.79241 71 135 123
0.882495 -0.20706 1.76512 183 220 216
0.54497 -0.208714 1.79073 168 216 204
0.441443 -0.208842 1.80386 153 214 200
0.0901493 -0.211313 1.83576 130 175 166
0.452807 -0.12427 1.80775 151 208 199
0.589238 -0.122276 1.79153 159 202 193
0.581463 -0.119525 1.7953 142 199 184
0.657451 -0.094121 1.78628 175 213 201
0.642491 -0.0831722 1.79145 76 107 104
-0.0807302 -0.0810703 1.85647 89 153 141
0.59335 -0.0733059 1.79261 86 121 107
0.587458 -0.0576467 1.79376 160 197 195
-0.110401 -0.0542082 1.86014 99 153 136
0.0237771 -0.0482491 1.84995 107 161 154
0.266736 -0.0174971 1.8304 92 152 144
0.500578 -0.738305 1.73421 35 83 55
0.506762 -0.720715 1.7382 90 141 104
0.0872376 -0.737414 1.79866 117 191 173
0.543843 -0.693978 1.72371 130 175 136
0.576374 -0.683725 1.71826 168 201 174
0.195714 -0.702978 1.79675 179 218 216
0.273693 -0.630233 1.77865 66 113 97
0.310956 -0.619598 1.7695 157 194 178
0.25125 -0.622606 1.78063 163 206 191
0.305909 -0.618368 1.77036 137 199 175
0.40257 -0.610252 1.76315 138 205 174
0.414883 -0.608238 1.76103 131 180 148
0.205999 -0.615189 1.80027 109 136 133
0.14137 -0.611176 1.80624 73 123 119
0.2138 -0.587005 1.80287 134 178 179
0.534687 -0.545698 1.75097 104 129 115
-0.0325574 -0.553994 1.80081 80 152 140
0.31514 -0.529212 1.7891 79 131 114
-0.381582 -0.543684 1.86066 94 154 146
0.241367 -0.510912 1.80537 132 179 177
-0.848915 -0.524176 1.89498 114 162 156
-0.497118 -0.512499 1.86817 101 156 159
-0.113501 -0.498739 1.834 158 198 187
0.564875 -0.481152 1.77178 50 74 64
-0.294463 -0.503242 1.85561 121 170 156
-0.115728 -0.496743 1.83313 56 96 85
0.750663 -0.477209 1.7609 108 167 152
-0.120861 -0.494059 1.83293 119 154 140
-0.14226 -0.49186 1.83868 136 193 162
0.279719 -0.482062 1.803 86 122 116
0.430579 -0.470793 1.7876 86 130 129
0.220217 -0.473405 1.80745 166 219 209
0.645597 -0.454969 1.76767 68 134 115
0.136188 -0.46561 1.81916 98 136 136
0.386547 -0.454831 1.79119 144 186 179
-0.155715 -0.466072 1.84388 93 129 135
-0.320596 -0.46717 1.86001 94 114 115
0.143752 -0.452537 1.81727 159 209 199
-0.0708155 -0.456017 1.83236 143 196 186
-0.026807 -0.452544 1.8312 70 101 94
-0.0205167 -0.445997 1.82862 182 226 220
0.356707 -0.421839 1.79822 111 161 157
-0.0122483 -0.425136 1.83132 112 152 150
0.393011 -0.400218 1.7942 173 225 215
0.367265 -0.40075 1.79673 91 126 116
0.146946 -0.406084 1.82446 100 157 179
0.0685004 -0.397987 1.82915 84 152 145
0.348268 -0.388637 1.79966 155 208 195
0.438233 -0.384021 1.78906 121 168 152
0.326844 -0.380648 1.80275 162 211 197
0.407389 -0.378643 1.7932 166 219 206
0.665456 -0.372509 1.77214 145 183 183
0.466345 -0.373616 1.79122 103 140 138
-0.671753 -0.390101 1.89589 181 228 220
0.510031 -0.365325 1.78655 78 128 116
0.177507 -0.369138 1.82216 111 164 150
0.267628 -0.362255 1.81093 79 148 133
0.119467 -0.355956 1.82589 84 146 132
0.601856 -0.344137 1.77529 89 133 120
0.508703 -0.338302 1.78825 119 185 160
0.463878 -0.335507 1.7964 78 127 107
0.847372 -0.328783 1.76139 115 171 160
0.187583 -0.335934 1.82333 88 123 136
0.156752 -0.319863 1.82441 91 140 138
-0.120428 -0.320979 1.84922 92 155 146
0.620548 -0.306044 1.77776 170 227 218
0.805118 -0.299226 1.76564 84 152 135
0.301158 -0.30441 1.81248 93 139 127
0.626487 -0.296749 1.7784 88 135 127
0.105528 -0.30448 1.82643 110 157 154
0.8242 -0.293652 1.76466 114 170 159
0.484142 -0.297531 1.79385 132 178 166
0.512335 -0.290447 1.79136 139 193 180
0.607344 -0.28846 1.77936 88 144 125
0.140625 -0.295226 1.82678 112 171 163
0.663738 -0.276027 1.77263 95 126 117
0.471698 -0.26927 1.79766 74 114 109
0.567822 -0.258377 1.78709 139 199 188
0.928977 -0.25247 1.76468 94 161 146
0.508773 -0.255606 1.79373 84 156 133
0.193724 -0.250393 1.82566 88 142 137
0.815837 -0.229675 1.77037 93 159 147
-0.380433 -0.241252 1.87712 112 165 162
0.601095 -0.228169 1.78437 78 137 122
0.269104 -0.226453 1.8193 83 147 135
0.601669 -0.222501 1.78568 145 205 194
0.320177 -0.218104 1.81371 98 154 143
0.733151 -0.211298 1.77261 138 181 172
0.184557 -0.21783 1.8305 109 159 165
0.736033 -0.209621 1.77342 84 134 122
0.596136 -0.209559 1.78764 87 162 148
0.701688 -0.208482 1.7712 155 217 193
-0.0898428 -0.216946 1.84606 114 167 157
0.746541 -0.205698 1.7737 82 120 108
0.138302 -0.211225 1.83098 115 167 160
0.428955 -0.203467 1.80838 86 126 114
-0.193491 -0.200811 1.86601 173 225 215
0.332155 -0.189631 1.81501 93 129 115
0.0284964 -0.189649 1.84304 102 145 148
0.782656 -0.17714 1.77305 143 211 194
-0.201021 -0.18601 1.86686 99 155 150
0.811217 -0.165483 1.76988 55 122 101
0.30356 -0.16725 1.81765 105 156 148
0.359465 -0.165629 1.81411 92 128 112
-0.0703213 -0.16444 1.84908 125 176 169
0.576725 -0.157755 1.79269 101 171 158
0.243884 -0.15855 1.82735 100 135 185
0.0677909 -0.145625 1.84239 97 144 135
0.594128 -0.141454 1.79501 90 143 133
0.0235892 -0.144067 1.84606 76 138 132
0.471703 -0.137317 1.80287 91 132 125
0.59265 -0.125935 1.78919 161 215 202
0.584576 -0.125399 1.79331 154 210 197
0.576237 -0.119317 1.79675 163 228 212
0.759936 -0.111423 1.78097 82 148 137
0.804315 -0.102729 1.77803 154 226 196
0.318027 -0.10411 1.82118 98 141 128
-0.139758 -0.10113 1.86645 118 179 175
0.653434 -0.0950078 1.78943 95 124 115
0.0706834 -0.0973617 1.8418 70 108 102
0.573781 -0.0864603 1.79834 77 131 114
0.433961 -0.0806993 1.81034 90 124 113
-0.0806553 -0.0809633 1.85669 78 144 133
0.593504 -0.0732081 1.7928 72 104 93
0.809579 -0.0667135 1.7799 101 163 151
-0.110389 -0.0543688 1.85983 99 153 136
0.387043 -0.0514612 1.81754 107 156 142
0.360582 -0.032143 1.82396 171 217 211
0.362128 -0.0296506 1.8228 75 105 94
0.350658 -0.0178004 1.82339 89 164 148
0.500778 -0.738232 1.73469 40 88 60
0.545908 -0.728382 1.70903 129 150 118
0.196766 -0.761853 1.79392 78 89 86
0.490114 -0.736939 1.73887 73 134 98
-0.396921 -0.78001 1.84878 103 164 154
0.194673 -0.75558 1.79445 164 201 199
0.315408 -0.731948 1.74752 30 37 30
0.305976 -0.730671 1.75074 112 144 127
-0.117983 -0.754725 1.81955 102 153 146
0.506624 -0.720368 1.73713 90 141 104
0.217094 -0.739541 1.79108 80 121 123
0.534206 -0.705979 1.72157 85 104 83
0.0298365 -0.738035 1.80612 76 145 132
0.54055 -0.702809 1.7238 100 119 94
0.1642 -0.727276 1.79108 106 142 136
0.0326022 -0.729633 1.80498 105 160 145
-0.265788 -0.737344 1.83791 76 139 129
0.412277 -0.698209 1.74189 115 196 149
-0.128835 -0.722799 1.82497 100 159 151
0.160945 -0.712513 1.79644 108 159 151
-0.0255647 -0.717811 1.81605 96 153 145
0.558011 -0.680808 1.72146 140 194 171
0.338261 -0.690504 1.75291 116 161 142
0.281798 -0.695389 1.77238 130 173 152
0.518245 -0.67749 1.72672 163 203 162
-0.103833 -0.712031 1.82266 90 137 134
-0.918541 -0.730871 1.88645 104 147 138
-0.752323 -0.728192 1.87973 76 157 138
0.132099 -0.695643 1.797 108 146 146
0.3407 -0.677868 1.75591 109 134 108
0.334487 -0.672486 1.7544 120 144 112
0.157601 -0.687989 1.79801 65 116 108
0.539813 -0.658335 1.7283 68 107 75
0.140262 -0.683591 1.79808 100 129 126
0.33478 -0.668175 1.75522 36 56 44
0.28385 -0.671583 1.77364 67 109 92
0.190899 -0.679481 1.79623 98 122 122
0.546886 -0.650541 1.72964 110 149 117
0.041606 -0.669928 1.81383 60 114 109
0.400096 -0.644292 1.75733 135 212 175
-0.762101 -0.690672 1.88307 87 131 124
0.401154 -0.64371 1.76021 160 223 191
0.292135 -0.643267 1.77124 145 193 165
-0.361847 -0.664734 1.85177 94 153 145
0.205508 -0.637469 1.79896 168 225 217
0.367555 -0.624448 1.77331 55 127 104
0.24711 -0.622581 1.77677 83 123 105
0.281664 -0.61428 1.77365 79 135 114
-1.11697 -0.65779 1.90545 98 140 133
0.286632 -0.6088 1.7729 126 191 170
0.257694 -0.611186 1.77917 147 193 174
0.206021 -0.615183 1.80029 109 136 133
0.14115 -0.615211 1.80599 98 137 135
0.422257 -0.6 1.76151 37 76 61
0.141546 -0.611029 1.80692 73 123 119
-0.746337 -0.616937 1.88477 148 220 207
-0.341443 -0.60239 1.85583 212 246 246
0.217305 -0.585832 1.80409 172 218 212
-0.138299 -0.592469 1.83344 72 136 124
0.169074 -0.583284 1.80547 76 121 112
0.212457 -0.581359 1.80281 196 228 223
-0.507417 -0.584903 1.86506 120 181 171
-0.344463 -0.580262 1.85584 87 143 138
-0.367422 -0.579811 1.85623 114 165 158
-0.519495 -0.580144 1.86697 119 159 157
-0.206876 -0.57163 1.84353 102 165 156
0.268247 -0.554511 1.79499 78 106 100
0.283324 -0.55003 1.79402 158 204 192
-0.38676 -0.568873 1.8589 90 142 142
0.293393 -0.546579 1.79199 81 102 100
-0.58852 -0.569953 1.87554 111 135 117
-0.412585 -0.565351 1.86387 102 142 140
-0.561814 -0.565139 1.87385 109 159 149
0.28933 -0.539367 1.79436 192 223 216
-0.564489 -0.559702 1.87274 156 218 202
-0.0343619 -0.537381 1.80048 136 196 178
0.295788 -0.53115 1.79584 76 86 86
-0.591384 -0.553884 1.87712 92 124 119
-0.548999 -0.553305 1.87555 76 137 133
-0.128834 -0.540147 1.83541 66 116 106
-0.397907 -0.545929 1.86301 92 143 136
0.621253 -0.51661 1.76518 58 77 74
-0.508354 -0.54323 1.86938 95 152 151
-0.68938 -0.545462 1.88692 124 190 179
-0.715188 -0.543755 1.88635 112 145 130
-0.244534 -0.531804 1.84971 92 147 150
-0.392096 -0.532214 1.86424 103 167 162
-0.803863 -0.539866 1.89813 71 110 95
0.286118 -0.510043 1.79649 154 195 180
-0.160945 -0.521625 1.83933 73 143 137
-0.209791 -0.521434 1.84748 89 139 137
0.54264 -0.500661 1.77542 139 161 156
0.493268 -0.497892 1.77449 181 219 213
0.532101 -0.498503 1.77618 143 177 166
-0.117456 -0.511252 1.83198 117 176 156
-0.377542 -0.516496 1.86139 92 138 145
0.403764 -0.493337 1.78674 153 167 166
-0.142575 -0.504885 1.83656 101 151 147
0.016234 -0.499222 1.82515 89 162 146
0.426058 -0.490061 1.78716 141 180 172
0.0161755 -0.498908 1.82629 95 166 150
0.424292 -0.486086 1.78804 87 109 107
0.261274 -0.48925 1.80545 89 114 110
-0.119726 -0.495096 1.83268 114 156 145
0.42146 -0.483003 1.78734 151 191 189
-0.381338 -0.502645 1.86228 116 153 149
0.418015 -0.481727 1.78807 103 141 143
0.564278 -0.476938 1.77246 122 158 142
0.656685 -0.475536 1.76604 108 161 151
-0.141995 -0.491825 1.83882 129 186 155
-0.126618 -0.489372 1.83169 104 140 134
0.273098 -0.4832 1.80384 92 139 130
-0.290313 -0.494881 1.85717 78 118 113
0.00617532 -0.486473 1.82636 74 123 121
-0.119824 -0.486071 1.83697 85 137 127
-0.165806 -0.486319 1.84449 81 128 125
-0.130018 -0.485739 1.8357 83 124 119
-0.11252 -0.484846 1.83615 88 135 126
0.264401 -0.476911 1.80613 101 142 135
-0.182569 -0.485797 1.84536 79 158 147
0.430766 -0.470595 1.78826 74 118 117
0.624392 -0.463817 1.76945 92 159 144
0.718259 -0.462293 1.76383 91 155 143
0.377006 -0.468157 1.79073 98 143 134
0.00837463 -0.476932 1.82822 184 223 221
-0.0926975 -0.473363 1.8355 131 190 175
0.136513 -0.465308 1.8202 95 134 132
0.303815 -0.460365 1.79802 110 164 151
0.327436 -0.459143 1.79732 111 148 146
-0.0863661 -0.46241 1.83142 151 212 198
0.614136 -0.446265 1.77196 63 117 104
0.677518 -0.445133 1.76529 87 159 136
-0.14843 -0.46369 1.84553 86 134 135
0.869556 -0.439728 1.75136 62 82 63
0.247193 -0.450747 1.80637 117 160 151
-0.167316 -0.460499 1.84537 80 139 131
0.357657 -0.444889 1.79662 169 224 215
0.387565 -0.443333 1.79198 76 117 109
0.0249209 -0.45012 1.82483 69 104 100
0.383729 -0.443339 1.79209 84 124 113
0.713566 -0.43514 1.76115 76 143 128
0.693872 -0.434159 1.76368 100 153 139
-0.0200611 -0.445632 1.82886 180 224 218
0.176746 -0.437327 1.81333 76 136 126
-0.0837803 -0.438879 1.83361 157 221 209
0.914157 -0.417495 1.7479 140 183 172
0.803582 -0.418016 1.7592 77 132 123
0.112183 -0.430744 1.82194 66 100 90
0.35704 -0.42161 1.79893 116 163 160
0.280556 -0.421881 1.80651 83 136 122
-0.111897 -0.429018 1.83954 94 138 139
0.295759 -0.417789 1.80682 141 205 200
0.686953 -0.408964 1.76716 77 133 120
0.340056 -0.41258 1.79991 169 229 219
-0.194215 -0.421655 1.85112 91 139 140
0.326919 -0.410348 1.80082 105 157 150
0.0283453 -0.410039 1.82563 85 142 133
0.131489 -0.40997 1.82357 101 153 160
0.689732 -0.395134 1.76183 87 144 129
-0.317856 -0.417307 1.86598 91 144 141
0.374026 -0.402138 1.79841 115 164 156
0.364382 -0.397879 1.79672 96 126 121
0.300451 -0.396309 1.80358 96 147 133
0.372793 -0.394596 1.79676 81 118 108
0.0686127 -0.398019 1.82905 84 152 145
0.141791 -0.396955 1.82356 105 149 150
-0.800368 -0.410804 1.901 132 163 154
0.576709 -0.384825 1.77791 91 160 147
0.345991 -0.388678 1.80071 75 125 113
0.667349 -0.378903 1.76552 68 113 97
0.168791 -0.388542 1.82308 89 131 166
0.379657 -0.379732 1.79584 62 97 93
0.116773 -0.38505 1.82892 105 165 181
0.30328 -0.382584 1.80753 79 111 106
0.407602 -0.378317 1.79415 168 218 206
0.565151 -0.374349 1.77832 80 140 130
0.357812 -0.379388 1.80179 140 201 191
0.665239 -0.372748 1.77146 145 183 183
0.127333 -0.382671 1.825 107 162 171
0.350174 -0.375559 1.80112 84 141 132
0.10212 -0.375743 1.82639 86 153 146
0.501802 -0.367849 1.78888 87 139 129
0.177181 -0.369115 1.82222 95 148 135
0.240682 -0.365665 1.81421 105 173 162
0.501311 -0.359546 1.78737 83 114 113
0.209443 -0.360683 1.81844 92 137 128
0.442488 -0.35388 1.79392 82 124 123
0.306389 -0.356449 1.81028 71 108 98
0.440751 -0.350768 1.79427 178 229 221
0.119482 -0.355905 1.82604 84 146 132
0.684209 -0.344838 1.77092 83 132 116
0.113023 -0.354619 1.8264 95 148 138
0.602434 -0.343987 1.77519 79 122 109
0.300461 -0.349256 1.81125 73 120 112
0.613453 -0.340446 1.77464 71 140 120
-0.247505 -0.356689 1.86399 98 148 146
0.464509 -0.343284 1.7955 110 160 150
0.60115 -0.336273 1.77641 82 136 123
0.608976 -0.333864 1.77807 99 144 135
0.512497 -0.331824 1.7854 54 118 99
0.874891 -0.325933 1.76065 83 158 130
0.369421 -0.325132 1.80271 85 147 133
-0.026254 -0.329366 1.83911 114 163 161
-0.0423282 -0.327772 1.84111 85 138 129
0.157001 -0.319599 1.82422 91 140 138
0.455784 -0.313732 1.79853 91 149 138
-0.120387 -0.320976 1.84923 92 155 146
0.148611 -0.315919 1.82722 115 151 189
0.0146314 -0.313257 1.83716 83 149 138
0.853575 -0.297369 1.76432 113 160 152
0.626191 -0.296871 1.77809 88 135 127
0.652424 -0.29475 1.77417 89 141 134
0.824408 -0.293541 1.76493 103 159 148
0.303665 -0.300826 1.81355 67 110 107
0.513128 -0.295964 1.78852 80 119 111
0.691536 -0.289831 1.77004 160 206 187
0.140809 -0.295288 1.82663 114 174 166
0.636008 -0.281338 1.77635 166 228 210
0.0864122 -0.286479 1.8267 98 145 142
-0.0273076 -0.286198 1.84306 85 154 144
0.686459 -0.272231 1.77272 78 119 111
0.255048 -0.269819 1.81843 94 153 139
0.93121 -0.259974 1.76158 96 149 135
0.0683872 -0.268945 1.83208 176 218 211
0.822942 -0.255318 1.76754 98 160 142
0.757765 -0.252548 1.76837 31 65 58
0.928608 -0.252816 1.76387 94 161 146
0.846003 -0.250727 1.76677 104 167 157
0.0737548 -0.259343 1.83156 57 81 73
0.0733248 -0.259442 1.8313 73 99 93
-0.0437716 -0.255978 1.84662 97 165 154
0.576216 -0.245664 1.78511 82 150 139
0.749988 -0.244133 1.77061 74 130 117
0.991772 -0.24068 1.75505 103 167 148
-0.327825 -0.254485 1.87369 108 155 153
0.81574 -0.230048 1.76951 92 159 144
0.700744 -0.22948 1.77625 74 107 103
0.409149 -0.232138 1.80536 58 94 82
0.408601 -0.228274 1.80509 131 184 171
0.269026 -0.226983 1.81806 81 140 126
0.993287 -0.212731 1.75987 145 190 171
1.0124 -0.20955 1.75127 118 157 131
0.184863 -0.217385 1.83154 85 137 144
0.882213 -0.208729 1.76622 197 230 233
1.00443 -0.207218 1.75442 63 103 85
0.640562 -0.209076 1.778 162 205 196
0.746677 -0.205438 1.77428 80 120 109
1.11195 -0.19972 1.74875 113 172 151
0.215009 -0.204728 1.82606 163 226 216
0.091096 -0.206334 1.83778 78 125 123
1.02487 -0.195358 1.75185 132 196 154
0.692654 -0.197041 1.77731 70 105 101
0.764389 -0.193623 1.77738 165 229 217
-0.193486 -0.200646 1.8664 180 231 223
0.0293265 -0.19624 1.84109 93 145 138
0.506227 -0.192496 1.79786 99 142 131
0.32365 -0.189756 1.81144 88 121 107
0.372134 -0.189944 1.81222 108 161 147
0.0285769 -0.189525 1.84332 102 145 148
0.646405 -0.183816 1.78421 71 112 97
0.631342 -0.180281 1.78613 107 155 149
1.02148 -0.174352 1.75628 146 222 190
0.999652 -0.169739 1.7596 92 144 127
0.19782 -0.175414 1.83329 83 122 160
0.811852 -0.165215 1.77045 44 103 83
0.319841 -0.166776 1.81638 62 104 93
1.01518 -0.1599 1.75915 100 153 139
0.280461 -0.163636 1.81911 165 219 206
0.362397 -0.16215 1.81471 94 132 120
0.297956 -0.159868 1.8171 87 147 136
0.244413 -0.158628 1.8281 84 120 168
0.344572 -0.154114 1.81709 90 137 128
0.501535 -0.152092 1.797 98 146 134
0.302799 -0.153522 1.82042 112 162 158
0.699195 -0.148222 1.78308 167 226 205
0.705324 -0.148613 1.78256 103 143 132
0.641784 -0.148323 1.78863 113 174 160
0.495609 -0.14813 1.79847 95 152 143
0.247709 -0.148326 1.82897 107 154 198
0.342897 -0.145822 1.8181 85 128 115
0.933674 -0.140259 1.76355 84 152 135
0.295664 -0.14286 1.8185 76 129 119
0.806473 -0.139357 1.77322 101 162 148
0.356545 -0.140488 1.81676 187 234 225
0.353314 -0.138526 1.81682 103 165 151
-0.164797 -0.140977 1.86574 113 171 166
0.774616 -0.133692 1.77807 61 123 105
0.767809 -0.131705 1.77936 58 102 95
0.0577513 -0.135031 1.84206 98 157 143
0.447675 -0.128038 1.80874 102 155 145
0.580033 -0.124479 1.79587 169 219 207
0.0516295 -0.12404 1.8441 91 148 140
0.670023 -0.120659 1.78406 152 224 202
0.579965 -0.120847 1.79667 86 149 129
0.0557359 -0.119678 1.84396 93 120 116
-0.141836 -0.118139 1.86697 95 162 153
0.652674 -0.113351 1.78796 98 140 139
0.576837 -0.111949 1.79619 86 121 111
1.12904 -0.107352 1.75354 101 148 140
0.661795 -0.106963 1.78658 72 109 99
0.662443 -0.105889 1.78873 62 98 92
0.872971 -0.103688 1.77224 86 129 120
0.804402 -0.102592 1.7783 154 226 196
-0.276786 -0.105226 1.87706 88 138 138
0.345716 -0.100125 1.81834 61 131 114
0.351069 -0.0977589 1.81884 80 149 134
0.403632 -0.0895502 1.8144 99 152 138
0.483411 -0.0887859 1.80389 188 238 228
-0.134657 -0.0876818 1.86488 102 160 155
0.437012 -0.0852869 1.81542 115 161 148
0.338457 -0.0853042 1.81974 119 172 163
0.09877 -0.083386 1.84123 88 133 136
0.80019 -0.0777293 1.7787 76 118 101
0.549657 -0.0728472 1.79803 84 138 115
0.430301 -0.0683229 1.81171 60 117 102
0.306835 -0.0644193 1.82341 96 161 145
0.422301 -0.0644365 1.81375 80 137 128
-0.127285 -0.0645114 1.8646 99 159 149
0.430223 -0.060107 1.8113 141 190 170
0.243028 -0.0535538 1.83224 78 109 130
-0.096968 -0.0481538 1.86035 82 129 121
0.429768 -0.047487 1.80796 116 144 138
0.0229499 -0.0399743 1.85246 92 149 140
0.426331 -0.0373337 1.81379 143 194 187
0.219818 -0.0364669 1.83393 95 158 148
0.541259 -0.0355592 1.80208 101 144 135
-0.0662327 -0.0350501 1.86009 92 158 146
0.362996 -0.0296828 1.82294 73 99 86
0.540522 -0.027113 1.8049 107 160 151
-0.160627 -0.0185141 1.86712 179 229 225
0.127877 -0.0136664 1.84462 193 231 231
0.199955 -0.750513 1.79603 107 113 112
0.209633 -0.748158 1.79412 145 193 181
0.511322 -0.713071 1.73435 117 163 127
0.173391 -0.730895 1.79137 105 132 128
0.54169 -0.699164 1.72626 56 85 59
0.54341 -0.695153 1.72319 118 167 129
0.364056 -0.692791 1.75111 67 106 90
0.576235 -0.676718 1.72057 157 194 160
0.338548 -0.689249 1.75235 116 159 138
-0.918394 -0.730913 1.88615 104 147 138
0.157838 -0.688964 1.79829 70 111 106
0.169166 -0.68284 1.79687 57 84 80
-0.0680174 -0.675358 1.81788 156 215 200
-0.0744537 -0.664177 1.81844 69 107 101
0.249385 -0.646124 1.78254 168 212 189
0.316338 -0.632858 1.76403 35 42 29
0.270351 -0.633198 1.77847 68 123 106
0.156044 -0.635593 1.80273 82 123 116
0.189176 -0.632394 1.79588 88 145 137
0.48027 -0.607793 1.73901 82 137 98
0.274598 -0.612916 1.77551 83 115 98
0.574037 -0.582686 1.70833 37 45 38
-0.429053 -0.621698 1.85785 161 218 215
0.356241 -0.588841 1.76745 47 95 77
0.216778 -0.586299 1.80205 178 222 221
0.323819 -0.576206 1.77042 53 102 88
0.21196 -0.581648 1.80155 203 235 230
0.348397 -0.568533 1.76669 139 206 169
-0.127141 -0.588452 1.83319 104 159 150
0.217473 -0.574934 1.8031 187 226 224
-0.526117 -0.592172 1.86471 133 199 187
0.350335 -0.561957 1.76747 43 81 63
-0.439902 -0.590127 1.86252 89 145 134
-0.109374 -0.571832 1.83153 106 147 139
-0.453329 -0.576801 1.86543 126 171 174
-0.207037 -0.571748 1.84301 115 175 167
-0.614267 -0.565299 1.87762 165 226 216
-0.134648 -0.553114 1.83546 80 143 133
0.289668 -0.52355 1.79659 80 109 106
0.0220413 -0.524224 1.82305 114 167 153
0.276249 -0.515759 1.79891 115 136 144
0.621731 -0.50572 1.76474 136 195 181
-0.71512 -0.538472 1.88734 110 159 145
-0.803971 -0.539897 1.89798 75 115 103
0.80488 -0.495831 1.7551 72 124 107
0.543135 -0.500382 1.77641 145 167 162
0.650513 -0.495387 1.76389 95 148 138
0.426964 -0.496706 1.78403 50 66 55
0.268704 -0.501467 1.80084 102 144 133
0.636104 -0.488805 1.76906 84 142 131
-0.362947 -0.510508 1.86637 101 161 155
0.502149 -0.489483 1.77933 166 211 208
-0.0559757 -0.494918 1.81409 124 163 165
0.575605 -0.47981 1.77001 39 56 43
-0.161237 -0.496477 1.84045 77 130 120
0.708422 -0.472953 1.76457 100 148 136
-0.125942 -0.486914 1.83745 117 181 169
0.0130091 -0.479945 1.82346 65 111 105
0.105415 -0.479728 1.82114 107 162 153
-0.115494 -0.483149 1.84 166 216 214
-0.778946 -0.489981 1.89917 107 137 124
-0.156643 -0.469897 1.84335 89 112 108
0.361436 -0.451714 1.7948 76 132 119
-0.0167922 -0.450113 1.82678 66 81 77
0.420258 -0.440937 1.79268 86 130 117
0.448558 -0.427839 1.79162 111 167 154
0.993857 -0.409861 1.74627 142 204 186
0.964292 -0.400086 1.74592 154 187 202
0.708476 -0.399223 1.76389 103 168 153
0.770155 -0.395299 1.76401 101 166 150
0.130002 -0.401005 1.82234 96 138 143
0.319445 -0.384599 1.80022 141 211 188
0.303342 -0.382826 1.80683 70 104 97
0.461204 -0.375474 1.78953 183 230 227
0.488556 -0.361543 1.79129 71 126 111
0.736397 -0.356313 1.76453 163 211 199
0.798276 -0.347386 1.7631 106 156 144
0.530605 -0.346479 1.78025 149 192 183
0.300623 -0.349597 1.81031 82 123 115
0.197512 -0.348038 1.82119 98 156 145
0.188708 -0.338778 1.82375 92 133 128
0.399996 -0.335403 1.80033 98 160 148
0.874855 -0.325951 1.7606 83 158 130
0.645943 -0.322876 1.77768 94 159 143
0.470163 -0.323423 1.79414 148 197 189
0.600668 -0.31497 1.78188 91 150 136
-0.120772 -0.321863 1.84926 113 174 164
0.002903 -0.318162 1.83386 159 213 200
0.605029 -0.302858 1.78254 84 138 121
0.726614 -0.28446 1.77047 176 226 214
0.608119 -0.285259 1.77938 83 124 109
-0.0272522 -0.285941 1.84373 85 154 144
0.731744 -0.272616 1.76639 109 159 149
0.93003 -0.260588 1.76355 92 140 128
0.530573 -0.261351 1.78844 102 157 142
0.749408 -0.258254 1.77002 79 106 97
0.804834 -0.251557 1.76648 57 94 92
0.806452 -0.244895 1.76954 166 223 214
1.01326 -0.242519 1.75284 157 209 192
0.991862 -0.24067 1.75507 103 167 148
0.171461 -0.243886 1.82907 87 116 125
0.39354 -0.236418 1.80645 95 138 123
1.00384 -0.230037 1.7538 89 122 107
0.397029 -0.232802 1.80473 88 123 109
1.03316 -0.223601 1.74866 223 242 247
0.992521 -0.21822 1.75885 82 120 108
1.00232 -0.216838 1.75401 152 207 188
0.881507 -0.209153 1.76528 195 230 233
1.01712 -0.208145 1.74961 71 96 82
0.0999319 -0.212969 1.83575 90 141 144
0.886055 -0.205634 1.76566 113 138 142
0.0946551 -0.21002 1.83657 163 210 207
1.00585 -0.200524 1.7551 117 188 155
1.10996 -0.199589 1.74913 110 170 152
-0.0507132 -0.208212 1.85045 96 156 148
0.817003 -0.199067 1.77269 90 162 140
0.429989 -0.200763 1.80594 78 125 117
0.472621 -0.200817 1.79961 94 151 143
1.04314 -0.195676 1.75307 86 149 129
0.677646 -0.197368 1.7818 74 111 101
0.755728 -0.168358 1.77644 77 127 115
0.319416 -0.167088 1.81708 63 100 90
0.291376 -0.16672 1.81822 93 134 126
0.511863 -0.165837 1.799 118 163 160
-0.0705391 -0.164341 1.84929 87 137 133
0.554226 -0.157682 1.79644 91 149 138
0.335463 -0.157373 1.81774 75 109 99
0.538289 -0.152271 1.79801 86 133 124
0.498405 -0.149417 1.79553 82 131 123
-0.126822 -0.143825 1.85947 162 233 216
0.064175 -0.139609 1.84036 162 213 206
0.0575692 -0.134635 1.84289 104 157 148
0.628794 -0.13013 1.7889 101 132 131
0.666732 -0.127779 1.78606 119 145 139
1.02635 -0.123035 1.75851 117 149 155
0.601024 -0.117527 1.79095 86 108 103
0.591109 -0.107925 1.79323 97 137 125
0.0748549 -0.104815 1.84034 159 200 203
0.287271 -0.0879502 1.82305 93 139 126
-0.0563839 -0.0856529 1.85336 113 160 152
0.430573 -0.0793533 1.81576 104 144 132
0.803542 -0.0771956 1.7781 143 216 190
0.0270829 -0.0678726 1.85021 111 151 146
0.434863 -0.0677044 1.81104 77 103 89
0.422564 -0.0628084 1.81278 91 142 128
-0.225354 -0.0482581 1.86879 108 150 143
0.152319 -0.0361204 1.83852 160 220 212
0.255345 -0.0286117 1.83174 81 130 128
0.0971229 -0.733861 1.80023 154 230 218
-0.186678 -0.734978 1.8314 100 150 148
-0.749254 -0.740366 1.87875 81 135 128
0.183243 -0.706893 1.79637 92 155 145
0.168902 -0.701881 1.7979 81 129 123
-0.918816 -0.730705 1.88766 113 156 147
0.278858 -0.683993 1.77459 52 93 66
0.335516 -0.673864 1.754 147 177 142
-0.929535 -0.724992 1.89229 105 147 140
0.0947614 -0.690685 1.80013 129 160 157
0.175137 -0.685496 1.79433 80 124 111
0.16935 -0.682733 1.79748 67 94 90
-0.919876 -0.713114 1.89128 113 153 142
0.333842 -0.661676 1.75361 139 203 184
0.195388 -0.66697 1.79183 65 75 69
0.0422717 -0.670684 1.81194 89 143 136
-1.00366 -0.702259 1.89887 95 141 129
0.449122 -0.641686 1.74402 61 85 73
0.275887 -0.654137 1.78235 85 135 117
0.282571 -0.647141 1.7802 141 207 182
0.406095 -0.625663 1.76267 119 172 145
0.403914 -0.616757 1.76227 36 51 43
0.433903 -0.61061 1.7535 130 185 160
0.464391 -0.60194 1.73984 136 181 155
0.312746 -0.592491 1.76816 59 95 79
0.175972 -0.595363 1.8009 75 109 103
0.217264 -0.586294 1.80209 172 217 214
0.169357 -0.58347 1.80617 83 128 119
-0.763977 -0.597987 1.88754 121 177 166
0.273857 -0.561025 1.78705 60 79 70
-0.427083 -0.576498 1.8632 100 143 134
0.166133 -0.560319 1.80729 74 125 111
0.262582 -0.55468 1.79343 166 207 199
-0.583497 -0.575286 1.87593 66 81 73
0.296561 -0.542611 1.79474 107 136 127
-0.59488 -0.558995 1.87598 146 202 191
-0.588301 -0.553948 1.87621 83 116 109
0.256909 -0.527355 1.79325 128 148 149
0.296764 -0.525857 1.79732 148 189 181
-0.598157 -0.547085 1.87681 93 136 127
-0.382455 -0.542793 1.86274 100 163 154
0.257425 -0.521957 1.79844 105 119 118
-0.119231 -0.52655 1.83417 74 107 86
0.884392 -0.498967 1.74664 105 151 138
-0.391636 -0.530745 1.86194 102 167 165
0.602286 -0.502252 1.76794 114 160 148
-0.377452 -0.524211 1.86094 72 113 105
-0.376992 -0.524698 1.85903 76 113 109
0.408151 -0.499943 1.7794 130 165 151
-0.120047 -0.51044 1.82981 99 162 146
0.427255 -0.496541 1.78462 51 67 56
-0.120102 -0.509753 1.83239 99 160 146
0.400036 -0.492549 1.79007 185 215 210
0.560149 -0.483996 1.77061 49 67 54
-0.380525 -0.501821 1.86198 108 148 143
-0.615949 -0.503345 1.88064 81 144 134
-0.368514 -0.498842 1.86584 103 156 153
0.306813 -0.48091 1.80337 47 75 62
-0.126619 -0.486651 1.83692 123 181 170
-0.77969 -0.499108 1.89727 158 205 196
-0.14975 -0.485519 1.84067 133 193 185
-0.0336863 -0.478342 1.82241 78 107 98
-0.0987744 -0.481761 1.83341 78 108 97
0.384635 -0.460045 1.79124 103 126 121
0.71599 -0.448355 1.76284 97 139 128
0.147932 -0.457311 1.81552 147 207 201
0.613773 -0.445385 1.77204 84 136 119
0.00650563 -0.45097 1.82583 55 78 74
0.405693 -0.44177 1.79311 66 105 97
0.961954 -0.422397 1.74231 121 151 138
0.747206 -0.420284 1.76352 97 145 127
0.848897 -0.413881 1.75757 91 140 126
0.167896 -0.400272 1.82293 85 117 122
0.295624 -0.394635 1.80661 81 130 116
0.319681 -0.384426 1.80073 147 217 194
0.125419 -0.386447 1.82853 94 151 148
0.0934207 -0.380107 1.82838 86 138 128
0.79975 -0.359331 1.75975 103 150 142
0.399401 -0.356108 1.79746 113 151 139
0.599239 -0.348074 1.77109 149 199 189
0.723962 -0.329555 1.76844 86 127 119
0.298459 -0.337389 1.81072 73 114 99
0.60255 -0.330441 1.77835 162 215 205
0.287866 -0.323981 1.81119 77 118 103
0.19011 -0.325796 1.82477 201 229 255
0.0208421 -0.308709 1.83715 197 249 239
0.303842 -0.304146 1.81151 62 86 78
0.543762 -0.298371 1.78824 84 125 118
0.313715 -0.2979 1.81112 81 122 114
0.513027 -0.294603 1.78995 81 124 115
0.508632 -0.282183 1.78877 82 136 119
0.697265 -0.270642 1.77101 149 200 186
0.417061 -0.26327 1.80258 102 165 149
0.531049 -0.260715 1.78998 98 144 131
0.177493 -0.25974 1.82695 91 153 141
0.41105 -0.255525 1.80281 71 92 77
0.758415 -0.251796 1.7698 49 83 77
0.516849 -0.245497 1.79414 92 161 141
0.489128 -0.242175 1.79829 80 145 123
1.03345 -0.229317 1.74912 135 152 173
0.289539 -0.227285 1.81951 111 167 156
1.00692 -0.21971 1.75607 132 159 155
0.992802 -0.218144 1.75902 85 123 111
0.809722 -0.214045 1.77107 73 138 117
1.01677 -0.208615 1.74857 80 103 88
0.722417 -0.208811 1.77593 100 149 141
0.64382 -0.203553 1.78002 93 110 106
1.02358 -0.202521 1.75631 151 230 186
0.888904 -0.201669 1.76599 119 134 143
1.11025 -0.199659 1.74898 111 172 152
0.335394 -0.203241 1.81318 105 147 136
0.506351 -0.192625 1.7981 99 142 131
1.01544 -0.183209 1.75877 96 151 126
-0.390146 -0.185272 1.88125 90 130 135
-0.0185798 -0.168848 1.8464 83 127 121
1.03554 -0.16322 1.75612 104 151 142
0.248981 -0.146536 1.82778 76 111 155
0.0566581 -0.119381 1.84755 83 114 111
0.651004 -0.114686 1.78739 92 140 128
0.0600068 -0.113361 1.84491 144 182 176
0.663952 -0.107635 1.79112 59 94 84
0.874109 -0.102289 1.77448 99 143 136
0.797137 -0.0975614 1.78199 160 229 208
0.615035 -0.0960857 1.79354 111 160 146
0.405825 -0.0879716 1.81785 100 154 141
0.10843 -0.0815957 1.83995 75 113 107
0.430172 -0.0773634 1.81262 96 136 124
0.575577 -0.0725324 1.79729 74 103 94
0.440241 -0.0720027 1.80874 57 81 69
0.503463 -0.0692728 1.79928 175 217 210
0.432991 -0.0620806 1.81663 115 160 141
-0.0705406 -0.0594497 1.85482 75 94 85
0.446041 -0.0552035 1.8168 146 209 189
-0.225483 -0.0478376 1.86962 98 139 132
0.641404 -0.677635 1.69928 125 198 158
0.643021 -0.676945 1.70292 136 204 163
-0.941044 -0.743564 1.88779 105 146 138
0.1958 -0.684108 1.79981 107 128 129
0.477872 -0.664929 1.75071 145 203 175
-0.918123 -0.713396 1.88679 110 149 141
0.320203 -0.665352 1.76098 159 200 173
0.181435 -0.673952 1.79479 147 197 193
0.0404068 -0.677299 1.80931 77 122 113
0.474802 -0.650985 1.75 166 235 198
0.173151 -0.66393 1.79737 96 130 124
0.488388 -0.644518 1.74824 93 158 133
0.0670739 -0.643893 1.81919 81 150 137
0.211 -0.640969 1.79789 138 170 169
0.454495 -0.614686 1.74453 74 100 77
0.500356 -0.613839 1.74425 132 190 155
0.21369 -0.62642 1.80076 149 188 186
0.204523 -0.603034 1.80184 171 217 218
0.213862 -0.595159 1.80111 109 136 133
0.213937 -0.586403 1.80238 136 182 183
0.225191 -0.58312 1.80156 102 116 114
-0.763843 -0.59766 1.88915 114 165 151
-0.264167 -0.561946 1.84938 66 134 123
0.302169 -0.541637 1.78686 42 49 36
0.370505 -0.529829 1.77734 160 220 202
-0.603391 -0.541376 1.87534 89 123 106
0.298429 -0.509917 1.79045 68 77 67
0.250963 -0.496966 1.80762 156 208 201
0.557047 -0.485733 1.77116 52 75 60
0.915204 -0.476683 1.75036 117 149 132
-0.293534 -0.49646 1.85983 85 118 114
0.284549 -0.484757 1.80023 66 81 67
-0.0356186 -0.477476 1.82287 77 108 101
-0.77963 -0.490916 1.90229 113 143 130
0.161371 -0.469816 1.81306 100 154 141
0.335177 -0.467516 1.79314 55 90 76
0.729513 -0.45576 1.76424 90 149 134
-0.156318 -0.47307 1.84321 66 87 78
0.450571 -0.456607 1.78373 68 104 88
0.273955 -0.44891 1.80194 76 119 108
0.873328 -0.435729 1.75121 115 150 136
0.912432 -0.417575 1.75103 136 168 167
0.103142 -0.435045 1.83156 79 125 119
0.157661 -0.428232 1.81936 61 98 90
0.96277 -0.406644 1.75622 84 91 84
0.940468 -0.389793 1.74905 95 125 112
0.550497 -0.370087 1.77778 111 158 149
0.662813 -0.360059 1.77002 92 118 105
0.486441 -0.361383 1.79228 96 155 141
0.460868 -0.336343 1.7956 112 157 140
0.746947 -0.327422 1.76207 104 149 132
0.294967 -0.334069 1.82049 104 168 149
0.461973 -0.329714 1.79308 91 143 126
0.358139 -0.323272 1.80157 68 120 110
0.314439 -0.297222 1.81287 65 110 101
0.784131 -0.267026 1.76086 88 142 125
0.927735 -0.260902 1.76378 118 177 163
0.752571 -0.258417 1.77172 59 76 67
0.253752 -0.236804 1.82329 116 174 163
0.398052 -0.236391 1.81222 92 123 108
0.413562 -0.23327 1.80464 60 89 74
1.00632 -0.210342 1.75672 110 160 128
1.10382 -0.202894 1.75164 109 151 150
0.088352 -0.213559 1.84092 85 121 115
0.658946 -0.203477 1.77441 103 126 122
0.731721 -0.203376 1.77369 151 204 194
0.640667 -0.181449 1.78155 84 126 109
1.09177 -0.172029 1.75213 209 243 237
0.804189 -0.146005 1.77484 95 158 142
0.665954 -0.125375 1.78608 103 154 140
0.581555 -0.102473 1.79311 58 87 71
0.788375 -0.0870613 1.77427 115 170 151
0.438998 -0.0677804 1.81036 77 103 87
