ply
format ascii 1.0
element vertex 829
property float x
property float y
property float z
property uchar blue
property uchar green
property uchar red
end_header
0.814081 -1.26511 3.06379 87 153 141
-1.07367 -1.28553 3.34181 76 136 125
-0.37001 -1.1872 3.25358 90 150 132
0.669603 -1.10944 3.10562 80 141 115
0.0164952 -1.11196 3.21102 83 143 135
1.174 -0.9182 3.0735 106 176 146
1.10073 -0.912777 3.08694 90 155 134
-0.354591 -0.9502 3.28371 90 161 144
0.813357 -0.843687 3.13826 93 160 133
0.685209 -0.776891 3.16247 81 148 117
0.0177156 -0.760748 3.25881 74 138 119
0.847681 -0.711843 3.15269 87 165 128
0.173625 -0.673771 3.24794 133 175 152
0.0500646 -0.651327 3.26509 118 160 135
-0.00526341 -0.596734 3.27953 81 130 122
0.531146 -0.498807 3.22365 106 155 139
0.52324 -0.493548 3.22621 122 175 161
0.508217 -0.482138 3.23551 139 198 178
0.384432 -0.476288 3.24266 72 132 114
0.365833 -0.472286 3.24609 68 133 101
0.502625 -0.463877 3.23566 121 170 156
-1.45097 -0.478427 3.48549 250 255 254
0.566823 -0.42311 3.22947 56 96 85
0.518755 -0.373773 3.24389 125 178 151
0.558066 -0.366663 3.23608 103 132 109
0.548928 -0.356191 3.24845 122 164 146
0.521191 -0.353135 3.24442 111 151 126
0.628043 -0.34892 3.22286 77 113 96
0.575388 -0.339451 3.23649 136 170 169
0.792709 -0.331682 3.21565 132 177 161
0.488822 -0.332693 3.25734 126 173 164
0.537885 -0.331576 3.24574 103 135 130
0.539386 -0.330731 3.24977 141 174 167
1.01083 -0.316975 3.18911 107 164 156
0.511206 -0.321925 3.25306 104 144 133
0.679232 -0.31193 3.23112 129 182 172
0.284393 -0.315041 3.28061 81 152 119
1.01663 -0.301212 3.19135 143 214 198
1.05741 -0.286471 3.18959 131 179 181
0.573489 -0.283009 3.25166 146 197 190
0.81812 -0.267907 3.22792 132 185 175
0.875477 -0.259422 3.21459 113 182 161
1.33588 -0.254957 3.1641 87 148 150
0.778932 -0.252626 3.23374 69 122 119
0.33081 -0.24898 3.28155 85 147 129
1.33812 -0.237603 3.16706 78 134 129
1.07739 -0.100531 3.21677 79 143 144
0.991951 -0.0937395 3.22769 78 145 138
0.790637 -0.0655904 3.26117 85 142 127
0.868291 -0.032901 3.25161 93 156 154
0.972914 -0.00296958 3.23346 89 122 168
1.60736 0.00442897 3.1619 76 133 124
1.76633 0.0257672 3.14457 141 203 187
-1.85614 0.103742 3.58357 179 216 224
0.835634 0.109757 3.27302 72 129 120
0.704777 0.1524 3.29643 76 144 143
0.579974 0.178272 3.31103 74 140 128
0.816576 0.213862 3.28656 142 213 197
1.90426 0.209883 3.15301 176 192 198
-2.04858 0.252635 3.63265 149 206 191
1.15012 0.269584 3.24486 69 125 114
1.94886 0.276874 3.1632 155 186 185
1.7289 0.339798 3.19907 78 142 120
1.78307 0.363064 3.19341 76 113 103
0.831284 0.377598 3.30722 72 148 137
1.95214 0.400125 3.17838 187 215 185
0.351023 0.424568 3.36245 99 144 141
0.363234 0.486366 3.36446 100 169 156
1.62856 0.475523 3.22563 76 119 110
1.92099 0.635433 3.22061 136 165 162
0.735285 0.694309 3.35626 66 137 127
-1.07381 -1.28554 3.34187 79 139 128
0.223093 -0.998253 3.19434 77 125 99
1.24284 -0.949889 3.06706 90 130 155
1.2305 -0.942866 3.06862 62 110 98
1.10093 -0.912763 3.08741 76 144 121
1.11125 -0.896943 3.08659 146 213 186
1.18335 -0.860381 3.09018 146 219 197
-0.0745266 -0.87747 3.25142 89 155 136
0.813234 -0.843757 3.13674 91 160 133
0.00687094 -0.845197 3.24563 101 156 141
0.684551 -0.773235 3.16125 128 204 163
0.0598012 -0.665755 3.26494 154 207 194
0.623066 -0.622769 3.18825 136 207 167
0.135848 -0.581978 3.26351 106 153 131
0.660959 -0.563909 3.19209 74 144 107
1.29982 -0.546323 3.11972 99 148 156
0.530547 -0.498906 3.22308 107 159 142
0.727102 -0.481092 3.19541 96 143 111
0.520166 -0.399055 3.23855 130 168 150
0.534187 -0.395864 3.2366 63 106 91
-0.234265 -0.367758 3.33847 67 100 86
0.549013 -0.356566 3.24652 137 176 160
-0.490054 -0.365947 3.3732 110 158 140
0.556879 -0.350996 3.24335 105 146 131
0.57537 -0.339503 3.23622 136 170 169
0.979193 -0.31349 3.19463 144 184 182
0.87441 -0.313959 3.20781 118 160 143
0.679253 -0.311874 3.23138 127 179 169
0.863501 -0.306529 3.20825 107 163 150
0.334897 -0.305828 3.27016 131 216 201
1.11199 -0.297903 3.18586 136 192 187
0.706952 -0.286263 3.23184 154 191 199
0.981929 -0.279834 3.20229 66 133 118
0.816181 -0.268229 3.22806 126 186 176
1.3353 -0.255128 3.1634 86 147 151
0.327622 -0.222283 3.28324 103 140 120
0.440816 -0.199884 3.27645 100 157 158
1.70439 -0.186522 3.12811 155 187 230
0.840817 -0.121082 3.24211 48 112 100
1.56166 -0.0958954 3.15846 142 189 210
1.41126 -0.0780959 3.18126 89 145 140
1.47169 -0.0744552 3.17254 80 151 154
0.789177 -0.0644823 3.2574 91 149 131
1.606 -0.0446911 3.15451 93 146 136
1.10294 -0.04038 3.21132 100 163 153
1.77406 -0.0379099 3.12808 115 130 139
0.947754 -0.0183466 3.23854 100 139 184
1.10355 -0.0167346 3.21531 88 150 138
1.6074 0.00431683 3.16153 76 133 124
1.05324 0.0557795 3.22903 78 147 134
-1.85512 0.10331 3.58215 159 192 207
1.78513 0.105642 3.15279 120 187 158
1.79827 0.114095 3.14674 137 174 164
1.05168 0.180223 3.24267 81 143 131
1.86027 0.175105 3.15455 82 105 97
1.90321 0.182081 3.1494 185 214 211
1.8593 0.185779 3.15504 147 195 166
1.90445 0.210064 3.15349 165 179 185
-2.04886 0.25754 3.63076 109 170 142
1.05837 0.229585 3.24973 134 194 184
1.42625 0.227651 3.21949 72 128 115
1.15096 0.312505 3.24929 74 131 100
1.95353 0.446821 3.18406 147 176 173
1.87579 0.454741 3.19013 66 101 91
0.898795 0.555902 3.31545 105 146 169
1.92099 0.635434 3.22061 136 165 162
1.38988 0.727608 3.28738 105 152 149
1.54197 0.731167 3.27098 139 191 174
1.78315 0.743116 3.24534 77 106 90
-0.0902623 0.837481 3.44541 107 159 149
-0.0344347 0.880787 3.44205 118 153 149
0.200541 -1.30336 3.14698 92 157 132
0.575558 -1.2526 3.10259 118 161 150
0.561355 -1.23511 3.10278 91 146 127
-0.902338 -1.30709 3.31622 89 158 138
0.578256 -1.21906 3.10649 57 100 87
-0.708247 -1.24996 3.29269 110 168 144
-0.999682 -1.26275 3.33595 92 145 131
0.908138 -1.15513 3.07129 138 207 170
0.562372 -1.16494 3.10991 132 194 178
-0.631784 -1.22668 3.28545 86 139 125
0.566194 -1.14736 3.1214 108 177 150
-1.41301 -1.19361 3.39991 101 160 145
0.028243 -1.12361 3.20651 89 142 133
-0.345202 -1.13728 3.25754 90 144 131
-0.780615 -1.15214 3.3145 90 147 139
-0.283989 -1.10531 3.25039 92 156 144
-0.656853 -1.11494 3.3031 186 231 228
-0.16504 -1.06526 3.24567 98 160 144
1.2586 -0.96404 3.05275 86 113 123
0.556517 -0.991012 3.15285 184 222 224
-0.329129 -1.01978 3.27071 126 178 168
1.2324 -0.951746 3.06361 187 237 255
1.23358 -0.951729 3.06249 176 228 251
1.23008 -0.94295 3.06716 68 118 108
0.159892 -0.932184 3.21606 84 145 125
0.709448 -0.90227 3.13978 83 150 123
-0.0735496 -0.877469 3.25103 86 149 129
-0.252367 -0.874168 3.27759 168 242 216
-0.086159 -0.866326 3.25904 101 166 144
-0.0673189 -0.849208 3.25042 86 149 133
0.812736 -0.804829 3.14279 87 159 129
0.0207453 -0.802497 3.25091 92 157 141
-1.39065 -0.802531 3.44685 108 171 155
0.943288 -0.713887 3.1441 169 227 209
0.943354 -0.714064 3.142 168 227 212
0.0385261 -0.737504 3.26139 68 100 76
0.0913307 -0.716882 3.25373 118 145 129
0.0890089 -0.701918 3.24727 81 126 107
0.101362 -0.705147 3.25076 133 187 170
0.0255821 -0.702241 3.26237 122 184 168
0.059464 -0.666075 3.26186 154 207 194
-0.00341119 -0.596451 3.27863 79 135 124
1.13611 -0.56753 3.13633 88 154 143
0.15632 -0.586724 3.25919 148 218 188
0.13627 -0.581642 3.26609 113 161 137
0.824455 -0.558021 3.1723 107 163 128
-0.0266863 -0.567198 3.29113 147 202 199
0.0790182 -0.561655 3.27267 115 140 120
0.00989207 -0.544307 3.28096 107 135 116
0.77632 -0.512792 3.18756 92 151 130
0.0681595 -0.518118 3.28431 106 140 129
0.660864 -0.5024 3.19738 148 221 183
0.296858 -0.504945 3.25062 74 132 104
0.298683 -0.503908 3.25729 79 134 109
0.635436 -0.490734 3.19991 77 147 111
0.156609 -0.499357 3.27152 142 203 183
1.24566 -0.478167 3.13902 95 149 136
0.507211 -0.482361 3.23594 133 194 174
0.384385 -0.476627 3.24304 72 132 114
0.791813 -0.469271 3.19211 90 141 107
0.735291 -0.458027 3.19852 98 162 127
0.477969 -0.454867 3.2374 56 95 79
0.553552 -0.443948 3.21611 122 174 137
0.567902 -0.439362 3.22029 104 157 124
0.548246 -0.434951 3.22861 49 65 48
1.58056 -0.418539 3.10519 150 211 197
0.0744318 -0.43757 3.29238 124 184 166
0.539691 -0.428467 3.23543 112 155 140
0.519398 -0.39382 3.24223 44 70 56
0.513741 -0.388593 3.24678 115 173 162
-0.158029 -0.384044 3.32412 87 127 115
0.521442 -0.376126 3.24571 124 184 153
0.53571 -0.364881 3.23678 137 187 177
1.01219 -0.355351 3.17526 68 120 103
0.572569 -0.33244 3.24115 68 113 104
0.610959 -0.327415 3.23731 101 144 133
0.501436 -0.324417 3.25841 88 112 102
0.875012 -0.313399 3.21045 114 156 139
0.611607 -0.310387 3.24007 136 187 189
-0.529324 -0.321676 3.38705 112 171 163
0.983758 -0.299738 3.19819 141 190 182
0.446325 -0.299301 3.26108 136 189 180
1.06686 -0.289722 3.188 122 181 177
0.905052 -0.290746 3.20941 73 119 106
0.951151 -0.290504 3.20555 128 184 171
1.2164 -0.281751 3.17279 61 105 99
0.83397 -0.283898 3.21876 118 184 165
1.49441 -0.276073 3.13282 60 99 97
0.576055 -0.282676 3.25023 155 203 197
0.982617 -0.279591 3.20333 64 129 114
0.809921 -0.277712 3.2237 122 187 172
0.72207 -0.274136 3.23831 93 138 149
1.13863 -0.267835 3.18148 122 204 182
1.64378 -0.261339 3.12539 114 147 180
1.55011 -0.261457 3.13037 101 134 150
1.26552 -0.258665 3.17651 88 147 157
0.829792 -0.262223 3.22024 55 101 89
1.59067 -0.253377 3.13452 65 118 139
1.59572 -0.250779 3.13191 97 161 172
1.55936 -0.233446 3.14255 104 150 167
0.35112 -0.2373 3.27505 86 149 123
1.78675 -0.226162 3.11168 82 112 137
0.31777 -0.205705 3.2919 95 139 126
1.30238 -0.199254 3.17588 103 145 187
1.77478 -0.190138 3.11437 116 162 193
0.455009 -0.198163 3.2711 85 141 128
1.12997 -0.192572 3.20127 98 154 173
1.69967 -0.17887 3.13327 143 200 225
1.48554 -0.17203 3.1568 109 159 201
0.802142 -0.172476 3.24332 72 118 119
1.26837 -0.159859 3.18926 92 151 177
0.109443 -0.159949 3.3163 88 146 118
1.27748 -0.137828 3.1904 87 124 146
1.63444 -0.133974 3.14296 138 192 192
0.233976 -0.137388 3.31085 99 156 141
1.92227 -0.131802 3.11457 132 189 180
1.60868 -0.12847 3.15431 165 203 238
1.39741 -0.126156 3.17521 98 137 151
1.61124 -0.118064 3.1467 170 217 221
1.5499 -0.112086 3.15961 98 137 189
1.61608 -0.111216 3.15406 82 111 118
0.805114 -0.113118 3.24984 80 130 118
1.60126 -0.109329 3.15409 146 187 210
1.56226 -0.103631 3.15853 83 128 139
1.07743 -0.100602 3.2185 79 143 144
1.25156 -0.0971474 3.20188 98 153 196
1.003 -0.0830999 3.22462 76 142 131
0.793005 -0.0829558 3.25493 139 203 181
1.08056 -0.0823666 3.22172 100 155 200
1.50988 -0.0708662 3.16559 107 170 154
1.3935 -0.0640452 3.18094 90 140 136
0.79032 -0.0638128 3.25944 85 140 123
1.06962 -0.0629101 3.22082 67 112 116
0.800371 -0.0483359 3.2538 162 226 204
1.27319 -0.0445521 3.19586 91 138 130
0.722234 -0.044893 3.26866 73 123 111
1.46179 -0.0362861 3.17452 95 144 142
0.878094 -0.0251439 3.25001 90 155 163
0.805177 -0.0215731 3.26131 78 130 120
1.83881 -0.0202444 3.12203 91 125 125
1.79898 -0.0123311 3.12978 177 207 208
-0.533772 -0.00734333 3.41369 109 176 167
0.735403 -0.00766876 3.27227 64 113 105
0.946016 -0.00619313 3.24387 77 103 149
0.972005 -0.00297432 3.23464 94 124 173
1.61141 0.00448177 3.165 73 130 121
1.9316 0.0138009 3.1209 75 87 91
1.55992 0.0281765 3.17208 88 142 129
0.920977 0.0318743 3.24942 89 135 176
0.488216 0.0320839 3.30009 102 155 141
0.930411 0.0433469 3.24569 105 145 174
1.59889 0.0419234 3.16769 98 149 141
1.11959 0.0503188 3.22491 83 156 140
1.51476 0.0512234 3.18252 90 146 135
1.13069 0.0714625 3.22266 93 156 147
1.79938 0.0734207 3.14254 68 107 86
1.94943 0.0775508 3.12477 112 136 128
1.80732 0.0806333 3.14631 137 179 168
0.529749 0.0998509 3.30484 105 152 150
1.95733 0.0975781 3.12989 86 103 94
0.836682 0.108979 3.27084 82 142 132
1.80854 0.104964 3.15286 161 207 195
1.8003 0.115541 3.14637 141 184 175
0.883328 0.127864 3.25748 108 153 174
1.54374 0.131017 3.18281 149 196 174
1.1949 0.135857 3.22605 83 145 131
1.58052 0.134057 3.18046 82 136 119
1.41959 0.136059 3.20162 83 134 126
1.55917 0.144257 3.18343 160 212 195
1.42782 0.148417 3.20162 76 138 124
1.29338 0.163156 3.21661 102 149 170
1.90187 0.166723 3.1472 146 170 170
0.57803 0.179475 3.31165 94 160 148
1.05462 0.182096 3.24565 65 127 115
1.52786 0.180043 3.19508 66 113 105
0.525867 0.197327 3.32324 113 157 158
1.0556 0.202829 3.25025 129 192 183
1.85732 0.198759 3.16125 107 127 122
1.89432 0.20948 3.15473 148 168 163
0.809462 0.22192 3.30063 65 123 118
1.05899 0.230122 3.24955 126 184 173
1.57854 0.231199 3.19997 53 100 84
0.946734 0.244805 3.26978 82 121 135
1.58878 0.239495 3.19816 77 134 119
0.899287 0.249276 3.27766 84 115 138
1.17439 0.258252 3.24446 88 145 136
1.53852 0.259582 3.20558 137 213 181
1.41787 0.263069 3.22231 102 151 143
1.25643 0.271804 3.23663 78 135 126
1.50618 0.269291 3.21089 58 117 102
1.51153 0.277987 3.21141 146 205 190
1.68227 0.286514 3.19261 69 118 104
1.1457 0.292234 3.25208 93 146 136
-0.634687 0.316962 3.44375 74 71 96
0.807742 0.329004 3.30604 57 132 118
0.825698 0.331115 3.30041 75 133 122
0.853829 0.335439 3.30121 103 160 161
1.14783 0.335561 3.26643 84 118 112
0.816155 0.346931 3.30764 82 150 133
1.71327 0.349396 3.20329 81 135 122
1.0626 0.362331 3.2701 79 141 129
1.51716 0.3594 3.22551 94 143 129
1.88876 0.357326 3.18159 147 179 178
0.830188 0.377014 3.30884 80 153 143
0.354453 0.419447 3.35394 191 229 229
0.980404 0.413732 3.28617 80 143 133
1.95073 0.398823 3.17969 197 227 198
0.351343 0.425956 3.36439 103 153 149
1.95237 0.399728 3.18174 196 223 197
0.89572 0.422421 3.29723 101 137 173
2.86139 0.612833 4.53465 115 147 158
0.945918 0.45158 3.2914 74 132 121
1.074 0.450512 3.284 77 134 125
1.95329 0.445734 3.18625 156 184 184
1.9616 0.451565 3.18676 107 112 111
1.87685 0.455607 3.19203 66 101 91
1.62656 0.474844 3.22392 79 122 113
1.12949 0.491159 3.28008 82 139 138
1.94168 0.515847 3.1969 118 143 147
0.898247 0.555614 3.31485 105 146 169
1.46962 0.553208 3.24906 105 159 152
1.73566 0.560498 3.22838 85 140 123
0.834817 0.588558 3.32645 96 145 155
0.911848 0.608357 3.31965 121 155 168
1.89938 0.597762 3.21544 164 190 184
1.47733 0.61302 3.26508 111 164 154
1.94571 0.623821 3.21763 126 165 163
0.163032 0.670422 3.41571 97 168 148
1.56871 0.649225 3.25616 76 127 113
1.58895 0.650268 3.25908 145 211 192
1.68136 0.685696 3.26244 105 176 149
1.29158 0.723123 3.29548 128 170 217
1.39169 0.728976 3.28922 104 154 150
1.9129 0.721147 3.23091 144 178 178
0.937939 0.756884 3.3372 78 135 126
0.790424 0.767227 3.36137 93 155 139
1.77581 0.762367 3.25183 157 213 192
0.130344 0.807489 3.42113 128 168 173
0.818646 0.794397 3.35915 108 159 151
0.046225 0.824843 3.40797 245 253 253
-0.0904618 0.839781 3.44973 101 157 144
0.0591156 0.856103 3.41368 133 179 167
-0.769759 -1.33413 3.28973 157 222 200
0.561215 -1.24717 3.10695 125 183 172
-0.821385 -1.27776 3.30048 49 81 57
-0.0183085 -1.15431 3.20882 93 155 141
-0.0422253 -1.10669 3.21852 99 147 129
1.25858 -0.964041 3.05244 86 113 123
1.24256 -0.953765 3.0553 84 116 135
1.18015 -0.932854 3.06654 73 108 88
0.728081 -0.937357 3.13345 162 233 200
1.19401 -0.9065 3.07411 113 174 146
0.774 -0.91601 3.14025 171 218 216
0.945694 -0.799073 3.1343 86 133 117
0.116144 -0.751955 3.23832 88 120 103
0.943288 -0.713887 3.1441 169 227 209
0.0574424 -0.735277 3.2535 59 88 62
-0.0670081 -0.724938 3.26314 115 193 169
0.0887399 -0.701911 3.2474 86 132 110
-0.00738385 -0.677301 3.26706 93 140 124
-0.0441531 -0.641308 3.26756 65 105 87
0.115196 -0.635116 3.25424 116 171 152
0.666203 -0.609028 3.18569 148 220 184
0.0322056 -0.598204 3.27287 100 143 132
0.108295 -0.598588 3.25991 98 133 107
-0.0259361 -0.567519 3.28859 152 202 200
0.00980998 -0.544235 3.28149 102 130 111
0.0040964 -0.526198 3.28368 109 147 125
0.295798 -0.505372 3.25528 85 136 109
0.216671 -0.501129 3.26204 69 104 84
0.585591 -0.473 3.21501 250 254 255
0.0529488 -0.475446 3.28758 107 146 131
1.83936 -0.432367 3.06514 88 146 122
0.0639361 -0.459222 3.28697 101 138 122
0.153728 -0.456605 3.27628 60 126 91
-0.0220632 -0.457825 3.30466 120 175 166
0.553745 -0.443593 3.21818 146 195 157
0.20538 -0.444903 3.27742 125 178 158
-0.0638289 -0.439302 3.30481 92 133 128
0.0743563 -0.435484 3.28907 100 162 144
0.518699 -0.393591 3.24355 60 93 79
0.512393 -0.38893 3.2451 106 169 159
-0.0383401 -0.383981 3.2974 73 119 106
0.521644 -0.376046 3.24611 122 187 155
-0.161176 -0.382258 3.32105 86 124 112
-0.0907404 -0.379776 3.31023 147 207 197
-0.126838 -0.370238 3.3142 138 173 163
0.0685384 -0.362349 3.29527 129 181 164
0.0663358 -0.340957 3.29014 125 173 167
0.0788635 -0.337581 3.30234 69 112 99
0.638267 -0.326216 3.23367 113 168 143
0.611662 -0.31019 3.241 136 187 189
0.866117 -0.305423 3.21325 125 187 175
0.666074 -0.305548 3.2379 168 210 209
1.24607 -0.297732 3.16707 129 188 174
0.568926 -0.295987 3.25164 135 187 180
0.903812 -0.291255 3.21111 61 114 101
0.714161 -0.290551 3.23151 178 218 223
1.57276 -0.283698 3.13353 146 199 212
0.435008 -0.292197 3.2632 74 100 84
0.746736 -0.288134 3.22521 150 200 196
0.553028 -0.286318 3.25339 62 89 85
0.966508 -0.282342 3.20427 63 132 117
1.19333 -0.280294 3.17809 45 87 76
1.58229 -0.275985 3.13089 76 106 125
1.59468 -0.275515 3.12612 96 116 141
1.61977 -0.272746 3.12679 113 153 201
0.611737 -0.275758 3.24345 57 127 110
0.65924 -0.276155 3.23909 145 206 196
1.63105 -0.266779 3.12507 175 217 254
1.55037 -0.261315 3.13097 101 134 150
0.87239 -0.261228 3.21787 73 126 113
0.929332 -0.243603 3.217 63 138 122
1.38272 -0.232779 3.15668 79 131 124
1.38877 -0.232123 3.15991 74 130 125
1.72877 -0.226505 3.11543 150 202 225
1.75781 -0.183535 3.12239 124 168 215
1.69976 -0.17612 3.13251 155 208 241
0.446592 -0.178109 3.27405 96 154 130
0.796807 -0.175737 3.24355 76 114 132
1.17639 -0.1746 3.1957 93 150 147
1.28162 -0.170276 3.18693 89 155 154
1.5046 -0.168807 3.15741 127 163 209
0.109078 -0.160131 3.3156 99 157 129
1.62979 -0.149594 3.13913 164 219 232
1.27386 -0.143639 3.19202 103 148 162
1.38963 -0.140383 3.17647 83 127 140
0.233996 -0.137418 3.31073 99 156 141
1.38018 -0.130715 3.1827 106 159 156
1.8922 -0.129286 3.11035 199 230 231
0.947251 -0.130092 3.23093 78 125 117
1.16237 -0.124594 3.20501 80 125 138
1.39598 -0.126401 3.1744 103 144 159
0.315612 -0.123517 3.30296 87 146 118
0.840813 -0.120686 3.2436 50 114 102
1.82807 -0.114619 3.12165 101 145 144
1.72191 -0.113 3.13137 90 110 121
0.804858 -0.113355 3.24897 80 130 118
1.60126 -0.109329 3.15409 146 187 210
-1.66162 -0.0938847 3.55012 83 163 162
0.8838 -0.0855924 3.23807 92 145 165
1.41352 -0.0776156 3.1801 81 138 137
1.83224 -0.0722256 3.12009 117 158 160
1.50866 -0.0713904 3.16383 121 187 175
1.52188 -0.0683886 3.16172 134 169 172
1.85434 -0.0591503 3.11526 116 148 147
0.886139 -0.0506251 3.24189 73 122 132
1.14935 -0.0521484 3.19383 54 126 113
1.01426 -0.0444166 3.22588 85 120 160
1.8237 -0.0409949 3.12381 116 152 152
1.57469 -0.0232158 3.16441 87 135 129
1.83645 -0.0191823 3.12136 101 138 142
0.921785 -0.0151481 3.24823 95 126 177
1.79651 -0.0133607 3.12656 189 218 223
1.90952 -0.0117392 3.11095 132 133 129
0.945747 -0.00613099 3.24409 79 101 149
1.8562 -0.00522766 3.12316 86 87 91
1.87892 -0.000480672 3.11943 126 133 128
0.553288 0.0103827 3.29242 102 160 155
1.16119 0.0159347 3.21324 90 153 144
0.728767 0.023138 3.27969 87 144 135
1.1524 0.0290028 3.21875 84 156 144
1.51168 0.0498474 3.18048 81 137 126
1.05302 0.0551303 3.23222 71 143 131
1.75957 0.0602321 3.14914 69 122 108
1.9008 0.0583399 3.13332 59 73 69
1.68409 0.0720668 3.16358 100 164 145
1.74322 0.0720044 3.14899 59 124 103
1.56042 0.0867536 3.17619 68 108 97
1.9476 0.0852054 3.1257 90 102 106
1.9517 0.0966777 3.1325 140 175 178
1.79912 0.109294 3.14659 82 116 105
1.94391 0.131283 3.13481 181 212 221
1.86748 0.1432 3.15178 84 104 105
1.43919 0.16002 3.20077 100 156 143
0.813896 0.179219 3.28005 64 126 108
1.52463 0.178174 3.19982 71 114 105
1.86093 0.175267 3.15542 82 105 97
1.87548 0.17893 3.15151 125 159 148
1.85851 0.185141 3.1561 136 187 160
1.94624 0.20257 3.153 166 201 197
1.78995 0.204264 3.15939 60 118 100
1.85324 0.211563 3.16772 99 133 132
1.41553 0.218402 3.21813 101 161 151
0.897089 0.245953 3.28132 106 138 167
1.67935 0.244042 3.18616 84 146 140
1.19661 0.25102 3.24126 85 151 140
1.58689 0.259939 3.2008 75 142 115
-0.666744 0.292521 3.46431 106 153 144
1.87805 0.303407 3.1689 82 107 109
1.87859 0.302685 3.16706 93 116 118
0.501563 0.322144 3.33823 99 162 152
0.570935 0.333004 3.33431 77 129 122
0.544815 0.335196 3.33335 84 143 123
1.60475 0.325042 3.20446 60 129 109
1.71268 0.349334 3.20316 87 143 132
1.86807 0.358377 3.17703 78 102 94
0.967361 0.396346 3.30214 97 148 140
-0.436798 0.459179 3.45066 209 240 243
0.943985 0.451026 3.29342 101 161 151
1.0732 0.450155 3.28336 77 134 125
1.72613 0.459315 3.21425 72 131 111
0.977784 0.551913 3.30996 84 154 141
1.6703 0.55281 3.23747 75 127 110
1.25498 0.573631 3.28191 95 143 137
1.68184 0.569015 3.23898 76 129 109
1.55681 0.58471 3.24798 91 141 123
1.68198 0.583734 3.23573 60 102 91
1.87079 0.611201 3.22785 152 191 189
0.163717 0.669097 3.41029 97 168 148
1.56669 0.648502 3.25478 85 138 124
1.52399 0.666587 3.26093 91 142 128
1.85316 0.682945 3.22713 163 204 197
1.82543 0.701294 3.237 51 92 77
1.43303 0.715975 3.28319 79 132 119
1.80769 0.713507 3.2403 98 153 136
1.7928 0.73063 3.24611 66 104 92
1.78222 0.735959 3.25123 139 179 161
1.95803 0.737 3.23218 125 150 152
1.77557 0.761833 3.25083 149 205 184
-0.107005 0.844069 3.44099 118 168 150
-0.667349 -1.26828 3.28714 94 153 138
-0.85845 -1.25795 3.31681 88 130 112
0.853901 -1.13599 3.07587 176 230 223
0.676988 -1.1059 3.11446 145 215 179
-0.411013 -1.08616 3.276 98 159 149
1.22362 -0.940785 3.06608 52 82 69
1.19515 -0.906418 3.07675 117 180 154
0.161611 -0.934755 3.2039 98 162 127
0.0447009 -0.843686 3.24083 80 130 118
0.856229 -0.796115 3.1381 78 128 104
0.139462 -0.800349 3.23941 81 102 80
1.83741 -0.720078 3.01937 81 136 119
0.0202615 -0.765334 3.26351 96 158 144
-0.144066 -0.715256 3.26106 93 138 121
-0.0345375 -0.715518 3.25678 73 115 90
0.0540426 -0.684923 3.2569 76 115 94
-0.0442431 -0.640853 3.27172 63 100 84
0.0150405 -0.616747 3.27367 71 101 88
0.108221 -0.533989 3.27319 117 172 153
0.127204 -0.531587 3.27702 121 178 147
0.0326063 -0.52406 3.2847 107 155 137
0.164637 -0.522249 3.27165 101 146 130
0.0746548 -0.514414 3.28769 122 173 159
0.896234 -0.497993 3.17088 78 152 118
0.0781525 -0.510292 3.29202 111 166 149
0.579137 -0.495521 3.21268 213 223 211
0.167152 -0.493488 3.27053 66 105 83
-0.0923772 -0.46139 3.31677 131 194 184
-0.25794 -0.452042 3.33238 79 111 92
0.459187 -0.441487 3.23692 90 116 110
-0.0627897 -0.438192 3.31124 91 128 124
-0.26226 -0.437791 3.33155 119 170 162
0.447558 -0.426407 3.24137 87 128 123
0.00292322 -0.417812 3.28124 61 90 75
0.0848196 -0.410203 3.29819 81 131 119
0.0497148 -0.399937 3.30429 103 157 144
0.20804 -0.400582 3.27371 92 153 125
-0.134327 -0.396218 3.31199 86 121 107
-0.17188 -0.35728 3.31678 63 81 64
0.018332 -0.353036 3.30891 60 105 89
0.0363571 -0.351093 3.30256 130 193 173
-0.17387 -0.355082 3.32824 63 79 61
-0.122355 -0.338177 3.31534 78 121 108
-0.253565 -0.322941 3.33599 111 151 139
0.462402 -0.304265 3.25358 50 71 56
-0.856237 -0.306989 3.42482 216 242 248
1.06284 -0.283155 3.18668 59 101 106
1.39898 -0.280215 3.14691 68 129 115
1.45643 -0.279271 3.13746 72 114 103
1.71218 -0.274245 3.11024 84 113 134
0.984845 -0.278806 3.20034 66 124 113
1.02359 -0.278056 3.19363 62 122 114
1.31964 -0.274159 3.15874 83 121 123
1.49336 -0.274634 3.13881 66 100 99
1.481 -0.269999 3.1472 121 197 193
1.72369 -0.264157 3.11875 140 190 208
1.84562 -0.263269 3.09407 64 95 94
-0.197564 -0.280253 3.33564 139 199 191
1.64361 -0.261642 3.1281 114 148 184
1.68149 -0.250534 3.12231 89 118 155
1.74973 -0.232739 3.10934 50 83 69
0.499169 -0.244976 3.25788 78 129 115
1.56003 -0.232996 3.14419 100 143 162
1.26766 -0.226071 3.17768 90 140 160
1.29065 -0.223291 3.17205 99 141 154
1.54101 -0.223097 3.15198 107 147 175
0.65127 -0.214208 3.2557 91 157 146
1.78609 -0.206063 3.11112 91 120 151
1.43994 -0.200041 3.15795 95 126 171
1.37996 -0.195579 3.17327 67 118 120
1.79036 -0.170046 3.11619 78 124 135
1.89743 -0.151946 3.09754 87 119 118
1.71363 -0.144508 3.134 104 141 145
1.91951 -0.144302 3.10884 109 165 160
1.38113 -0.130276 3.18429 104 155 157
1.18733 -0.115264 3.19606 94 143 129
1.72277 -0.112894 3.12981 91 108 121
1.61836 -0.108362 3.15633 78 116 121
1.57336 -0.0981791 3.148 83 95 97
1.858 -0.0899575 3.11045 124 147 162
0.885766 -0.0841867 3.243 89 144 165
-1.70764 -0.0900439 3.54204 102 161 177
1.53087 -0.0750097 3.16065 75 82 99
1.84946 -0.0536051 3.10404 129 165 159
0.773887 -0.0561174 3.26327 75 127 109
1.15021 -0.0516524 3.19549 59 138 124
1.01531 -0.0432298 3.2299 123 161 203
1.73284 -0.044197 3.13446 131 147 163
1.76662 -0.0418989 3.12893 211 229 230
1.84022 -0.0176975 3.12602 110 140 145
1.895 -0.0191876 3.12141 124 131 128
1.75682 -0.00731904 3.13584 99 156 141
1.87842 -0.000687214 3.11879 127 134 129
0.719058 0.00590171 3.29875 60 130 113
1.82937 0.0149825 3.1278 96 103 96
0.984086 0.0227463 3.23306 89 134 138
1.82547 0.0269043 3.14164 115 136 133
0.922079 0.0326972 3.25199 94 136 181
1.92578 0.0731179 3.12406 187 215 222
1.84867 0.0944317 3.14532 91 107 100
1.40931 0.101175 3.20043 96 146 142
0.526076 0.109351 3.30013 150 202 202
0.886412 0.131296 3.26299 99 136 156
1.15411 0.130525 3.22966 104 150 151
0.967749 0.137348 3.25672 101 149 173
1.85507 0.133581 3.14947 177 214 212
0.710356 0.146131 3.3023 98 161 152
1.56327 0.156709 3.18785 150 207 186
1.80609 0.167843 3.1602 55 104 90
1.52551 0.178148 3.19969 58 100 93
1.9047 0.185253 3.14848 175 207 206
1.84376 0.195158 3.15964 178 215 213
1.79355 0.205911 3.16365 55 112 97
1.90371 0.203436 3.13043 188 218 219
1.91224 0.210757 3.14966 174 206 211
0.913173 0.223618 3.26592 85 143 142
1.52462 0.224737 3.20373 70 122 104
-2.06148 0.259678 3.6349 101 118 97
1.18139 0.239318 3.24294 109 170 160
1.4854 0.237025 3.21453 104 160 147
1.83812 0.239869 3.16648 185 229 223
1.68049 0.244692 3.18781 88 148 140
1.80415 0.246784 3.1812 86 130 124
0.539229 0.259504 3.32557 86 140 127
1.51191 0.249203 3.21389 86 142 131
1.58772 0.26081 3.20303 72 133 107
1.51501 0.297737 3.23118 78 132 119
1.94172 0.306559 3.1659 85 108 103
0.544998 0.337198 3.33837 100 153 139
1.88256 0.316847 3.17115 105 148 145
1.9335 0.319031 3.17364 125 132 149
1.94429 0.32734 3.17497 175 207 212
1.91875 0.333117 3.17482 89 93 98
0.354975 0.427184 3.36513 129 175 169
1.95345 0.411901 3.18201 100 116 128
1.38075 0.500314 3.25595 118 179 199
1.42133 0.538342 3.25708 97 158 154
1.46201 0.560547 3.25766 101 153 146
1.50339 0.559578 3.25548 95 137 130
1.68246 0.56863 3.23814 88 133 117
1.71507 0.567928 3.22612 64 111 102
1.67301 0.578336 3.24535 134 192 174
1.39039 0.589082 3.2655 118 170 163
1.85417 0.587696 3.22053 70 109 94
1.57778 0.59403 3.25499 80 118 106
1.89296 0.59325 3.20848 165 196 193
1.79475 0.612946 3.24364 47 90 75
1.90205 0.612659 3.20953 147 159 159
1.86485 0.633321 3.2205 156 185 189
1.61397 0.648826 3.26502 65 92 76
1.59304 0.654049 3.25201 131 188 173
1.79989 0.678423 3.2444 43 56 42
1.5286 0.692149 3.26741 88 132 119
1.4474 0.698906 3.28064 97 149 131
-0.869497 0.775336 3.5305 218 243 247
1.87917 0.717179 3.23697 122 164 153
-0.825286 -1.27894 3.30316 60 92 68
1.4797 -1.08284 2.99694 77 128 108
1.21179 -0.937383 3.06467 55 71 54
1.17889 -0.907256 3.07504 50 82 57
0.16215 -0.93455 3.21398 80 146 111
0.0878293 -0.799473 3.24902 142 204 182
0.0891715 -0.779513 3.24533 87 124 108
-0.0482044 -0.733804 3.25395 75 124 102
0.0388646 -0.735185 3.25705 68 98 73
-0.130115 -0.726769 3.26557 64 92 73
-0.0154329 -0.713135 3.25936 126 201 187
-0.0630549 -0.701644 3.27175 92 156 134
-0.155695 -0.697448 3.27644 121 186 171
0.0681723 -0.682547 3.26265 62 87 59
-0.166059 -0.679497 3.28162 64 84 61
0.0829439 -0.663604 3.24867 117 184 169
-0.126265 -0.662941 3.27341 109 163 150
0.045731 -0.663879 3.2661 125 184 170
0.0585315 -0.643591 3.2569 53 70 49
-0.0428619 -0.643978 3.27505 67 107 89
-0.191184 -0.639296 3.27919 96 139 128
-0.108238 -0.636832 3.271 129 184 175
-0.162121 -0.591139 3.29726 88 134 122
0.0173802 -0.565623 3.27879 49 71 52
0.0262525 -0.520291 3.27434 127 177 159
0.15612 -0.519186 3.27172 98 143 126
0.074589 -0.511367 3.28519 115 166 152
0.216416 -0.50007 3.26774 73 115 92
-0.033785 -0.487002 3.29574 104 151 142
0.0560559 -0.481437 3.29391 91 138 122
-0.114803 -0.468532 3.2926 72 114 96
0.122004 -0.472527 3.28541 72 122 104
-0.239785 -0.46609 3.3182 88 120 103
0.455799 -0.456041 3.23291 162 210 214
0.483387 -0.458193 3.23231 56 98 75
-0.0922567 -0.461869 3.31381 131 194 184
-0.253045 -0.454296 3.32868 73 95 76
0.450294 -0.43523 3.24443 88 129 121
-0.261829 -0.436296 3.33881 124 167 158
-0.202365 -0.437408 3.32023 73 92 77
0.0026872 -0.430963 3.30955 68 117 97
0.0712505 -0.432833 3.28886 119 173 160
0.00262469 -0.426947 3.33293 57 93 81
0.0332283 -0.408623 3.29226 55 86 65
-0.262617 -0.405352 3.33708 88 114 108
-0.134655 -0.39241 3.3255 74 114 102
-0.183204 -0.386649 3.32153 69 82 74
-0.181572 -0.38841 3.31189 93 120 111
-0.134694 -0.389319 3.34237 71 98 88
0.0842374 -0.374218 3.29304 136 196 188
-0.111298 -0.36713 3.31154 66 97 82
-0.176724 -0.358626 3.32961 69 81 63
-0.268264 -0.339442 3.33771 146 203 194
-0.194149 -0.311591 3.33313 68 83 69
0.465477 -0.307752 3.25946 46 70 52
1.56865 -0.286753 3.12766 146 187 212
-0.294022 -0.296966 3.34656 83 111 105
0.435785 -0.292302 3.26265 70 92 74
1.07444 -0.285569 3.18763 54 94 92
-0.197287 -0.281374 3.33045 142 201 193
1.74463 -0.226445 3.1186 71 97 114
0.709008 -0.225125 3.24412 58 108 98
1.71015 -0.204775 3.11759 118 148 177
1.78781 -0.188689 3.11925 155 205 235
1.67951 -0.178552 3.12701 93 111 142
1.79195 -0.16953 3.12419 98 148 166
1.62174 -0.130824 3.15237 84 109 129
1.19117 -0.111438 3.20999 78 117 131
1.82845 -0.107634 3.12108 125 154 158
1.86972 -0.105631 3.11625 171 199 206
1.55053 -0.101261 3.15887 94 139 150
1.58153 -0.0973653 3.16391 76 86 93
1.85377 -0.0970075 3.11762 134 147 161
1.82815 -0.0682165 3.12003 119 166 158
1.50061 -0.0636435 3.14758 52 98 85
1.82394 -0.0478907 3.12977 150 194 187
1.85831 -0.049077 3.1189 98 141 130
1.10523 -0.0376907 3.21333 93 157 145
1.66425 -0.0260111 3.14697 80 146 127
1.87691 -0.0214279 3.11871 98 106 113
0.937514 -0.00729225 3.22825 88 115 159
1.7358 0.0122531 3.14562 85 149 130
1.80487 0.0484722 3.13386 64 78 66
1.88655 0.0618572 3.11228 92 108 107
1.63121 0.0807725 3.1696 100 147 138
1.81685 0.0812783 3.13564 64 75 65
1.897 0.099591 3.13274 107 128 129
1.7845 0.104676 3.13963 85 139 116
0.707741 0.144873 3.29878 111 172 162
0.815687 0.182077 3.29006 75 140 119
1.87253 0.185671 3.139 84 97 81
1.88333 0.190913 3.15274 69 70 61
-2.06395 0.26101 3.63875 96 115 94
1.13986 0.321414 3.25052 111 148 138
1.65155 0.586961 3.24779 72 111 90
1.57196 0.592338 3.25104 77 122 106
1.63175 0.591695 3.25004 61 94 79
1.65947 0.599587 3.25879 61 103 80
1.73806 0.592855 3.2315 82 130 112
1.90944 0.591002 3.20677 106 114 113
1.72647 0.629976 3.23608 123 188 172
1.67175 0.642577 3.24031 63 119 90
1.85589 0.636543 3.21939 159 190 189
1.5901 0.652768 3.25449 118 187 167
1.66805 0.672758 3.25562 132 201 180
1.68175 0.689966 3.28925 107 163 140
1.8554 0.683374 3.22897 162 203 196
1.44098 0.702942 3.28276 130 182 164
1.67685 0.704398 3.27393 52 64 44
1.72493 0.708117 3.25845 114 159 143
