ply
format ascii 1.0
element vertex 1288
property float x
property float y
property float z
property uchar blue
property uchar green
property uchar red
end_header
0.846909 0.853167 5.08463 54 98 75
0.277139 0.881361 5.20473 72 134 116
0.723803 0.866929 5.11501 133 204 178
0.921571 0.860918 5.07872 76 156 127
1.33982 0.84121 4.94113 157 199 152
1.14638 0.860053 5.04047 146 228 199
1.00316 0.870304 5.07004 128 204 156
0.0467974 0.900859 5.24341 85 152 125
1.01397 0.872836 5.06791 70 140 99
-0.0935866 0.910714 5.27302 93 169 145
0.39366 0.901559 5.19238 140 222 187
1.21375 0.875565 5.04163 71 146 125
0.82507 0.888467 5.10167 117 195 158
0.221014 0.910914 5.22295 158 245 219
1.38054 0.864933 4.92657 151 186 176
0.386247 0.911717 5.19013 77 136 108
1.36249 0.873363 4.94486 162 201 185
0.851828 0.906256 5.10846 139 228 184
0.580393 0.918382 5.17054 64 134 98
1.30897 0.900587 5.02769 102 154 124
0.549134 0.93244 5.16917 76 132 97
0.552403 0.932041 5.16354 59 114 81
-0.0357291 0.965929 5.28271 72 148 117
-0.0336245 0.966282 5.28373 86 157 137
0.47195 0.950614 5.18099 148 225 187
-0.201234 0.977903 5.30863 68 142 108
0.602744 0.949979 5.16222 86 163 119
1.30459 0.928392 5.03279 156 231 187
0.854146 0.948501 5.10262 164 229 190
1.28485 0.941504 5.04086 78 142 112
-0.423927 1.00589 5.37178 66 153 117
0.432712 0.986888 5.20921 71 132 104
0.68811 0.982124 5.15634 79 145 126
1.19654 0.965722 5.07127 158 211 198
0.655032 0.989242 5.17157 72 136 107
1.14104 0.97258 5.0842 158 214 203
-0.0156088 1.04095 5.30255 79 146 114
0.342263 1.02722 5.22282 70 130 96
0.52351 1.04056 5.19427 79 136 121
-0.0215194 1.06596 5.31462 142 215 183
-0.275156 1.07706 5.36532 70 167 127
-0.210306 1.07494 5.35411 55 118 92
0.505692 1.04568 5.20752 141 219 195
-0.0313493 1.07116 5.3166 151 221 184
1.0148 1.03349 5.1202 142 222 185
-0.0731981 1.08449 5.33027 89 173 145
0.474456 1.06695 5.20979 69 132 100
0.39567 1.0788 5.24242 164 230 201
-0.149133 1.09982 5.33926 89 160 133
-0.18379 1.10904 5.36963 63 139 108
1.3276 1.04915 5.07813 80 136 117
0.0813593 1.10245 5.30095 155 237 195
-0.18627 1.13624 5.37247 55 132 95
0.553437 1.10567 5.22618 145 210 194
0.860046 1.09375 5.16155 60 121 93
0.0998934 1.12834 5.30659 171 247 215
0.20645 1.16105 5.31429 80 152 130
0.0551216 1.17108 5.34183 73 128 109
0.470103 1.14972 5.23953 57 130 98
1.43919 1.12674 5.07284 140 201 167
0.926363 1.15359 5.17009 151 234 195
1.78031 1.11925 5.01463 70 131 111
0.843633 1.16392 5.19032 41 107 78
1.78246 1.12586 5.01854 132 209 181
1.73672 1.13378 5.03779 64 107 94
1.54092 1.15429 5.06533 143 186 171
0.487118 1.19803 5.25144 66 159 130
1.04375 1.18668 5.17572 161 226 201
0.558873 1.21583 5.25355 86 152 133
0.825155 1.21519 5.21295 137 214 187
0.825441 1.21513 5.2128 137 214 187
0.304458 1.24585 5.31449 81 151 138
0.826387 1.22301 5.21109 72 129 108
1.18994 1.23005 5.14933 76 136 118
1.48068 1.22742 5.08948 85 143 119
1.20306 1.24575 5.15365 175 224 192
1.2051 1.24649 5.15538 195 245 205
1.49493 1.23086 5.09144 94 145 125
1.20129 1.24874 5.14649 106 145 119
1.11642 1.26731 5.18196 72 129 108
1.36947 1.27692 5.12271 152 228 194
0.076502 1.34816 5.38613 90 178 155
-0.233637 1.36792 5.45733 101 171 154
0.837601 1.34488 5.24712 91 178 150
1.45097 1.32696 5.13167 77 129 112
1.2403 1.34452 5.175 92 157 142
-0.20066 1.43676 5.46647 138 203 177
-0.216786 1.4388 5.46862 153 224 197
-0.19088 1.46587 5.47814 68 152 123
-0.0421806 1.46423 5.46117 95 167 144
-0.209357 1.49874 5.49555 73 145 125
-0.211142 1.53432 5.50885 82 154 131
0.936588 1.4714 5.28721 88 148 138
-0.0208464 1.52275 5.45214 148 229 196
-0.0339384 1.53603 5.46904 66 134 109
2.10099 1.48139 5.08863 155 209 202
2.48179 1.47932 5.04053 64 88 88
0.000264431 1.61777 5.49109 85 163 126
1.28414 1.55259 5.24183 71 131 107
0.741199 1.59862 5.36542 81 150 137
-0.0548261 1.64804 5.51165 80 160 137
1.82397 1.54634 5.13361 94 142 124
1.91432 1.54269 5.11796 80 118 100
1.87519 1.60597 5.15621 149 168 151
1.327 1.6626 5.25511 91 133 116
-0.238304 1.83917 5.61321 75 142 121
0.167614 1.84323 5.53783 83 162 143
0.459587 1.83221 5.48748 155 219 207
-0.254897 1.90218 5.63433 77 152 120
1.56631 1.79183 5.27242 74 121 113
1.82385 1.77596 5.21646 66 111 92
1.08939 1.87063 5.36985 146 210 180
-0.0865005 1.96001 5.62408 55 123 92
1.62191 1.85129 5.27939 141 174 170
1.6593 1.88276 5.27073 167 229 215
0.0300253 2.01698 5.62467 163 232 199
0.316746 1.9937 5.56052 71 142 126
-0.0156352 2.02413 5.62909 141 247 194
1.18544 2.01078 5.41409 117 155 133
-0.328852 2.15007 5.75763 116 177 157
1.57816 1.99568 5.33016 160 205 188
1.24756 2.04776 5.42301 143 229 175
0.386007 2.12855 5.58642 83 155 135
-0.328956 2.21973 5.76799 78 155 121
0.21328 2.2118 5.65694 159 220 192
1.24667 2.12296 5.42299 57 134 96
0.178593 2.21947 5.66463 84 140 111
1.24609 2.13023 5.42483 145 217 175
1.25135 2.14242 5.44597 68 122 92
0.306544 2.24266 5.64572 165 229 200
0.215786 2.301 5.68544 72 126 103
1.6158 -1.73529 4.77919 142 212 195
1.08314 -1.7232 4.83726 77 130 110
1.32301 -1.70027 4.81626 95 161 149
1.61384 -1.68423 4.77359 81 152 132
-2.11696 -1.8388 5.24226 142 217 171
-3.24235 -1.83305 5.32322 111 203 162
0.957722 -1.66116 4.8905 137 188 174
0.392032 -1.66939 4.92079 129 186 155
1.68593 -1.58412 4.76668 169 230 216
0.774319 -1.62149 4.881 64 143 134
1.01677 -1.60509 4.84621 92 154 136
0.815686 -1.61197 4.89513 100 159 179
-2.0739 -1.69432 5.23462 159 233 209
1.06442 -1.53663 4.83819 74 140 128
-3.23633 -1.69918 5.35602 82 141 121
1.34539 -1.50819 4.79367 165 235 204
1.22658 -1.49619 4.82056 61 136 122
1.20603 -1.49293 4.82408 74 130 117
0.958226 -1.5027 4.87036 103 159 170
0.952619 -1.43242 4.83422 129 189 181
1.0566 -1.4199 4.838 161 203 248
0.462712 -1.4206 4.91461 81 150 129
0.204415 -1.40941 4.93808 122 198 157
0.198965 -1.38646 4.93715 130 200 160
0.304871 -1.38057 4.93176 157 221 185
0.262913 -1.35857 4.92153 151 232 183
0.0526954 -1.36302 4.95822 133 216 171
0.245131 -1.35125 4.934 126 201 155
1.26408 -1.31609 4.80683 104 154 184
1.00262 -1.2703 4.7914 158 217 197
1.77419 -1.25594 4.73681 78 141 131
1.0152 -1.26244 4.81146 90 145 136
0.54556 -1.27751 4.87153 72 108 92
0.183289 -1.28958 4.93913 153 235 200
0.436645 -1.26393 4.87878 135 198 158
0.376708 -1.26169 4.9046 75 127 109
1.65478 -1.22036 4.75157 121 179 154
1.0738 -1.22011 4.78665 130 185 166
1.64553 -1.20833 4.75611 82 146 127
1.00688 -1.22104 4.81641 61 105 98
0.425038 -1.20271 4.8387 89 176 162
0.945637 -1.19263 4.80067 130 189 158
0.908368 -1.19417 4.81847 133 208 176
0.91175 -1.19463 4.82949 139 212 180
-0.401231 -1.23951 5.03309 109 177 160
0.976597 -1.17609 4.81841 79 141 123
1.00589 -1.16948 4.79853 66 92 79
0.889219 -1.17298 4.82846 107 163 152
0.618345 -1.17001 4.86471 141 233 216
1.1922 -1.14128 4.76198 79 139 108
0.807043 -1.15733 4.82807 159 225 184
1.15451 -1.147 4.79747 80 104 94
0.770169 -1.1479 4.84376 150 202 185
1.1769 -1.11747 4.78422 138 180 155
0.697669 -1.13002 4.8483 163 219 214
0.571142 -1.1093 4.81146 119 179 148
0.670971 -1.11194 4.85191 127 194 197
-0.306303 -1.14766 5.01111 102 180 173
0.425831 -1.09993 4.83876 139 189 185
-0.299439 -1.13669 5.01823 86 158 158
0.426952 -1.09736 4.84408 123 176 167
0.994486 -1.07679 4.78086 94 148 118
0.336059 -1.0997 4.89785 108 155 123
0.973936 -1.08075 4.81112 150 211 185
-3.22687 -1.21161 5.42452 57 135 111
0.301646 -1.09192 4.90818 141 192 164
0.868093 -1.06558 4.82444 57 116 85
0.587064 -1.04003 4.84957 148 221 183
1.11306 -1.02659 4.79481 132 198 163
-0.170813 -1.06381 4.99723 39 101 83
0.436638 -1.04138 4.88589 135 192 193
0.608838 -1.03306 4.84991 50 107 74
1.18094 -1.01724 4.79876 71 124 104
0.424411 -1.03066 4.88253 137 208 188
-0.0650771 -1.04554 4.97385 96 166 153
0.353418 -1.02814 4.91056 136 204 179
0.428053 -1.02548 4.88432 164 225 197
1.19793 -1.00704 4.80244 86 157 137
0.323516 -1.02371 4.92104 156 211 196
0.604156 -1.00342 4.85186 139 219 176
0.322961 -1.01653 4.9238 93 143 133
0.363515 -1.00784 4.91649 149 217 200
0.372336 -0.995282 4.91411 154 214 203
0.701984 -0.983852 4.84925 58 94 64
-0.0420748 -1.00853 4.98168 137 225 209
0.860857 -0.976199 4.82608 100 154 125
0.982316 -0.965533 4.80322 147 210 178
1.04019 -0.965196 4.80502 89 159 128
-0.00455138 -0.993016 4.97928 72 151 130
0.978481 -0.957005 4.79931 98 143 126
0.962299 -0.951285 4.82148 81 131 113
0.692742 -0.954953 4.85405 138 206 165
0.441923 -0.95762 4.87397 150 199 161
0.314227 -0.951859 4.92278 93 157 128
0.422468 -0.94158 4.90433 106 135 126
-2.55544 -1.01713 5.35704 90 176 152
0.332964 -0.930196 4.92403 155 236 209
0.789985 -0.90998 4.84834 168 232 203
1.21993 -0.900547 4.794 75 133 122
1.90442 -0.888258 4.72213 67 125 114
0.869609 -0.906087 4.832 94 162 131
0.465472 -0.914384 4.89358 96 158 142
0.409064 -0.911428 4.90731 70 121 107
0.354304 -0.904554 4.90417 68 116 88
1.17818 -0.838479 4.79265 83 137 120
0.773141 -0.838105 4.84634 94 162 131
0.842145 -0.822092 4.84141 73 136 97
0.29896 -0.829135 4.93092 155 211 192
0.618192 -0.809873 4.88379 63 108 82
0.432081 -0.80769 4.90775 76 148 126
1.26816 -0.776948 4.80079 79 144 128
0.823794 -0.780025 4.83984 136 203 171
1.31645 -0.768441 4.7984 70 145 131
1.0774 -0.767299 4.80508 43 78 64
-0.024516 -0.773287 4.97667 166 225 210
0.985446 -0.74657 4.82051 82 147 108
1.12083 -0.736205 4.80614 143 204 170
0.0460599 -0.758183 4.9684 87 152 130
0.83252 -0.738284 4.83732 151 225 197
0.199679 -0.746537 4.94045 58 102 79
-0.301959 -0.753192 5.02491 68 146 122
1.07103 -0.723666 4.82004 72 134 116
0.812061 -0.724446 4.83827 162 226 196
0.0998729 -0.727597 4.96102 145 234 195
1.1856 -0.704862 4.79832 70 144 114
0.680858 -0.713492 4.88115 60 118 100
0.2215 -0.719415 4.93651 164 241 204
0.405448 -0.71774 4.91567 73 135 119
0.679381 -0.703109 4.86434 143 227 192
0.716661 -0.70244 4.86994 76 149 111
0.206892 -0.711313 4.94231 76 127 93
0.210178 -0.704187 4.94581 75 134 106
1.10149 -0.683341 4.81694 67 118 110
0.237478 -0.700677 4.93699 77 143 114
-0.0349132 -0.70133 4.99626 56 128 92
1.15058 -0.668791 4.81336 79 133 126
0.77934 -0.668046 4.86126 159 217 192
-0.0160281 -0.66343 4.98253 121 188 156
2.14244 -0.623531 4.69644 77 119 112
0.0317001 -0.655753 4.96906 68 118 86
0.679115 -0.638893 4.87975 93 148 131
-0.0531592 -0.642321 4.98079 70 126 97
0.579572 -0.633104 4.9068 93 153 145
-1.86639 -0.680376 5.29216 131 177 165
-0.13688 -0.638503 5.01079 102 175 149
-0.131338 -0.635909 5.01007 164 229 204
-0.054802 -0.631735 4.98655 130 228 184
0.350559 -0.622459 4.92884 77 151 121
0.738136 -0.6107 4.8733 64 135 115
0.333892 -0.614414 4.92978 68 146 109
0.0166296 -0.616218 4.97239 82 152 112
0.10882 -0.603768 4.96562 82 144 104
0.884276 -0.590487 4.85193 83 142 127
-0.00777445 -0.602821 4.9821 71 152 107
-1.85664 -0.639113 5.29468 150 203 183
-2.31926 -0.639337 5.34639 134 200 171
-1.56727 -0.621324 5.25033 117 155 149
0.3476 -0.582994 4.92842 75 140 119
2.19791 -0.55526 4.69093 154 232 208
0.106028 -0.582662 4.97142 119 183 148
0.598324 -0.565511 4.90652 84 144 133
0.288065 -0.564033 4.9387 124 209 171
-0.0144136 -0.567715 4.98747 73 117 86
0.842488 -0.546743 4.8692 86 144 133
2.05055 -0.527531 4.72555 68 133 118
-2.50922 -0.589155 5.39721 75 152 124
0.3097 -0.531689 4.93802 84 161 133
-0.920635 -0.54948 5.14288 125 190 168
1.1539 -0.510823 4.8338 87 143 132
0.322814 -0.51381 4.93832 71 145 121
0.21588 -0.511466 4.95431 131 207 176
0.97878 -0.498228 4.85633 78 144 125
0.0605099 -0.494829 4.98634 44 111 90
-0.440648 -0.501704 5.08736 88 159 139
0.839765 -0.479246 4.87721 149 216 187
0.814675 -0.475383 4.88817 64 115 95
-3.39152 -0.533879 5.51558 136 216 173
-2.26313 -0.516198 5.35734 125 169 152
0.882641 -0.460443 4.87626 61 118 97
-2.29176 -0.501489 5.35911 136 195 180
-2.37837 -0.496949 5.37964 141 181 169
0.128659 -0.441925 4.95592 47 93 74
0.403792 -0.439311 4.93452 93 144 130
-1.56021 -0.466394 5.27622 135 168 161
0.147467 -0.440329 4.95993 67 116 100
-2.33878 -0.456516 5.37786 118 192 166
1.61499 -0.396098 4.78947 89 152 142
2.5768 -0.384191 4.64927 72 132 126
-2.05212 -0.432333 5.35269 128 169 154
-0.483606 -0.407396 5.08093 87 158 132
-1.32134 -0.416309 5.21781 114 168 161
-2.39492 -0.422328 5.40021 70 124 107
0.23472 -0.388506 4.96433 95 175 144
1.08097 -0.37766 4.85958 93 180 154
-0.529156 -0.391872 5.10014 67 129 115
0.265519 -0.374757 4.96685 68 137 124
0.156357 -0.371936 4.97339 64 137 99
-1.9416 -0.396081 5.34442 117 181 162
0.201641 -0.359614 4.97958 71 143 121
-2.50215 -0.388584 5.42204 134 229 184
-2.52694 -0.377817 5.43312 79 153 125
0.112418 -0.341098 4.99057 152 230 189
-2.34234 -0.36617 5.38708 156 230 204
0.0278749 -0.338738 5.01674 91 162 146
-2.80689 -0.365819 5.49219 63 135 105
-0.394604 -0.341162 5.07953 54 125 105
1.40446 -0.32212 4.81748 96 163 156
0.842445 -0.323747 4.89814 104 162 151
-0.41275 -0.325507 5.09592 103 175 155
-2.37202 -0.333515 5.41319 91 166 144
0.122874 -0.304108 4.99885 134 205 179
-2.79289 -0.306614 5.49051 97 159 143
0.921026 -0.266452 4.88242 91 143 125
0.920557 -0.26596 4.88561 91 145 128
0.920893 -0.259267 4.89414 144 204 186
-0.490942 -0.25154 5.1101 93 162 147
-0.454001 -0.223304 5.11165 71 147 129
-2.6416 -0.234023 5.47524 71 145 117
1.77714 -0.196288 4.79198 82 132 120
1.58405 -0.166347 4.80618 93 149 144
-2.78047 -0.186428 5.50727 93 174 141
1.98841 -0.157567 4.76814 79 139 121
2.01311 -0.155546 4.76345 62 117 100
0.125241 -0.163761 5.02334 91 153 139
1.41099 -0.150554 4.83557 76 140 128
1.41554 -0.148743 4.83541 72 132 122
0.901885 -0.14411 4.91157 155 212 204
1.53528 -0.139091 4.82197 73 126 116
-0.436098 -0.146061 5.11748 82 148 136
-0.619615 -0.139696 5.15906 215 249 248
0.888821 -0.123368 4.91742 92 153 143
-3.31762 -0.130468 5.60849 91 180 137
0.577144 -0.107443 4.95707 101 160 146
1.20144 -0.106564 4.86743 181 232 225
1.27716 -0.101422 4.86352 94 161 152
-2.54864 -0.111899 5.48192 87 151 121
0.948731 -0.0877377 4.91234 129 198 187
1.00534 -0.0865608 4.89846 186 232 219
-0.283442 -0.0782799 5.10893 190 236 230
0.771455 -0.0518434 4.94964 81 144 135
0.878173 -0.0265993 4.9293 153 228 207
1.96683 0.0128805 4.79357 79 137 143
0.900203 0.0170109 4.93873 59 120 106
1.70135 0.0246346 4.82546 68 138 132
0.964941 0.0442501 4.93145 75 124 104
0.626778 0.047499 4.96044 89 144 127
0.975983 0.0575507 4.93165 76 123 107
1.75831 0.0613904 4.8219 76 140 128
-0.190771 0.0735364 5.12456 160 227 206
-0.153706 0.0966691 5.11504 72 138 119
-0.723991 0.117433 5.23014 196 233 229
0.952813 0.150269 4.94643 77 147 130
1.20143 0.163841 4.91248 96 155 135
1.08203 0.165293 4.93487 66 139 117
1.31819 0.199798 4.88356 173 247 213
1.11573 0.218116 4.93501 69 134 113
1.12534 0.221987 4.92744 145 216 190
2.02666 0.226228 4.80999 67 139 139
1.64738 0.24608 4.86543 81 133 133
1.10722 0.252928 4.94038 64 129 113
1.40439 0.251409 4.88765 69 128 107
0.666561 0.262406 5.00792 72 141 126
0.628915 0.267762 5.02175 65 130 114
2.22119 0.313643 4.79566 74 116 105
2.7864 0.323601 4.6635 100 130 105
0.390173 0.419942 5.08714 140 222 193
0.611445 0.418618 5.05302 95 165 148
0.470596 0.425453 5.08252 84 145 131
0.57158 0.432686 5.03888 99 156 131
0.369625 0.438972 5.09817 60 127 106
0.496315 0.467418 5.07767 86 153 132
0.465603 0.473044 5.07395 88 153 121
1.55573 0.465273 4.88195 157 228 188
0.352015 0.491075 5.10637 56 120 101
0.401585 0.493397 5.09678 56 135 114
0.432756 0.496593 5.09286 60 112 94
-0.696687 0.519068 5.305 79 149 136
0.332396 0.500941 5.11446 67 141 123
0.563224 0.49939 5.07336 106 151 125
1.04025 0.499492 4.98703 95 151 132
0.613445 0.516052 5.07739 69 135 106
1.62675 0.499921 4.88561 65 125 91
0.654004 0.528423 5.06914 83 151 126
1.59494 0.511325 4.88563 174 242 201
1.2013 0.54239 4.97794 85 160 139
1.55844 0.537827 4.89522 154 232 195
0.805335 0.566624 5.04879 103 170 155
0.496336 0.58819 5.09642 66 129 109
1.271 0.574068 4.96494 161 236 190
0.234062 0.597536 5.14613 118 168 150
1.2314 0.583249 4.96415 37 113 82
0.499031 0.601691 5.09902 76 142 117
1.20868 0.588371 4.98521 75 128 101
1.33948 0.601775 4.94277 120 182 142
1.40546 0.599428 4.93456 157 222 190
0.742036 0.61726 5.06131 87 158 125
0.782648 0.618674 5.06852 80 145 124
1.20763 0.610514 4.98204 72 122 92
0.670447 0.66398 5.08909 103 163 139
1.22083 0.648845 4.97793 58 115 90
0.596795 0.665154 5.08623 59 114 87
1.22355 0.657383 4.98728 130 212 169
1.16599 0.662323 5.00548 128 188 158
1.86595 0.651858 4.89734 87 160 144
1.12242 0.669574 5.00896 68 122 105
1.29945 0.653933 4.90792 38 74 44
0.551205 0.685559 5.11335 69 137 114
1.25763 0.675012 4.95835 165 223 182
1.25874 0.674429 4.95667 159 215 174
1.21173 0.679813 4.98239 160 241 186
0.790757 0.699197 5.07453 76 141 119
1.25087 0.71418 4.9794 155 201 172
0.142698 0.743824 5.18787 82 153 110
0.500457 0.737921 5.11574 148 200 183
0.506461 0.748705 5.12945 55 122 95
-0.564009 0.782568 5.34172 132 189 174
0.686366 0.750109 5.09169 143 217 183
0.386545 0.763833 5.15218 91 165 137
0.575057 0.770744 5.11494 59 140 101
0.645856 0.768564 5.10368 160 237 200
1.23341 0.759762 5.00181 65 127 91
1.31101 0.751571 4.92388 136 183 161
0.573322 0.785302 5.11608 61 122 94
0.0744404 0.80374 5.22403 139 207 184
0.540093 0.789192 5.12627 47 93 71
1.3 0.766383 4.93519 38 64 46
0.640091 0.800304 5.11169 48 102 72
1.30107 0.770981 4.92348 150 190 172
1.69785 0.780692 4.94141 80 104 104
1.11572 0.798651 5.04145 83 134 100
0.58712 0.816601 5.12984 142 214 172
1.30381 0.783221 4.91859 132 156 144
0.895976 0.811885 5.08191 57 128 112
1.0377 0.811597 5.05119 61 125 95
0.0399167 0.852203 5.23461 75 161 131
1.00256 0.822666 5.05355 80 181 143
1.40885 0.801007 4.89782 80 110 99
1.59003 0.812996 4.96766 165 226 198
0.380126 0.858087 5.17039 74 132 114
0.407484 0.86826 5.1832 120 197 160
0.862046 0.858277 5.09166 133 228 177
0.921282 0.859989 5.07619 76 156 127
1.58014 0.841858 4.95719 103 137 137
1.30275 0.853612 4.97543 175 199 187
-0.599663 0.938163 5.39695 138 194 173
1.21267 0.875858 5.04471 71 146 125
1.89113 0.86054 4.94552 85 148 132
-0.385515 0.933111 5.34515 71 126 99
-0.592401 0.947143 5.39489 71 126 99
0.590497 0.908431 5.15709 184 237 197
1.65552 0.883654 4.95042 113 157 174
1.2674 0.90682 5.03842 140 212 182
-0.438802 0.977892 5.37254 66 128 98
0.575925 0.942618 5.16384 78 121 88
0.430464 0.952256 5.1951 50 105 88
0.0650291 0.982788 5.26665 171 240 197
0.625372 0.968487 5.16742 140 223 185
0.435637 0.9845 5.20613 53 105 81
0.635352 0.982183 5.16724 71 129 100
0.687791 0.98123 5.15401 93 157 138
0.444189 0.997942 5.21041 59 134 102
0.509296 0.992027 5.18161 151 231 188
1.20654 0.972975 5.06855 66 135 122
-0.241423 1.0352 5.33487 115 198 160
0.48069 1.01423 5.19439 91 134 101
-0.0161641 1.04023 5.30067 77 144 112
-0.166675 1.06258 5.3284 67 141 113
0.647849 1.03523 5.18179 79 142 116
-0.0613726 1.07177 5.32125 79 137 109
-0.0350396 1.07106 5.32011 144 221 184
0.474005 1.06736 5.21079 69 132 100
1.0442 1.04769 5.12127 75 158 119
0.40551 1.07667 5.2202 69 127 99
0.577772 1.08045 5.21403 59 107 81
0.467686 1.07885 5.20296 69 119 95
0.0813179 1.09948 5.29422 159 246 202
0.0603381 1.11171 5.30678 155 232 194
0.0718072 1.11448 5.30554 160 247 203
1.17295 1.08009 5.11482 81 143 129
1.46803 1.0699 5.05896 143 198 189
0.856924 1.09465 5.16154 66 120 97
0.38535 1.12069 5.25682 178 235 202
0.429868 1.12849 5.23928 133 203 167
0.816585 1.13094 5.18171 136 204 173
0.754458 1.13984 5.2052 62 140 109
1.9587 1.09094 4.97772 115 149 138
1.70014 1.13119 5.04514 147 209 185
0.429237 1.18105 5.25322 140 231 186
1.78168 1.1253 5.01722 132 209 181
0.430412 1.18644 5.25797 48 121 89
0.454602 1.19274 5.25909 62 139 101
0.932161 1.17394 5.17537 118 203 171
0.485905 1.19721 5.24945 72 165 136
1.54071 1.15343 5.06332 149 194 178
1.0441 1.18575 5.17352 161 226 201
0.484431 1.22462 5.26061 162 232 196
0.825136 1.21473 5.21185 137 214 187
0.825758 1.22623 5.21774 90 151 131
0.219915 1.2612 5.34284 85 152 137
2.0596 1.19626 5.00749 70 123 114
0.897248 1.25692 5.21999 95 150 131
0.938004 1.27613 5.22005 175 234 220
-0.357873 1.34495 5.48319 91 172 153
1.65391 1.26359 5.0843 96 122 122
1.64675 1.28525 5.09394 104 137 133
-0.00206189 1.37383 5.41811 72 100 80
1.64072 1.29837 5.097 101 126 130
0.0062349 1.38895 5.41005 40 93 66
-0.460224 1.49175 5.54405 211 242 245
0.772298 1.44371 5.31285 58 127 112
-0.0202301 1.52217 5.4509 148 229 196
0.453519 1.54076 5.3821 109 158 150
-0.0035554 1.57094 5.4612 62 138 104
-0.0838351 1.60009 5.50183 71 139 114
-0.0825954 1.60239 5.50671 78 151 125
-0.149546 1.63226 5.54125 89 141 131
1.28137 1.55086 5.23989 78 132 109
1.91378 1.54046 5.11354 67 99 82
1.88894 1.5406 5.10857 143 195 165
1.8345 1.55187 5.13261 102 140 122
0.537136 1.66781 5.42283 68 157 141
1.87508 1.60593 5.15613 149 168 151
1.3267 1.6621 5.25413 76 122 100
1.8674 1.68068 5.18937 88 119 122
0.38437 1.83593 5.48698 103 168 152
1.31523 1.77679 5.30489 80 121 113
-0.242785 1.88981 5.62673 79 144 112
0.156915 1.86784 5.55508 84 153 140
0.25395 1.85966 5.52489 86 150 138
1.56181 1.7859 5.26242 61 104 91
-0.267835 1.94195 5.66193 81 139 110
0.35843 1.91831 5.53039 75 150 129
-0.132419 1.96731 5.64502 72 148 116
-0.00841689 1.98407 5.63068 95 166 139
0.00454751 1.98372 5.61524 160 244 202
-0.198868 2.04713 5.67558 96 142 113
-0.199254 2.05665 5.69332 83 129 107
1.59074 1.9654 5.31325 167 214 192
-0.026515 2.09987 5.66808 77 128 101
1.18483 2.13711 5.4609 54 114 84
-0.112281 2.28072 5.74157 167 234 207
0.121332 2.30881 5.71081 99 157 133
0.215454 2.29966 5.68312 72 126 103
-0.253672 2.37002 5.81811 93 173 144
-0.375831 2.50112 5.88546 60 139 100
1.12267 -1.79276 4.87517 40 67 47
1.4309 -1.7642 4.80269 61 113 96
-2.13406 -1.9066 5.23349 89 141 117
1.96157 -1.72666 4.74367 75 140 118
-0.832995 -1.84805 5.08683 130 203 171
0.215274 -1.79482 4.96868 107 160 133
1.25435 -1.74502 4.82394 83 124 119
1.70851 -1.71707 4.77164 59 118 104
1.39932 -1.72825 4.80961 170 230 212
1.50217 -1.71711 4.78909 92 155 145
1.29707 -1.72925 4.82816 70 115 106
1.52566 -1.70638 4.79068 60 150 131
1.32512 -1.70025 4.81515 93 150 141
-2.10792 -1.84241 5.24581 85 150 118
0.392198 -1.715 4.93114 66 104 82
0.22072 -1.71831 4.95504 70 126 115
0.605213 -1.68881 4.88571 91 118 84
0.920838 -1.67713 4.87081 66 94 111
0.850279 -1.6832 4.89991 139 191 181
1.87068 -1.6238 4.73021 109 152 139
0.94647 -1.67039 4.87918 127 188 178
1.25635 -1.61933 4.80341 102 141 126
1.48395 -1.61129 4.78844 71 144 128
0.836757 -1.63996 4.88448 88 111 179
0.386829 -1.65568 4.93894 117 181 159
1.66378 -1.58694 4.7563 90 136 123
-2.18456 -1.74771 5.25572 143 232 189
-0.58628 -1.53571 4.62009 124 198 170
-0.486303 -1.54338 4.65398 156 224 193
1.00868 -1.58491 4.83885 176 225 255
0.77122 -1.58912 4.87611 90 147 139
1.96572 -1.54082 4.71789 90 130 129
-2.22343 -1.71264 5.27784 86 167 140
0.768107 -1.58312 4.88412 83 155 143
1.08872 -1.55378 4.81621 64 100 88
1.18227 -1.54573 4.79893 130 181 154
1.66545 -1.52732 4.75168 163 230 199
1.72711 -1.52501 4.75345 62 91 75
1.59978 -1.52729 4.76296 40 79 63
1.07979 -1.53983 4.8419 135 206 189
0.793408 -1.55038 4.87394 65 124 104
1.06499 -1.53866 4.84025 85 150 135
1.07974 -1.53986 4.84222 135 206 189
1.72406 -1.50956 4.74881 132 196 160
-3.23367 -1.69807 5.34769 63 116 103
1.11048 -1.52539 4.827 132 198 187
1.31872 -1.5212 4.80762 84 143 129
1.11151 -1.52678 4.84003 140 212 200
1.46071 -1.50853 4.78164 101 157 152
1.95111 -1.4957 4.7522 98 138 133
1.12254 -1.49592 4.82909 88 141 131
1.2034 -1.49157 4.82048 74 130 117
0.753437 -1.49335 4.88074 123 184 174
0.851326 -1.47496 4.82829 70 114 107
2.41777 -1.4169 4.65362 89 156 141
1.72132 -1.44188 4.75291 115 186 153
0.288812 -1.47435 4.93776 106 170 151
0.17529 -1.46688 4.93974 83 158 137
1.77501 -1.40862 4.75327 144 203 175
0.952718 -1.43261 4.83644 115 184 174
1.03889 -1.43357 4.85175 131 185 232
1.04654 -1.42715 4.84562 66 103 155
0.807407 -1.42035 4.82992 158 228 205
-2.29047 -1.54949 5.29959 87 146 126
0.779875 -1.40645 4.83215 151 231 202
-2.19515 -1.52834 5.26053 161 238 211
1.14592 -1.40414 4.82853 138 176 234
0.930301 -1.38965 4.79502 74 133 119
0.461704 -1.41997 4.90728 91 156 134
2.05109 -1.34337 4.70918 67 127 126
2.00285 -1.33674 4.72095 73 123 111
0.488298 -1.37665 4.90315 79 151 131
0.366613 -1.37972 4.92281 73 140 101
0.835686 -1.35308 4.83476 68 107 82
0.168217 -1.37829 4.93497 140 241 185
0.263336 -1.37824 4.93849 128 193 154
0.345608 -1.36945 4.90889 75 138 98
0.220907 -1.37733 4.93688 143 224 191
0.346766 -1.37073 4.92586 57 126 89
0.812032 -1.34995 4.85376 58 101 92
2.02159 -1.31231 4.71746 68 128 117
0.259609 -1.37056 4.9365 75 123 97
0.261786 -1.35842 4.92269 151 232 183
0.982527 -1.3347 4.83626 77 143 138
0.178989 -1.35712 4.93853 76 133 102
0.606796 -1.34042 4.87229 90 143 134
0.180264 -1.35716 4.93886 92 155 116
0.878642 -1.31183 4.82747 147 212 196
0.69631 -1.3175 4.86653 78 128 116
0.508669 -1.31719 4.90187 69 132 106
0.796354 -1.30481 4.85652 87 144 129
0.845759 -1.30094 4.83489 153 226 200
0.177778 -1.32641 4.93936 72 129 104
0.855854 -1.29477 4.83278 94 149 132
0.31284 -1.319 4.9267 77 143 108
0.223359 -1.3195 4.93952 74 137 105
1.0048 -1.28453 4.81768 101 162 148
2.67408 -1.22222 4.58681 128 185 164
0.983793 -1.27159 4.79188 147 222 201
0.518418 -1.28689 4.88642 139 201 177
1.84451 -1.2416 4.73443 80 137 116
0.44507 -1.2716 4.86343 92 164 128
0.768466 -1.25965 4.83633 77 131 114
1.85356 -1.23005 4.72468 128 190 168
0.678985 -1.24827 4.83071 75 149 119
0.707409 -1.25909 4.85449 166 224 213
1.7446 -1.23015 4.7473 111 198 170
0.405984 -1.25917 4.89291 51 107 86
0.43811 -1.25676 4.88057 56 83 67
1.74242 -1.2223 4.74384 72 146 120
-0.0208872 -1.27251 4.95469 131 218 182
0.197837 -1.2666 4.92717 150 242 199
0.996588 -1.23576 4.81451 165 237 207
1.65159 -1.22103 4.75424 113 174 146
-0.0108276 -1.27483 4.97456 88 158 121
0.351819 -1.25698 4.9155 91 152 132
1.86205 -1.20607 4.72348 65 104 89
0.387601 -1.24651 4.90502 80 130 126
0.429389 -1.24483 4.90427 81 147 122
1.66839 -1.20845 4.74548 124 182 157
0.0255804 -1.25594 4.96852 128 215 179
0.383205 -1.23836 4.89284 154 215 205
-0.0245284 -1.25408 4.97553 51 122 89
1.08494 -1.21114 4.7984 47 74 71
0.538935 -1.21362 4.82337 106 149 138
2.20202 -1.18025 4.68319 73 140 131
1.08418 -1.20203 4.79678 129 209 180
-0.0640242 -1.24794 4.98417 75 131 108
0.959246 -1.19888 4.79893 68 126 97
0.882926 -1.20341 4.8379 124 209 194
0.282145 -1.22663 4.93604 60 113 99
0.425517 -1.20288 4.84271 89 176 162
1.00249 -1.19522 4.82204 62 111 103
1.00314 -1.19518 4.82075 58 105 97
1.10474 -1.18573 4.79415 152 233 208
0.738934 -1.19955 4.85101 91 146 137
1.08336 -1.18433 4.79789 155 240 202
-0.00537009 -1.22753 4.97757 60 130 99
1.88203 -1.15286 4.72314 78 134 121
-0.424385 -1.22653 5.02839 115 174 160
1.00667 -1.16962 4.80242 50 79 70
1.25713 -1.17328 4.81169 63 108 105
0.754719 -1.18038 4.85295 84 138 133
0.789234 -1.17812 4.83918 64 109 92
0.924112 -1.16894 4.82134 65 102 94
0.98937 -1.16827 4.80674 85 128 117
0.383013 -1.16734 4.85595 39 75 61
1.01095 -1.15679 4.81763 60 101 80
0.807229 -1.15741 4.83067 159 225 184
1.19308 -1.14051 4.76269 79 139 108
0.402864 -1.15851 4.85179 117 176 161
0.837208 -1.15187 4.82993 80 139 125
1.02437 -1.14321 4.80583 148 218 188
0.688916 -1.13944 4.82451 172 238 233
0.477484 -1.13959 4.83838 63 127 115
0.537803 -1.13408 4.81542 169 251 228
0.909002 -1.13662 4.82512 150 198 180
0.929099 -1.13146 4.80174 152 221 178
0.996011 -1.13739 4.81756 169 232 200
-0.411493 -1.18346 5.03225 61 112 105
0.64262 -1.13414 4.83335 134 203 183
0.312832 -1.15054 4.90758 68 107 85
0.611998 -1.13193 4.83259 109 173 161
1.046 -1.11964 4.77608 57 107 83
-0.257898 -1.16959 5.00739 78 158 153
0.915688 -1.12635 4.82227 84 126 109
1.93751 -1.10576 4.72934 60 132 110
2.02362 -1.10109 4.71731 75 141 122
0.599776 -1.11497 4.81477 86 138 128
0.281891 -1.1368 4.91848 142 206 164
1.12669 -1.10327 4.7871 138 212 182
1.18351 -1.1013 4.77615 39 77 65
-0.300014 -1.15479 5.02593 65 125 124
1.16945 -1.09781 4.77795 157 232 194
1.19444 -1.09526 4.77899 102 167 142
1.87497 -1.07704 4.73139 67 126 112
0.426299 -1.09721 4.8366 122 178 167
0.157459 -1.11862 4.93543 163 248 210
0.551356 -1.09288 4.82618 70 117 95
1.01172 -1.08375 4.78558 110 168 143
0.252567 -1.11259 4.92994 53 120 93
0.540912 -1.08766 4.81533 129 179 155
0.188676 -1.11244 4.93877 76 160 126
0.575944 -1.08039 4.79726 180 241 213
0.4595 -1.08476 4.82546 158 218 188
1.05056 -1.07376 4.79629 139 206 179
-0.310728 -1.12283 5.01916 71 122 124
0.313926 -1.09448 4.90496 50 82 58
0.979893 -1.07126 4.81057 82 127 108
0.0641517 -1.10316 4.96742 57 139 116
1.1856 -1.05606 4.78144 50 82 65
-0.295129 -1.10321 5.01321 94 177 175
0.968991 -1.05436 4.80032 73 123 111
1.08664 -1.04695 4.77371 95 142 110
0.285236 -1.07715 4.92485 86 149 129
0.868847 -1.0579 4.83645 135 202 170
0.305856 -1.07194 4.91609 129 184 167
0.295633 -1.06344 4.93252 80 119 104
0.962363 -1.03209 4.79913 85 144 130
0.428932 -1.04144 4.8605 100 157 158
1.17892 -1.0329 4.80591 138 194 159
-0.283329 -1.0736 5.01649 91 177 177
0.571066 -1.0367 4.84503 84 150 109
0.323067 -1.04825 4.92955 126 177 163
0.322718 -1.04817 4.92129 122 173 159
0.988176 -1.0249 4.80712 54 91 65
-0.0212175 -1.05959 4.98155 83 154 134
0.607433 -1.03161 4.84164 46 101 68
0.285881 -1.04277 4.92784 79 135 112
1.01719 -1.01658 4.78608 126 162 126
0.422933 -1.03061 4.87511 108 175 160
0.982985 -1.008 4.79756 58 76 63
0.698769 -1.01347 4.84739 51 92 65
1.00299 -0.999883 4.79512 95 143 119
1.09424 -1.00114 4.80143 56 108 90
2.72646 -0.958451 4.60529 121 170 156
0.71828 -1.00084 4.82183 150 215 166
0.689032 -1.00343 4.84599 67 102 76
1.07205 -0.991568 4.80258 86 146 128
0.942037 -0.991034 4.80563 80 145 119
1.15899 -0.987366 4.8039 81 132 112
1.41662 -0.98366 4.7892 99 154 137
0.657513 -0.990688 4.84713 69 103 86
1.00214 -0.984588 4.80842 76 126 96
1.03863 -0.9741 4.80644 131 206 184
-1.94263 -1.06069 5.25701 140 189 167
1.12937 -0.965108 4.79265 87 150 140
0.986465 -0.965333 4.8067 151 214 182
2.68947 -0.927773 4.61235 87 146 138
-0.00501354 -0.993013 4.97722 72 151 130
0.979314 -0.956958 4.80435 98 143 126
1.25856 -0.953525 4.79734 81 135 122
-1.95972 -1.04229 5.25858 140 196 175
0.334364 -0.974359 4.92202 101 170 155
0.487985 -0.96728 4.88044 92 133 118
0.548052 -0.966052 4.88031 147 219 183
0.917634 -0.954396 4.81548 152 222 186
0.529519 -0.963126 4.88294 53 77 75
0.37117 -0.965899 4.92521 120 171 157
0.56853 -0.961042 4.88073 150 229 196
0.402053 -0.948632 4.91877 104 163 148
0.414173 -0.945992 4.90796 38 69 60
-2.15372 -1.01546 5.2959 77 107 78
1.0237 -0.923583 4.81049 133 204 184
-0.355498 -0.964697 5.03087 77 138 134
0.759209 -0.927674 4.84837 168 211 202
-2.31074 -1.01678 5.30706 74 156 134
0.991982 -0.926267 4.84387 73 96 91
-0.441169 -0.956012 5.03498 48 84 67
0.3338 -0.93648 4.92151 87 148 128
0.400972 -0.933449 4.90566 90 130 119
0.794338 -0.922295 4.84196 81 116 102
-2.55054 -1.0159 5.35285 98 181 156
-2.15053 -0.997519 5.30126 114 162 136
-2.14976 -0.997552 5.30566 102 135 108
0.444472 -0.923437 4.9015 72 127 112
0.790869 -0.912133 4.86159 163 227 198
1.90478 -0.887966 4.71856 85 141 130
-0.386049 -0.939684 5.02438 56 109 89
-0.149545 -0.934903 4.98654 98 169 149
0.405689 -0.921055 4.91261 122 199 162
1.15923 -0.89791 4.79887 71 124 121
1.03796 -0.89532 4.79669 76 119 104
0.112864 -0.922969 4.94037 97 161 131
0.82533 -0.901671 4.84223 83 129 117
1.0213 -0.893375 4.80008 170 226 207
-0.370194 -0.934342 5.03485 72 138 127
0.854185 -0.895741 4.83333 70 117 91
1.55642 -0.882763 4.76843 193 229 255
0.350989 -0.902276 4.9005 60 108 82
-0.168837 -0.917646 5.00139 104 171 156
1.22775 -0.877678 4.79365 83 129 116
-0.344256 -0.917302 5.02842 83 154 138
0.474714 -0.893352 4.89882 84 149 127
-2.02614 -0.957141 5.27306 117 169 151
-2.07817 -0.9579 5.28578 100 135 115
-2.37101 -0.958833 5.31369 146 219 203
-0.130616 -0.895901 5.00208 89 163 145
-0.223407 -0.894093 5.0082 89 174 159
0.365873 -0.877131 4.92299 53 107 78
0.551496 -0.862299 4.87552 146 218 188
-2.83623 -0.951869 5.40342 88 160 138
-2.2669 -0.938325 5.32413 131 183 159
-2.16235 -0.934432 5.29525 132 206 180
-2.10224 -0.934621 5.3047 120 169 141
-2.13526 -0.929799 5.31373 135 199 169
0.961851 -0.845835 4.8262 79 140 114
1.17999 -0.83879 4.79469 85 137 120
0.336049 -0.852167 4.92311 58 117 96
0.517137 -0.846005 4.89179 87 146 131
0.294254 -0.850006 4.93293 93 152 137
1.22835 -0.823569 4.78886 159 225 190
0.358262 -0.846017 4.91799 62 111 91
-0.39866 -0.862466 5.03989 74 136 124
1.21509 -0.812875 4.79211 152 231 198
-2.41646 -0.902041 5.32208 66 118 101
-2.01042 -0.894472 5.29341 146 191 182
-2.00928 -0.89448 5.29392 149 194 185
-2.80474 -0.904016 5.38881 49 123 97
-2.79026 -0.904848 5.39489 133 221 185
-2.30941 -0.890975 5.31953 110 144 127
-1.75993 -0.883818 5.2667 112 147 137
0.302318 -0.824312 4.93667 77 141 122
1.34376 -0.800504 4.79697 93 149 144
0.58884 -0.809608 4.86499 157 236 195
0.616278 -0.810634 4.88769 78 117 95
0.901447 -0.795742 4.81196 160 235 191
1.06006 -0.794471 4.80792 60 98 80
-1.86362 -0.867388 5.27077 120 156 144
-1.78664 -0.864571 5.26827 114 167 153
0.432291 -0.807642 4.90902 76 148 126
1.01043 -0.792359 4.81589 92 140 112
1.19776 -0.7881 4.78786 49 83 76
1.25234 -0.784828 4.79311 166 227 213
-0.139857 -0.814656 4.99785 69 153 124
1.05978 -0.784819 4.80551 135 196 168
0.863607 -0.783763 4.83106 171 247 206
-0.169372 -0.809536 5.00253 95 180 152
0.82409 -0.780174 4.83678 152 219 187
0.854636 -0.779824 4.82409 86 139 112
1.06283 -0.769629 4.79146 84 130 107
1.03587 -0.769502 4.81043 55 107 90
1.16861 -0.769289 4.79867 124 177 150
1.22702 -0.769797 4.79667 69 136 121
1.06737 -0.768773 4.80943 64 111 89
-0.131646 -0.793165 4.99688 73 156 117
1.16653 -0.761255 4.79202 63 124 96
1.54404 -0.753401 4.76696 105 161 148
1.26141 -0.758127 4.79853 82 140 129
1.26782 -0.760302 4.80011 66 135 122
1.36853 -0.75634 4.78757 97 161 149
0.225915 -0.774239 4.93203 77 154 126
0.57499 -0.769311 4.88999 69 135 100
0.815841 -0.759922 4.84322 81 128 106
-0.491447 -0.792223 5.06206 72 142 125
0.16781 -0.771851 4.92822 173 234 208
0.763629 -0.761749 4.86129 133 221 181
1.03464 -0.753749 4.81329 154 214 190
1.36256 -0.744494 4.78288 86 155 142
-1.73773 -0.817793 5.26172 128 193 178
0.775923 -0.753456 4.85935 86 151 126
1.12504 -0.743595 4.79658 71 107 83
-2.05509 -0.818475 5.28597 102 144 126
-0.422229 -0.781069 5.04775 100 173 157
1.26075 -0.742817 4.8038 79 161 143
1.57272 -0.735542 4.76456 86 142 131
1.10849 -0.739291 4.80502 28 65 39
0.477288 -0.751587 4.90076 138 200 188
2.07627 -0.720818 4.70728 80 142 130
-1.84926 -0.807342 5.27739 147 209 191
-0.551843 -0.766033 5.05796 89 157 132
0.241453 -0.74533 4.94556 74 131 98
0.814402 -0.732795 4.84145 55 103 77
-1.87545 -0.797037 5.28724 131 192 172
-1.7493 -0.793146 5.25896 132 199 184
0.697021 -0.733229 4.87209 87 176 143
0.155024 -0.743846 4.95799 148 198 174
0.0269699 -0.74373 4.98173 153 227 203
0.120973 -0.737401 4.95232 91 157 128
1.24516 -0.715301 4.80083 91 156 141
-3.23899 -0.809863 5.46339 104 153 145
-0.342209 -0.74696 5.04026 98 170 148
0.123784 -0.737006 4.95999 87 159 129
1.04696 -0.714347 4.81834 75 124 110
0.179157 -0.729673 4.92774 171 237 196
0.956531 -0.709786 4.82561 98 143 126
0.0644266 -0.726338 4.96904 66 126 102
0.405818 -0.717626 4.91771 68 127 112
0.553979 -0.712785 4.89356 144 224 207
1.16011 -0.700852 4.81857 85 132 124
1.08938 -0.700897 4.81739 86 138 121
1.42949 -0.696332 4.78516 87 149 143
-0.101048 -0.71849 4.98567 69 118 86
-0.050066 -0.721994 4.98729 88 143 110
0.127114 -0.716237 4.96391 79 146 114
1.06665 -0.695703 4.81826 94 156 142
0.811646 -0.691137 4.83587 71 103 78
0.813814 -0.690176 4.85087 80 120 95
1.10029 -0.683529 4.81398 60 109 101
-0.53216 -0.717323 5.06842 83 143 132
1.5923 -0.673201 4.76635 149 206 198
-0.41735 -0.709733 5.05849 91 156 140
-0.0476845 -0.703099 4.99554 83 152 115
0.46372 -0.690712 4.9031 64 129 103
1.13476 -0.67902 4.82609 107 165 160
-2.39869 -0.748684 5.34291 148 207 187
-1.94642 -0.740945 5.29605 123 159 143
0.641598 -0.681717 4.88829 89 137 119
0.677818 -0.678306 4.88378 55 96 75
0.956914 -0.672854 4.82545 76 147 127
-2.14622 -0.736911 5.32098 112 147 120
-2.36561 -0.734008 5.3198 98 153 138
0.1671 -0.683035 4.95506 138 203 178
0.679638 -0.677252 4.89973 71 117 95
0.735904 -0.670971 4.86749 48 105 74
1.08741 -0.662995 4.81242 85 148 132
-0.281487 -0.689195 5.03306 80 161 142
-0.130562 -0.683327 4.99297 54 122 81
0.725394 -0.666032 4.86759 140 210 170
0.313435 -0.66985 4.93573 61 112 98
0.493505 -0.656974 4.90547 68 134 122
-2.34947 -0.70628 5.34477 90 144 114
0.513741 -0.648992 4.89452 118 180 166
-1.85073 -0.69474 5.28236 66 93 77
0.678969 -0.639115 4.8768 87 140 120
0.719748 -0.634315 4.86749 75 145 115
0.720767 -0.634415 4.86636 79 146 117
-0.541582 -0.656827 5.08631 78 145 124
2.13944 -0.607931 4.69927 62 105 92
-0.0552956 -0.631135 4.99461 142 237 192
-0.00615855 -0.625742 4.96683 131 246 227
0.111901 -0.625598 4.95826 78 135 110
-0.516912 -0.635418 5.07537 82 164 145
0.739067 -0.611 4.87558 64 135 115
0.148638 -0.614677 4.93957 94 157 131
0.274978 -0.615001 4.93755 103 174 131
1.66658 -0.592201 4.76158 99 157 146
2.26505 -0.584164 4.69974 95 166 156
-1.82481 -0.658085 5.29026 141 190 174
0.233157 -0.611748 4.93629 55 116 88
0.755693 -0.60093 4.87182 96 152 141
1.06545 -0.591173 4.81982 91 145 132
-1.71894 -0.643743 5.2815 129 183 166
-0.0742355 -0.606698 5.00321 55 129 99
-1.97422 -0.642469 5.31097 57 83 67
-1.85763 -0.638988 5.29645 141 193 170
-0.120822 -0.602887 5.01646 70 148 125
-2.21098 -0.629068 5.32262 48 88 77
-2.14191 -0.630766 5.33046 137 190 180
0.347945 -0.582568 4.93345 75 140 119
-0.348874 -0.591284 5.04136 105 186 161
0.248863 -0.57648 4.9362 66 113 87
2.66374 -0.538453 4.62049 182 237 222
-1.99026 -0.617972 5.31941 59 89 64
-2.33864 -0.61796 5.34392 166 222 209
-2.15123 -0.613079 5.31926 63 89 75
0.598832 -0.565101 4.91114 102 162 151
0.287472 -0.564218 4.93654 124 209 171
0.325589 -0.563452 4.93703 75 146 119
-2.28281 -0.604645 5.34214 114 167 140
0.207357 -0.558722 4.95941 82 132 114
0.286989 -0.555659 4.93644 70 136 107
-1.63215 -0.58546 5.27554 124 171 162
-0.0582763 -0.554448 4.99401 77 150 112
0.361345 -0.549388 4.93149 62 137 116
0.365605 -0.540846 4.94042 139 218 191
-2.44267 -0.579115 5.38185 63 99 85
-2.33219 -0.573748 5.34347 113 168 141
0.28221 -0.531853 4.96159 81 125 94
-1.55704 -0.560344 5.26028 164 201 209
-2.42187 -0.568774 5.37738 150 203 193
1.69855 -0.49754 4.77266 79 142 133
1.23193 -0.500032 4.82699 83 153 146
-2.17198 -0.546399 5.32565 119 190 173
0.931468 -0.500154 4.86053 57 119 97
1.66555 -0.490182 4.77152 60 120 110
-0.886962 -0.522361 5.13253 96 145 137
0.32092 -0.501838 4.94443 63 138 117
-0.88172 -0.512151 5.13064 172 220 222
0.915998 -0.48359 4.86983 89 154 132
0.952454 -0.485674 4.85251 89 158 131
-2.26847 -0.527625 5.33903 127 197 180
-0.0242549 -0.488704 4.99614 137 224 191
0.243182 -0.481695 4.97011 90 145 128
-1.66925 -0.508282 5.2809 130 186 173
0.0238416 -0.477862 4.9755 64 132 97
1.47698 -0.45969 4.78622 87 155 144
1.51969 -0.459709 4.78133 64 148 124
-0.115218 -0.480361 5.02252 167 220 206
-0.0989771 -0.480529 5.0098 77 132 113
0.0052165 -0.477633 5.00631 64 141 107
-0.0862492 -0.47721 5.01278 66 106 88
0.374469 -0.468204 4.94145 76 138 116
0.88217 -0.46179 4.88327 63 119 100
1.1617 -0.453662 4.84067 88 166 155
1.60717 -0.441132 4.77999 89 146 137
0.0281952 -0.455767 4.98482 70 108 78
0.178537 -0.454238 4.96724 175 234 214
0.820682 -0.446832 4.88443 91 163 150
-2.55868 -0.489728 5.41183 158 246 222
-2.35104 -0.484332 5.37001 114 162 134
0.0276702 -0.453208 5.0082 61 110 82
0.342375 -0.443675 4.93168 72 124 101
-2.50908 -0.484863 5.41528 93 159 124
0.167441 -0.446707 4.97513 95 147 137
-1.57488 -0.471206 5.28994 66 89 81
1.49031 -0.424401 4.78539 48 90 79
-1.87301 -0.470799 5.31675 145 207 189
0.239101 -0.438314 4.96784 80 138 127
-2.15644 -0.468188 5.35892 135 197 181
-1.81097 -0.465893 5.30536 122 174 157
0.0581216 -0.429344 4.98575 40 109 82
0.0106175 -0.429275 5.00833 116 208 179
0.13418 -0.426604 4.96285 79 132 105
0.77222 -0.418252 4.89698 87 158 142
1.73947 -0.409879 4.76986 103 163 153
0.16439 -0.420276 4.95943 64 106 95
0.535993 -0.418782 4.93184 90 165 149
0.163299 -0.419894 4.96257 82 132 122
-2.80482 -0.458203 5.46926 100 176 152
-1.39082 -0.429657 5.23438 84 126 115
-0.0922474 -0.41179 5.01999 97 162 141
-2.48878 -0.4401 5.40532 64 134 104
0.0238232 -0.405571 5.00728 96 152 131
0.494958 -0.400229 4.92509 84 152 127
0.5172 -0.400482 4.9341 74 142 125
-2.43799 -0.435607 5.40959 88 140 116
-0.440841 -0.408399 5.07502 70 149 128
0.0822416 -0.39842 4.97685 60 107 81
0.225158 -0.400014 4.96635 86 138 128
-1.5733 -0.424433 5.31831 134 194 183
0.239116 -0.394915 4.95797 158 230 207
2.251 -0.375246 4.70151 86 146 135
0.832665 -0.385524 4.88988 87 153 141
1.71862 -0.375009 4.76692 78 153 139
-1.95425 -0.41708 5.33413 142 201 186
-2.39502 -0.422187 5.4016 77 125 107
-0.489302 -0.398316 5.09042 152 227 195
0.236606 -0.386802 4.96795 88 167 134
0.518575 -0.383907 4.93653 60 131 121
2.28794 -0.366469 4.69917 75 129 122
-2.06507 -0.41641 5.36145 83 107 89
-1.3747 -0.399355 5.21035 67 88 79
-0.451459 -0.391246 5.08908 73 139 120
-2.17043 -0.410649 5.36272 77 113 97
1.0615 -0.366301 4.84887 61 137 103
-1.81542 -0.399514 5.32645 61 97 73
-1.54513 -0.396558 5.27773 119 193 181
-0.539369 -0.382472 5.10914 111 164 154
1.18055 -0.361169 4.84704 122 175 172
1.0682 -0.357075 4.84285 140 224 190
-2.42358 -0.392349 5.41254 63 126 100
-1.63393 -0.374983 5.29606 138 195 180
0.237404 -0.354159 4.973 92 152 141
0.16539 -0.348243 4.98286 52 106 93
1.07229 -0.339208 4.86425 59 121 105
0.892189 -0.331729 4.89254 94 151 136
1.03199 -0.332369 4.86315 144 215 189
-2.34248 -0.365981 5.38875 146 226 197
-1.37819 -0.358398 5.24428 105 164 160
0.180809 -0.338108 4.96323 134 239 226
0.103655 -0.335605 5.00185 80 142 118
-2.83251 -0.353551 5.48265 101 157 136
-2.17519 -0.349449 5.36775 77 130 117
-1.36944 -0.337598 5.24975 79 138 130
1.00454 -0.306079 4.8741 71 123 105
-2.75575 -0.342169 5.4698 179 255 230
-2.47263 -0.339857 5.43758 73 133 115
0.193102 -0.31177 4.98448 73 141 118
-2.397 -0.328346 5.4099 76 147 127
-0.457135 -0.310921 5.09604 78 149 133
-2.61516 -0.332432 5.46749 83 155 133
-1.02747 -0.313971 5.19522 102 165 155
0.125178 -0.30345 4.99649 148 216 191
1.28121 -0.293573 4.84152 94 159 150
0.919986 -0.284775 4.88398 61 113 103
1.46463 -0.274298 4.82238 77 144 141
0.178314 -0.279784 4.98483 175 244 217
-1.65588 -0.29504 5.30192 89 139 129
0.604891 -0.269093 4.9342 101 170 155
0.922311 -0.265325 4.88991 88 142 125
0.978512 -0.257044 4.87932 162 241 222
-2.82992 -0.277702 5.49975 102 167 135
-0.257981 -0.254336 5.0777 102 165 155
-1.22165 -0.25514 5.23892 102 174 151
0.816924 -0.238377 4.92234 111 170 162
-2.61046 -0.258887 5.46804 90 165 143
-0.44625 -0.237188 5.10193 82 156 128
-0.170735 -0.236333 5.06776 88 152 146
1.3636 -0.222777 4.83622 61 117 98
-2.14451 -0.241418 5.41329 142 194 177
0.781502 -0.220425 4.91266 95 158 148
1.64464 -0.213666 4.78565 138 222 204
-0.451615 -0.22401 5.11521 73 148 127
0.151278 -0.220985 4.99958 82 158 140
-0.42811 -0.220469 5.11117 92 173 146
1.00127 -0.211802 4.87803 85 146 136
-2.61901 -0.229379 5.47244 68 139 112
-3.38997 -0.227765 5.57046 102 192 169
0.416743 -0.201532 4.96959 87 149 137
-0.437034 -0.205031 5.11622 68 155 122
-2.13451 -0.212624 5.40457 154 219 204
-0.467559 -0.202555 5.1186 86 156 139
1.46104 -0.188848 4.82752 73 132 118
0.152777 -0.188478 4.99296 188 255 234
-2.87154 -0.208149 5.50769 50 119 92
-0.507708 -0.179629 5.12011 71 132 104
0.530791 -0.171589 4.95801 92 160 149
1.07929 -0.165224 4.88319 82 147 138
1.50662 -0.151804 4.81657 98 155 147
1.77734 -0.153362 4.80606 98 154 133
0.673522 -0.143875 4.94829 71 125 108
-2.76703 -0.159289 5.50926 109 186 148
-1.02707 -0.151646 5.22295 122 184 195
0.844707 -0.138368 4.92303 117 176 172
1.30897 -0.134402 4.85491 110 169 161
1.48423 -0.129346 4.82583 59 111 104
1.18635 -0.123221 4.86182 96 153 144
0.889343 -0.123188 4.91691 89 152 142
-0.619848 -0.122766 5.15717 219 253 247
2.00206 -0.113142 4.78133 66 124 119
2.08187 -0.105334 4.75856 63 136 128
1.20121 -0.107601 4.85783 181 235 228
-0.558919 -0.108868 5.15023 239 255 254
-2.51797 -0.103235 5.4842 105 151 129
-2.51683 -0.103234 5.48431 97 143 124
0.625039 -0.0934783 4.95712 84 144 136
1.20488 -0.0925864 4.87622 47 99 89
1.10173 -0.0833317 4.87135 84 134 116
1.27352 -0.08779 4.86838 79 146 131
2.06607 -0.0770173 4.77021 74 136 120
-0.283287 -0.0778947 5.11109 191 233 226
0.678166 -0.0782274 4.93327 63 130 115
-2.53579 -0.0797658 5.49341 96 155 127
1.79479 -0.0683958 4.79416 96 156 148
0.587017 -0.0622699 4.94864 114 171 156
1.07277 -0.0566907 4.8942 66 123 108
-2.54898 -0.0613541 5.4961 91 156 124
0.820669 -0.0518116 4.9291 79 142 133
0.773276 -0.0521694 4.95053 91 150 142
-2.64304 -0.0496345 5.49632 79 155 114
2.51915 -0.0394618 4.68585 111 169 168
1.11261 -0.0404736 4.89562 74 148 118
-0.655718 -0.0406652 5.18604 84 158 132
-0.0451414 -0.0390756 5.08267 94 157 147
0.663477 -0.039125 4.965 81 141 130
0.787805 -0.0310183 4.93503 161 231 208
-0.426893 -0.0267255 5.15718 80 139 124
1.24869 -0.0276594 4.87027 91 145 138
1.11846 -0.0241826 4.8942 67 138 121
0.760373 -0.0201088 4.94729 168 237 224
0.794316 -0.0182785 4.93568 78 128 126
1.00042 -0.0149273 4.92487 62 128 116
-0.405346 -0.0115037 5.13963 74 138 119
1.23779 -0.0109319 4.87548 74 136 130
0.526897 -0.0029147 4.99117 90 153 137
0.940158 0.00203375 4.92986 80 143 123
1.79787 0.002905 4.81552 70 130 129
-2.51235 0.0114535 5.50515 93 166 164
-0.594203 0.0165602 5.17835 92 168 144
1.17472 0.0246785 4.88712 71 136 114
1.70593 0.024329 4.82718 60 119 111
-0.517051 0.0297057 5.16395 99 168 147
0.865099 0.0272349 4.93978 74 118 111
1.89241 0.0264307 4.80553 85 158 142
1.6649 0.0282538 4.82793 90 139 141
-2.51741 0.0490421 5.49844 111 165 130
-2.51744 0.0500049 5.50367 122 172 142
0.627322 0.049285 4.96887 92 148 135
1.12128 0.0458878 4.90413 90 150 132
-0.657064 0.0578807 5.19762 103 170 155
2.12519 0.0521077 4.77492 66 121 112
1.66474 0.0565197 4.8204 98 160 146
2.74642 0.0583683 4.66873 82 129 121
0.560453 0.0707557 4.98871 86 149 133
0.27048 0.0756443 5.04891 102 162 151
1.6676 0.0780022 4.82747 75 141 122
-0.854881 0.0938361 5.24961 197 230 223
-0.19303 0.096346 5.13345 93 144 117
2.75442 0.0862186 4.66323 67 101 90
-0.724536 0.114576 5.21556 181 228 226
2.08221 0.104603 4.78813 82 146 127
-0.725913 0.11696 5.22673 189 230 232
1.19393 0.118986 4.90132 100 154 131
1.74012 0.117279 4.83393 84 153 150
1.28395 0.120584 4.89915 92 156 134
1.21489 0.124543 4.89398 83 142 122
1.26797 0.128234 4.89767 106 167 153
0.479834 0.141987 5.0127 107 167 156
1.08562 0.138038 4.91468 91 151 133
1.19429 0.140185 4.9062 75 134 120
1.52155 0.150922 4.84539 73 114 99
1.5996 0.150529 4.8544 86 156 143
2.74253 0.145401 4.6694 58 71 63
1.53092 0.157219 4.87196 73 108 94
0.931456 0.173016 4.95606 85 153 136
1.76222 0.168551 4.81508 45 99 86
2.93743 0.160176 4.63236 85 126 118
1.3259 0.175982 4.88253 177 230 221
1.45415 0.174882 4.87118 69 131 117
1.52668 0.178401 4.86316 75 132 117
1.35331 0.183226 4.88226 157 216 202
0.882165 0.201584 4.96006 108 171 155
0.880274 0.198477 4.94725 96 159 143
1.31764 0.199909 4.88398 174 248 214
1.78639 0.197802 4.83203 78 136 125
1.20361 0.201743 4.91312 86 139 119
1.2907 0.204006 4.89175 119 175 162
2.80309 0.199275 4.62605 87 118 111
2.02973 0.227462 4.81487 63 135 135
1.29501 0.238427 4.8959 91 132 124
2.75949 0.229245 4.64987 154 198 169
1.70249 0.246183 4.84799 172 228 223
0.369468 0.262423 5.05872 95 157 141
1.19581 0.252337 4.91198 165 234 207
-1.02551 0.274552 5.31636 111 189 178
0.640557 0.272954 5.01334 74 133 118
1.25652 0.284208 4.91629 171 243 223
2.23793 0.286314 4.79741 79 128 112
2.83468 0.273273 4.60454 76 106 95
1.2786 0.309107 4.92604 77 133 112
1.36855 0.309757 4.90908 72 122 112
1.84543 0.304829 4.83616 90 152 140
2.22531 0.313709 4.79805 65 102 92
2.82125 0.304045 4.60845 127 165 137
0.502925 0.347536 5.05257 103 171 154
1.20483 0.343984 4.93989 154 221 192
1.2175 0.344044 4.93849 82 134 111
0.869204 0.351623 4.99267 68 124 113
0.917475 0.390644 4.9992 102 173 153
0.307619 0.40387 5.09558 89 161 149
0.673207 0.401198 5.04438 90 150 142
