ply
format ascii 1.0
element vertex 1227
property float x
property float y
property float z
property uchar blue
property uchar green
property uchar red
end_header
-0.810587 -0.191443 3.86525 100 152 145
-0.655372 -0.192752 3.89088 168 219 212
-1.70037 -0.188351 3.81669 108 154 148
-1.51694 -0.188782 3.83414 72 79 76
-0.799144 -0.190613 3.87521 164 218 205
-0.694221 -0.191946 3.88557 111 175 163
0.957345 -0.197393 3.98948 90 144 144
-1.90377 -0.186097 3.79961 167 199 188
-0.686913 -0.189249 3.88593 112 165 152
-0.371513 -0.191279 3.89551 182 238 227
-1.51089 -0.187364 3.83948 183 229 217
-1.14121 -0.187172 3.8499 165 228 212
-0.969057 -0.187913 3.8561 128 171 162
-0.876757 -0.188521 3.86942 150 204 187
-0.158612 -0.189892 3.89854 168 228 217
0.156164 -0.189979 3.91786 127 167 162
1.13342 -0.194216 3.99424 95 147 137
-1.24538 -0.184991 3.84508 62 71 68
-0.847792 -0.186866 3.86812 160 216 197
-0.795012 -0.188099 3.87192 95 150 135
-0.781935 -0.187117 3.87591 99 152 139
-0.693072 -0.187286 3.88557 168 224 213
-0.653493 -0.188122 3.87925 110 161 153
0.0377985 -0.189173 3.92577 105 125 136
-1.27514 -0.184112 3.84694 104 150 137
-1.22039 -0.185519 3.85293 100 148 142
-0.977092 -0.185213 3.85546 121 167 161
-0.817772 -0.185663 3.87003 101 149 143
-0.534778 -0.187144 3.88839 170 222 212
-0.302022 -0.187858 3.90354 99 136 128
0.0337271 -0.188308 3.91741 180 206 218
0.0476033 -0.187663 3.91184 162 188 188
0.317631 -0.189241 3.94361 112 167 172
-1.35128 -0.182335 3.83556 106 118 120
-0.777682 -0.18441 3.87764 85 144 136
-0.376664 -0.18607 3.8986 74 123 121
-0.0558708 -0.187092 3.92067 79 120 115
1.35112 -0.191053 3.99272 106 158 141
-1.72152 -0.179716 3.8143 101 128 125
-0.886614 -0.183894 3.86353 39 84 75
-0.870029 -0.182656 3.86561 136 186 174
-0.565955 -0.184603 3.88748 121 164 161
-0.281048 -0.184214 3.90895 155 206 202
-0.194007 -0.184805 3.90956 206 238 233
-0.155176 -0.184877 3.9093 98 149 141
-0.14722 -0.184272 3.9105 71 129 118
0.04757 -0.184813 3.92557 100 131 134
-1.83605 -0.178152 3.80474 67 128 108
-1.56454 -0.179304 3.82508 119 160 153
-0.755493 -0.182958 3.87942 166 223 214
-0.423324 -0.182243 3.90207 194 241 239
0.591439 -0.184998 3.95728 187 234 232
1.61051 -0.188206 4.0187 107 156 128
-2.25021 -0.177185 3.80077 110 149 151
-1.82014 -0.177041 3.80352 48 112 83
-0.36935 -0.180813 3.89406 179 221 210
0.568434 -0.18406 3.95886 142 186 185
-1.92216 -0.175615 3.79174 71 91 86
-0.52762 -0.181332 3.89051 73 122 114
0.254977 -0.18224 3.93246 97 148 150
0.784645 -0.184714 3.97825 143 191 193
-1.83212 -0.174602 3.80463 139 206 177
-1.44311 -0.176117 3.83098 115 140 142
-1.29346 -0.177359 3.84771 186 221 217
-0.155048 -0.17972 3.9096 185 237 230
0.446393 -0.182385 3.94522 88 140 140
0.941058 -0.182502 3.98222 139 190 186
1.70032 -0.185578 4.01785 151 201 189
-1.93122 -0.172269 3.78794 91 112 109
-1.58709 -0.174425 3.82026 104 125 126
-0.748991 -0.177581 3.8804 103 163 153
-0.511203 -0.177571 3.89543 167 223 218
-0.753044 -0.175613 3.87845 173 227 220
-0.554037 -0.175728 3.88683 83 131 125
-0.42709 -0.176436 3.89542 134 189 186
0.519801 -0.179564 3.95195 114 152 164
0.520239 -0.179157 3.9539 114 152 164
-1.51108 -0.172517 3.83974 74 99 101
-1.35144 -0.172497 3.8402 93 121 121
-1.32859 -0.173247 3.84933 174 199 195
-0.778847 -0.174786 3.88211 95 156 146
-0.00619186 -0.176686 3.92407 185 224 233
0.051832 -0.17669 3.92436 166 196 191
0.578283 -0.178039 3.95688 169 218 220
1.25589 -0.178788 3.98707 120 196 178
-1.33573 -0.171556 3.84439 173 208 194
-0.341084 -0.175329 3.89957 114 166 156
0.0335395 -0.17535 3.92087 193 230 220
0.0574951 -0.175588 3.92403 195 226 219
-0.80944 -0.171914 3.87321 103 147 140
-0.785839 -0.172482 3.87912 92 142 138
-0.362093 -0.172482 3.89484 154 198 192
0.451066 -0.174877 3.95115 126 180 181
1.3242 -0.176487 3.98314 89 180 147
-0.928659 -0.170634 3.86057 93 129 123
-0.773339 -0.170163 3.88168 179 226 223
-0.745778 -0.171334 3.88082 178 235 226
-0.629081 -0.171335 3.88968 102 158 153
0.0680821 -0.172121 3.923 116 154 154
0.0771776 -0.172073 3.92501 131 166 169
0.102782 -0.173063 3.91991 117 158 160
1.10664 -0.175215 3.9944 185 235 225
1.13218 -0.17572 3.99842 87 143 132
-2.18018 -0.166876 3.803 177 211 200
-0.853401 -0.169577 3.8704 135 180 171
-0.39454 -0.170148 3.89433 190 230 225
-0.0836397 -0.170789 3.91857 106 166 155
0.0382896 -0.171657 3.91805 185 216 215
0.0769724 -0.172475 3.9231 133 168 171
0.681413 -0.171888 3.94385 191 222 231
0.78073 -0.172976 3.97708 197 235 237
-1.24128 -0.167774 3.85507 174 233 218
-0.229479 -0.169409 3.91251 82 142 134
-0.218496 -0.170409 3.91045 118 176 165
0.396147 -0.170946 3.93491 98 143 147
0.449533 -0.17217 3.94987 113 157 158
1.56749 -0.174419 4.01558 99 146 120
0.0292814 -0.169489 3.92582 167 212 215
-1.34175 -0.164369 3.84635 72 106 99
-0.923723 -0.164375 3.86201 175 222 213
-0.847216 -0.166112 3.87288 66 106 95
-0.801339 -0.164297 3.87729 162 211 203
-1.75084 -0.162388 3.82004 103 142 144
-1.57674 -0.162428 3.81983 109 131 129
-0.127905 -0.165885 3.91707 132 186 181
-0.00947398 -0.167102 3.92603 183 234 226
0.0414122 -0.166229 3.91527 86 128 127
-0.520938 -0.163907 3.89833 160 212 205
-0.0136109 -0.165197 3.92639 150 193 184
-1.67044 -0.159566 3.82716 119 156 148
0.9498 -0.166806 3.99601 204 229 231
-2.23486 -0.15755 3.80616 118 165 156
-1.90442 -0.157199 3.80254 148 164 157
-0.362137 -0.160859 3.89953 102 142 140
0.588035 -0.164184 3.9591 108 156 150
0.75678 -0.165061 3.97003 111 162 165
0.768096 -0.165153 3.97589 93 133 138
-2.14724 -0.156303 3.80592 169 215 203
-1.20523 -0.158868 3.8611 128 173 164
-0.918332 -0.158757 3.86472 177 227 217
-0.682422 -0.159984 3.89499 107 162 153
-0.0640766 -0.160906 3.91494 106 140 140
-2.27446 -0.154791 3.80553 108 175 168
-0.756461 -0.157986 3.88082 84 137 128
-0.701877 -0.158324 3.89139 82 141 133
-0.3496 -0.159047 3.90396 91 140 138
0.0282629 -0.159228 3.92288 116 177 167
0.753142 -0.162024 3.97882 161 199 204
-1.73689 -0.154913 3.81887 97 124 121
-1.49293 -0.155664 3.84665 178 229 222
-0.197441 -0.157362 3.909 181 228 225
0.0821565 -0.158135 3.92898 124 166 165
0.444487 -0.15899 3.94461 176 229 226
0.697433 -0.159773 3.94064 157 216 195
1.13171 -0.161595 4.00345 164 233 220
1.13607 -0.162976 4.00142 106 175 164
-0.622671 -0.155888 3.88935 116 167 160
-0.131503 -0.157072 3.91889 99 139 138
-1.81547 -0.151949 3.81809 172 227 212
-0.0932923 -0.155617 3.91798 187 224 220
-2.32789 -0.150804 3.80507 88 132 126
-1.31683 -0.151635 3.85012 113 154 149
-0.628887 -0.153041 3.893 191 228 220
-0.55167 -0.153145 3.88909 122 153 152
0.613408 -0.155571 3.9641 117 167 157
0.621626 -0.155717 3.96554 108 140 135
0.926011 -0.156746 3.98023 143 212 201
-2.29431 -0.149942 3.81193 101 156 147
-2.11558 -0.149825 3.8105 96 152 141
-1.32641 -0.151139 3.8595 186 229 220
-0.17004 -0.152807 3.91663 110 164 164
0.125732 -0.15355 3.92841 131 170 162
0.20127 -0.154482 3.92281 119 149 144
1.69676 -0.157023 4.02893 90 119 86
-1.83106 -0.147796 3.81723 85 120 116
-1.44575 -0.149622 3.84623 178 219 214
-1.2039 -0.149464 3.86341 99 139 128
-0.326275 -0.150724 3.90635 112 156 157
-0.30849 -0.151064 3.91408 96 147 143
0.00122101 -0.152456 3.92679 190 236 230
-2.19649 -0.146239 3.80979 80 114 103
-1.81974 -0.146116 3.81714 187 229 222
-1.78671 -0.146461 3.82418 174 226 216
-1.64085 -0.146856 3.82592 132 172 170
-1.59085 -0.14743 3.82802 119 150 141
-0.951429 -0.148731 3.86636 108 157 155
-0.755189 -0.149927 3.88154 83 126 117
0.47759 -0.152284 3.95822 168 226 225
-1.76731 -0.145119 3.82419 171 212 205
-1.21941 -0.14701 3.8631 164 217 207
-0.96276 -0.146095 3.86956 140 193 184
-0.786097 -0.147409 3.88024 160 205 202
-0.502918 -0.148787 3.90064 172 229 220
-0.165709 -0.149073 3.91616 199 241 248
-0.139853 -0.149362 3.91456 84 134 130
0.0668033 -0.14994 3.9257 196 233 231
0.619802 -0.151403 3.96256 182 213 212
-1.24395 -0.145553 3.86649 164 215 207
-1.20011 -0.146296 3.86228 79 116 108
-0.453679 -0.147472 3.90526 187 230 233
-0.00104421 -0.149049 3.93144 92 141 133
1.22369 -0.15074 3.98225 166 226 215
-1.76343 -0.143226 3.82468 100 140 138
-0.799769 -0.145515 3.87654 91 161 148
-0.646576 -0.145971 3.89562 97 135 135
0.434056 -0.147979 3.94919 49 104 101
-1.66362 -0.141811 3.83127 88 113 115
-0.271609 -0.145076 3.91422 97 149 149
0.0678016 -0.145807 3.92342 114 152 154
0.684537 -0.145772 3.93491 201 246 230
-0.627061 -0.14299 3.89181 171 222 214
-0.0813515 -0.144572 3.91879 105 156 149
0.170606 -0.144028 3.92945 107 131 131
0.254399 -0.145421 3.94231 123 172 174
-0.0780348 -0.142451 3.9203 160 208 209
0.370989 -0.144111 3.95438 174 222 216
0.489913 -0.144435 3.94876 201 243 236
0.752075 -0.145195 3.98238 162 198 204
0.95038 -0.145692 3.99403 84 150 145
1.65059 -0.147152 4.01729 113 134 112
-1.52308 -0.139279 3.85065 101 154 145
-1.16958 -0.139709 3.86191 85 135 133
-1.15728 -0.139178 3.85239 119 167 161
-0.705889 -0.139844 3.89754 179 225 226
-0.50454 -0.141036 3.90666 98 142 143
-1.23894 -0.137931 3.85906 161 200 185
0.389368 -0.142266 3.94615 111 158 155
0.610816 -0.141461 3.96125 143 180 176
1.03581 -0.142414 4.00375 94 149 146
-1.74877 -0.136365 3.82658 101 139 133
-1.66638 -0.135463 3.83286 111 150 148
-0.806463 -0.136624 3.87917 78 146 135
0.0145317 -0.139723 3.9294 197 238 233
-2.1633 -0.133709 3.81146 122 147 149
-1.28168 -0.136636 3.87 113 144 141
-0.107363 -0.137609 3.92465 140 179 177
0.148053 -0.137236 3.93276 185 218 211
-1.23739 -0.134078 3.8575 68 102 91
-1.05495 -0.134148 3.8703 173 221 215
-0.749453 -0.135776 3.88924 66 119 105
-0.359553 -0.136253 3.90769 185 229 222
0.165888 -0.135997 3.93226 99 153 146
0.373977 -0.137537 3.95111 97 146 138
0.611245 -0.137768 3.96043 196 231 227
0.910636 -0.138322 3.99138 131 171 183
-1.62577 -0.131646 3.83969 97 118 119
-1.56396 -0.132144 3.84005 79 100 98
-0.265328 -0.134562 3.91545 194 233 218
-0.191072 -0.134359 3.92216 185 237 230
-0.172534 -0.134935 3.92276 170 234 229
-0.0166588 -0.134704 3.9236 100 142 141
0.647179 -0.136358 3.97066 122 157 160
1.58551 -0.138936 4.02234 63 117 94
2.19362 -0.139645 4.06782 104 149 133
-1.46242 -0.132472 3.85715 114 152 154
-1.2298 -0.132325 3.8673 159 208 200
-1.17519 -0.131491 3.86533 100 158 147
-0.817431 -0.132545 3.88409 91 155 150
0.228221 -0.134364 3.94235 170 221 214
-2.33148 -0.12862 3.81001 57 91 85
-1.13176 -0.130608 3.86627 93 146 136
-1.08997 -0.129899 3.86761 79 138 124
-0.766884 -0.130977 3.88864 175 219 206
-0.501718 -0.132285 3.91292 179 220 235
0.142478 -0.132097 3.93178 88 126 120
2.18129 -0.137162 4.06215 160 223 191
-0.174973 -0.131337 3.91984 102 159 160
0.39383 -0.130875 3.9442 103 138 142
-1.03567 -0.128134 3.87965 111 163 153
-0.788237 -0.128607 3.88764 89 141 141
-0.253477 -0.129501 3.91623 139 210 190
-0.00730789 -0.130116 3.92351 179 221 214
0.0215047 -0.131002 3.94018 92 137 140
-0.548499 -0.128235 3.89957 116 173 165
0.217027 -0.128393 3.9414 96 134 139
-0.473633 -0.126528 3.90432 129 167 172
0.0684923 -0.12804 3.93188 138 184 185
-2.16003 -0.122228 3.81189 113 158 149
-1.31156 -0.124638 3.86007 107 141 131
-1.1696 -0.124904 3.86416 75 137 125
-1.08728 -0.124845 3.87348 97 162 147
-0.765555 -0.123744 3.89044 153 209 198
-0.606903 -0.123159 3.89895 75 136 126
0.0161209 -0.126309 3.93267 187 221 221
-2.27482 -0.121041 3.81595 157 223 211
-1.54519 -0.122119 3.85547 97 149 139
0.0190493 -0.122962 3.93087 121 151 152
0.557277 -0.12446 3.96753 102 151 149
1.03423 -0.126481 4.00634 149 215 196
-2.33599 -0.119197 3.80192 163 194 191
-0.890505 -0.121537 3.88011 176 219 210
-0.00029172 -0.12312 3.934 155 215 205
0.861758 -0.123516 3.988 98 141 144
1.22327 -0.123733 3.97638 166 215 195
-2.12394 -0.118424 3.81985 100 141 134
-0.208087 -0.120126 3.91308 90 134 128
0.0186142 -0.122185 3.93436 106 137 138
0.0273222 -0.12134 3.93609 111 149 151
0.28614 -0.121675 3.95458 101 155 156
1.18559 -0.122343 3.98584 166 231 206
-2.27803 -0.11643 3.81459 89 152 142
-1.51665 -0.116706 3.86031 84 136 129
-1.151 -0.11774 3.86692 76 122 110
-1.08839 -0.118013 3.87377 90 151 141
-0.887379 -0.118454 3.88317 91 138 129
-0.355052 -0.119669 3.92046 190 234 227
-0.227913 -0.118816 3.91471 113 160 151
0.311156 -0.120299 3.95436 126 190 184
0.814958 -0.120826 3.96452 162 209 201
0.82563 -0.121053 3.97085 170 222 212
1.22558 -0.121937 3.98454 126 178 155
-2.25299 -0.115158 3.81896 122 179 170
-0.365801 -0.11822 3.91574 182 237 228
-0.335169 -0.117584 3.92657 125 179 174
1.02543 -0.120588 4.00737 139 174 160
-1.19761 -0.115114 3.87126 178 209 202
-0.736158 -0.116428 3.90106 114 173 169
-0.244742 -0.117296 3.91634 194 237 222
-1.84444 -0.113224 3.82868 127 180 171
-0.836386 -0.115272 3.88968 113 155 148
0.649025 -0.116745 3.97321 96 149 146
0.960847 -0.11766 4.00308 108 154 148
-0.951026 -0.113927 3.87837 72 113 115
-0.215375 -0.113421 3.9235 170 228 223
-0.00321633 -0.114509 3.93307 175 228 218
0.0318656 -0.114905 3.93517 124 162 166
-1.79272 -0.109693 3.82938 182 228 216
-1.0438 -0.111293 3.88146 171 222 215
-0.34411 -0.11368 3.91911 94 148 141
0.954028 -0.113859 3.99781 180 230 228
1.04226 -0.114194 4.00111 159 209 191
-1.18411 -0.109419 3.86978 87 132 129
-0.897786 -0.109092 3.88001 165 213 207
-0.146757 -0.110091 3.9245 139 187 181
0.102611 -0.110081 3.93819 178 210 205
-1.40159 -0.108258 3.86964 119 173 168
-0.323647 -0.108565 3.92197 175 230 221
0.957957 -0.111039 3.99879 114 167 164
-0.595399 -0.107179 3.90798 105 147 140
-0.327334 -0.106706 3.92387 97 147 143
0.0834251 -0.108084 3.93792 111 154 145
0.62652 -0.109257 3.97322 116 141 143
1.13298 -0.110632 3.99849 70 122 105
-1.55812 -0.105293 3.85856 83 151 134
-1.10056 -0.104865 3.87613 82 132 120
0.0960021 -0.106648 3.94106 98 140 133
0.114748 -0.10725 3.94996 154 188 181
0.964829 -0.108393 4.00169 83 123 122
0.97179 -0.108961 4.00831 180 228 222
-1.48859 -0.104044 3.86332 108 159 151
0.0361841 -0.106554 3.93466 104 137 146
-2.14569 -0.100003 3.82376 114 144 145
0.79554 -0.10346 3.95136 161 182 174
-2.37064 -0.0968566 3.81222 170 221 213
-0.476695 -0.0990356 3.90865 106 144 149
-1.87106 -0.0962986 3.83917 87 134 126
-1.06049 -0.0980503 3.87944 182 233 226
-0.883106 -0.0985299 3.89104 98 157 149
0.966687 -0.101214 4.00403 155 197 190
-2.34166 -0.0951366 3.81235 153 204 196
-2.32711 -0.0955899 3.82005 183 230 222
-2.24926 -0.0958097 3.82377 97 149 139
-1.16103 -0.0963668 3.87058 84 137 124
-0.377886 -0.0960676 3.91456 177 219 212
1.02904 -0.100097 4.00726 152 200 176
-0.810655 -0.0953294 3.89786 150 197 189
0.724971 -0.0985758 3.98637 214 243 250
-1.16226 -0.0944547 3.87878 95 151 140
-1.15096 -0.0941581 3.87507 177 220 207
-0.452001 -0.0944944 3.91572 122 167 180
0.926083 -0.0963709 4.00353 172 216 210
-1.78105 -0.0916156 3.84121 187 225 219
-0.0499606 -0.093973 3.93889 99 142 133
0.110149 -0.0932793 3.93699 144 192 180
-2.14256 -0.0892662 3.82825 140 164 162
-1.7947 -0.0902724 3.83149 123 158 154
-0.968853 -0.0922019 3.88311 150 223 213
-0.524386 -0.0920104 3.91887 122 176 176
-1.14739 -0.0896566 3.87962 84 135 121
-1.07115 -0.0909406 3.8856 188 240 230
-0.646278 -0.0906854 3.90415 98 142 135
-0.391884 -0.0911862 3.91785 177 201 199
-2.29223 -0.0875092 3.82216 154 201 192
-1.37058 -0.0891793 3.86722 74 104 91
-1.04165 -0.088618 3.88777 88 150 134
-0.0155462 -0.0901524 3.9365 110 160 156
-1.19854 -0.0873725 3.88228 71 107 101
-0.341084 -0.0885829 3.92821 179 231 231
-1.7836 -0.0850815 3.84067 182 201 198
-1.59941 -0.0851183 3.86056 201 231 218
-1.33762 -0.0860911 3.87037 169 207 201
-1.00598 -0.0866899 3.89063 163 224 214
-0.622311 -0.085733 3.90299 180 221 213
-0.0427281 -0.0863631 3.94269 123 181 176
0.126782 -0.0882171 3.95052 177 221 215
0.990061 -0.0881393 3.9837 167 229 205
-1.84874 -0.0835434 3.83726 104 139 129
-1.83465 -0.0834855 3.83308 190 230 212
-1.14684 -0.0850478 3.87661 162 225 199
-0.992319 -0.0854897 3.88922 108 168 158
-0.700389 -0.0851733 3.91126 174 226 226
-0.437977 -0.0852838 3.91653 132 180 181
0.0452816 -0.086077 3.94108 196 237 232
0.537861 -0.0871874 3.97711 187 226 228
1.02591 -0.0879243 4.00597 49 95 83
-1.65048 -0.0833477 3.85465 185 212 208
-1.12838 -0.0837412 3.88513 66 120 103
0.404482 -0.0853682 3.96051 160 187 191
0.405055 -0.0854118 3.96031 172 203 202
-1.18186 -0.0830688 3.88347 100 151 144
-1.18166 -0.0829779 3.88386 100 151 144
-1.10143 -0.0826481 3.88534 170 232 218
-0.864511 -0.0827882 3.89085 103 163 155
-0.720766 -0.0835847 3.91004 110 164 159
-0.718203 -0.0824557 3.90941 102 151 153
-0.191909 -0.0829358 3.9296 182 231 229
0.126435 -0.0832255 3.95343 91 129 129
0.408941 -0.0847465 3.9595 102 136 130
0.414181 -0.0838376 3.95644 195 238 229
-1.8481 -0.0800244 3.83538 158 194 180
-1.81546 -0.0800083 3.84027 177 229 222
-1.63139 -0.0803237 3.85392 141 172 163
-1.12061 -0.0809911 3.88228 151 221 204
-0.109469 -0.0827129 3.93729 97 135 139
0.825817 -0.0829784 3.98074 76 102 102
-1.70968 -0.0799978 3.85283 173 222 208
-1.42969 -0.0804171 3.87827 92 139 136
-1.22331 -0.0791687 3.87502 163 213 203
-0.0487536 -0.0810345 3.94287 184 243 235
0.352852 -0.0818005 3.95138 111 135 135
-2.34508 -0.0781793 3.82692 116 161 165
-0.188241 -0.0798903 3.93053 96 149 146
1.02141 -0.0809596 4.00498 68 107 91
-2.35188 -0.0759708 3.82714 153 193 191
-2.24056 -0.076255 3.83167 171 205 199
-0.994016 -0.0774549 3.88945 97 160 150
-0.514483 -0.0783368 3.91845 109 159 155
-0.13168 -0.0780454 3.93522 192 239 231
-2.30636 -0.0759007 3.82621 184 223 221
-1.67521 -0.0742371 3.85372 121 161 150
-1.58296 -0.0762279 3.86348 179 219 208
-0.863232 -0.0765561 3.89188 195 235 234
-0.340218 -0.0771441 3.92891 106 168 162
0.888602 -0.0777232 4.00279 115 150 154
-1.8486 -0.0745921 3.83692 104 136 125
-1.12098 -0.0751203 3.88533 92 163 146
-0.708904 -0.0744271 3.91045 68 127 123
-0.350874 -0.0762935 3.92674 121 169 171
-0.826271 -0.0731664 3.9051 98 158 147
-0.597756 -0.0740064 3.91346 121 180 166
-0.66043 -0.0714745 3.90919 186 234 222
0.592901 -0.0718155 3.97208 132 152 170
-1.40182 -0.0688462 3.87191 152 196 190
-1.2669 -0.0694937 3.87648 142 182 170
-0.542956 -0.0706346 3.92664 172 228 223
-0.89328 -0.0679131 3.89302 174 220 214
0.0285126 -0.069824 3.95107 121 193 181
0.710627 -0.0702106 3.99467 193 211 210
0.728312 -0.0693247 3.99039 124 172 178
0.749811 -0.0697567 3.99357 117 156 171
-1.40552 -0.06687 3.88012 176 222 216
-0.0675441 -0.0678941 3.94083 101 142 145
-1.83954 -0.0647103 3.83536 152 179 170
-1.22121 -0.0654422 3.87826 79 125 119
-0.744456 -0.0662047 3.91342 103 155 148
-0.657152 -0.0671432 3.91434 78 141 131
-0.46166 -0.0659633 3.92021 207 245 245
0.00467995 -0.0666487 3.94712 77 116 114
-2.02623 -0.0632942 3.84139 119 178 164
-1.05044 -0.0648934 3.88711 101 161 143
-0.941937 -0.0654313 3.89251 99 156 147
-0.694064 -0.0647442 3.91265 172 212 210
-0.61068 -0.0654143 3.91983 75 122 119
0.00908083 -0.0646405 3.94599 167 198 191
0.0477456 -0.0659654 3.9462 124 171 168
-2.3672 -0.0623981 3.82808 171 216 213
-1.45631 -0.0627824 3.87863 184 228 221
-0.58616 -0.0624587 3.92082 129 186 178
-0.54633 -0.0614718 3.92606 189 236 233
-0.503864 -0.0618456 3.92484 194 238 239
-0.0711294 -0.0640312 3.94722 191 234 231
-0.0641636 -0.0631097 3.94473 172 233 223
-0.761996 -0.0608035 3.91164 179 239 229
-0.646369 -0.0601731 3.91308 99 137 137
-0.47358 -0.0613144 3.92393 117 151 151
-1.90007 -0.0590481 3.84325 129 159 154
-1.42026 -0.0593161 3.87829 167 208 203
-0.627564 -0.0600263 3.92015 103 148 145
-0.161318 -0.0605008 3.93713 195 241 235
-0.103781 -0.0600097 3.94389 116 153 149
0.016007 -0.0596557 3.94726 158 213 204
-1.96312 -0.058339 3.84753 184 221 213
-1.25415 -0.0582114 3.88181 149 193 180
-0.584644 -0.0584618 3.92173 170 233 223
-0.218665 -0.0593727 3.94106 93 159 148
0.755034 -0.0589377 3.99171 155 182 208
-1.89625 -0.0558272 3.83861 189 214 210
-1.87563 -0.0557609 3.83847 103 123 118
2.16887 -0.059736 4.07281 101 157 144
-1.2327 -0.0553626 3.8849 141 200 180
-0.177284 -0.0556393 3.93683 112 182 169
-2.20196 -0.0543562 3.83955 91 132 127
-1.85034 -0.0543047 3.8422 103 136 129
-0.631496 -0.0549125 3.92037 130 171 174
-0.532507 -0.0543541 3.92615 189 240 236
0.636946 -0.0556694 3.9835 129 164 177
-0.176972 -0.0544037 3.94198 97 168 152
0.264341 -0.0538456 3.96161 191 240 232
1.09556 -0.052675 3.9066 130 166 136
-2.28109 -0.0502097 3.83394 148 204 199
-1.82335 -0.0514471 3.83615 181 215 208
-1.59359 -0.0510626 3.86406 142 192 180
-1.95558 -0.0503387 3.85255 119 153 147
-1.94617 -0.049634 3.84982 132 169 165
-1.15784 -0.0498709 3.89461 94 144 134
-1.04811 -0.0505439 3.89382 96 157 143
-0.982908 -0.0499152 3.89651 104 163 149
-1.93489 -0.0488928 3.84643 164 197 190
-1.89049 -0.0490672 3.83213 164 183 180
-1.59506 -0.04985 3.86901 156 209 196
-0.158383 -0.0491941 3.94135 126 174 168
-1.95437 -0.047306 3.84995 162 203 195
-1.09887 -0.0485543 3.89385 167 229 215
-0.197429 -0.049034 3.9431 94 143 145
-1.14328 -0.0466952 3.89441 92 147 138
-0.873681 -0.0460665 3.90392 101 156 147
0.891702 -0.0473334 3.98646 102 143 146
1.02811 -0.0479422 4.01038 172 212 210
-1.83086 -0.0452286 3.84446 84 105 102
-0.891911 -0.0452918 3.9045 168 227 212
-0.874467 -0.0459841 3.90425 103 160 151
-0.626691 -0.0450448 3.92274 114 167 158
0.0345963 -0.0456042 3.95364 108 156 160
-2.1943 -0.0433761 3.83966 79 129 125
-0.20629 -0.0448571 3.93815 169 234 225
0.866171 -0.0446475 3.99037 83 132 130
0.00695172 -0.0431471 3.95616 124 175 168
0.295257 -0.0440996 3.95827 74 126 126
-2.27443 -0.0413797 3.84076 87 123 123
-0.559206 -0.0413443 3.92674 126 165 163
-2.19041 -0.0401309 3.84116 174 218 212
-0.937689 -0.0397497 3.89946 81 124 113
-0.933175 -0.040207 3.90132 97 150 141
0.254933 -0.0408099 3.96454 101 168 161
0.257715 -0.0413921 3.96221 57 127 121
-2.30293 -0.0386358 3.83531 111 136 138
-1.42655 -0.0379283 3.88431 189 226 218
-0.704258 -0.0380434 3.92608 180 231 224
-0.282347 -0.0396946 3.92665 180 228 222
-0.0144552 -0.037519 3.9566 80 131 123
-0.765501 -0.0363883 3.91937 174 235 215
-0.898085 -0.0338858 3.90124 86 127 122
0.202802 -0.0358935 3.96457 178 231 234
-1.49771 -0.034126 3.87939 121 157 157
-1.0469 -0.0338115 3.90259 94 148 141
-1.88345 -0.031499 3.8388 118 149 140
-1.87925 -0.0321577 3.83956 188 210 205
-1.05984 -0.0328743 3.90052 102 166 154
-0.87615 -0.0323943 3.90913 176 233 224
-0.74715 -0.0325622 3.92301 157 214 205
-0.532547 -0.0321918 3.9325 192 236 229
0.180797 -0.032969 3.96926 116 170 177
-0.223868 -0.0317777 3.94191 80 146 135
0.151184 -0.0316061 3.9688 205 239 245
1.7653 -0.0318659 4.05202 166 228 216
2.17238 -0.0335987 4.07884 113 184 168
-1.8859 -0.0302607 3.84371 111 142 133
-1.15021 -0.0303384 3.90109 81 133 126
-0.754422 -0.0297831 3.92151 160 214 201
0.375684 -0.0304106 3.96484 102 134 133
-2.17621 -0.0287206 3.84339 156 195 187
-2.08007 -0.0288837 3.85222 170 213 204
-1.29697 -0.0275307 3.87902 163 200 196
-0.52434 -0.0283738 3.93168 130 182 175
-2.34794 -0.026697 3.84253 183 235 228
-1.82728 -0.0276351 3.85896 175 214 206
-0.0858592 -0.0271216 3.95087 134 183 175
0.142937 -0.0275485 3.96925 92 143 153
-2.08013 -0.0252717 3.85252 116 169 160
-1.41751 -0.0264999 3.89009 166 207 202
-0.455709 -0.0265452 3.92376 125 173 167
-0.369426 -0.0246372 3.94351 70 139 129
-0.156029 -0.0252122 3.95393 177 231 224
-0.140961 -0.0247617 3.95188 110 152 145
-2.17408 -0.0221072 3.85063 75 109 99
-1.99822 -0.0232842 3.84876 172 222 210
-0.40427 -0.0233298 3.93929 85 136 138
-0.232684 -0.0234156 3.94594 104 157 154
-1.83658 -0.0218292 3.85721 144 175 168
-1.50034 -0.0218686 3.88434 98 135 133
-0.329739 -0.0225292 3.94104 76 137 139
-0.21465 -0.0223257 3.94844 82 131 123
-0.0683766 -0.0223584 3.95626 124 164 159
0.0387376 -0.0231141 3.96184 113 151 153
-0.852223 -0.0206292 3.92077 128 174 168
-0.0988883 -0.0214344 3.956 108 158 156
1.25242 -0.0211656 3.7261 143 198 181
-1.52062 -0.0199547 3.88308 181 232 224
-1.51295 -0.0199916 3.88172 108 152 146
-1.44817 -0.0198659 3.87774 175 230 221
-0.397362 -0.0193835 3.94083 129 176 174
-0.0856337 -0.0205639 3.95773 200 233 229
-1.5453 -0.0184272 3.88801 93 146 136
-1.39844 -0.0185472 3.889 192 223 220
-1.20507 -0.0180165 3.90007 135 170 160
0.11127 -0.0195098 3.95744 80 122 134
0.662446 -0.0191143 3.99719 155 185 196
-2.35608 -0.0164679 3.84199 169 216 213
-0.0911129 -0.017017 3.95368 100 147 139
-0.0791368 -0.0177514 3.95198 191 222 215
0.259173 -0.0179361 3.96593 204 237 240
-2.31573 -0.0151413 3.8375 180 214 207
-0.881654 -0.0161053 3.90859 103 158 149
-0.633817 -0.0155284 3.92806 99 152 149
-0.212194 -0.0150003 3.9456 170 224 224
-0.825698 -0.0149229 3.92008 80 138 127
-0.364293 -0.0145167 3.94272 113 170 169
0.0335529 -0.0155141 3.95819 68 109 101
-2.32975 -0.0124354 3.8394 95 132 130
-2.32788 -0.012684 3.83848 93 133 128
-0.294068 -0.0130189 3.94341 175 228 214
0.101907 -0.0138697 3.96368 57 110 107
-1.85341 -0.0123022 3.84901 166 204 186
-1.38599 -0.0120042 3.88631 88 118 119
-1.18784 -0.0123053 3.90477 116 167 163
-0.331973 -0.0119072 3.94349 109 165 166
0.693427 -0.0127197 3.98905 100 123 138
1.70538 -0.0128039 4.04728 128 156 137
-1.42321 -0.0105919 3.88264 145 189 183
-0.105524 -0.0105534 3.95033 133 179 173
0.0102632 -0.0104038 3.95193 124 172 166
-2.09688 -0.00949216 3.85388 93 134 127
-1.57362 -0.00866612 3.88519 112 152 150
-1.03891 -0.00881173 3.90711 102 151 137
-0.702102 -0.0092622 3.93103 164 221 212
0.558248 -0.00912168 3.98466 144 194 190
0.838004 -0.0100977 3.99878 176 220 213
1.03148 -0.00942548 3.8881 133 153 130
-1.61473 -0.0080857 3.88613 103 147 140
-0.787729 -0.00793416 3.92429 135 185 175
-0.336521 -0.00612883 3.94375 110 172 160
-0.330028 -0.00724067 3.94605 188 241 232
-0.220464 -0.00676075 3.94119 183 233 229
-0.062905 -0.00694023 3.95902 92 134 127
0.0575709 -0.00707628 3.96454 107 144 142
0.0953389 -0.00684472 3.96613 181 222 225
-2.13963 -0.00632174 3.85055 166 214 202
-1.16297 -0.00415665 3.90609 96 159 149
-0.437714 -0.00446888 3.94515 97 147 147
0.85931 -0.00539366 3.99646 167 228 214
-1.42653 -0.00331368 3.88993 151 192 184
-1.38784 -0.00282429 3.8902 177 225 219
-1.13718 -0.00300131 3.91113 106 172 161
-0.662994 -0.00267799 3.93158 111 156 147
-0.3754 -0.00231373 3.9462 158 218 208
-0.264674 -0.00269466 3.94847 84 138 138
-1.37675 -0.00120162 3.89076 127 148 146
-0.227042 -0.00172366 3.94853 102 151 153
-1.77298 -0.000439783 3.87491 154 197 188
-0.903872 -0.000108622 3.91852 76 133 124
-0.825943 0.000178888 3.92386 165 218 205
-0.142048 -0.00129248 3.95057 120 177 169
0.15219 -0.000516884 3.9739 88 147 133
1.08801 -0.000737751 3.87904 143 161 148
-0.682577 0.00114557 3.93261 173 233 223
0.0422052 0.00115795 3.96442 87 127 126
0.875205 0.00115377 4.01024 67 117 107
-2.19922 0.00269715 3.85485 125 179 172
-1.80877 0.00166576 3.86427 92 156 144
-1.78929 0.00301066 3.86548 173 209 203
-1.44698 0.00122735 3.89118 163 206 195
-1.77136 0.0035716 3.8737 97 139 132
-1.6227 0.00352739 3.88296 91 146 137
-0.437517 0.00408869 3.94228 106 155 153
-0.396975 0.00412643 3.94304 171 234 224
0.0763396 0.00297229 3.96546 91 136 133
-2.07448 0.00441319 3.86271 119 158 150
-1.40331 0.0052419 3.89178 112 164 154
-1.38911 0.0041694 3.89299 114 165 158
-1.38489 0.00609443 3.89096 147 192 183
-0.894913 0.00595782 3.92543 86 143 135
-0.680833 0.00573982 3.93529 103 167 155
-0.089976 0.00612583 3.94492 172 214 219
-0.0597258 0.0060434 3.95825 189 226 222
0.00537456 0.00562909 3.96032 86 147 143
0.173735 0.00676016 3.96822 115 160 157
0.258518 0.00599725 3.96524 112 164 157
-1.59442 0.00703655 3.88487 128 177 169
-0.800477 0.00804959 3.92915 167 218 210
-0.429632 0.00795919 3.94307 97 153 148
0.824714 0.00749154 4.00463 92 122 117
-1.41541 0.00811637 3.8943 96 156 148
-0.889928 0.00872334 3.9214 159 205 199
-0.831132 0.00815559 3.9291 104 161 153
-0.350281 0.00899835 3.94626 102 159 151
-2.32108 0.00989861 3.8492 178 235 220
-1.6215 0.0100674 3.88342 130 178 179
-1.42031 0.0103087 3.89576 153 213 203
-1.2655 0.0105828 3.89585 108 151 148
-1.13829 0.00937603 3.90781 90 141 137
-1.00218 0.00963186 3.91744 112 172 161
-0.772086 0.00997173 3.93264 103 164 154
-0.375131 0.0103748 3.94786 153 206 196
0.234755 0.0101964 3.97569 123 163 168
-1.63762 0.010587 3.88798 102 159 150
-1.42396 0.0115058 3.89559 98 162 150
-1.20406 0.0102378 3.91237 192 236 230
-1.12315 0.0107352 3.91127 125 164 156
-0.380136 0.0113854 3.95079 119 180 170
0.378417 0.0113591 3.96222 130 153 149
0.753706 0.0110046 4.01515 119 175 176
1.85899 0.0114265 4.0636 145 198 184
-1.53431 0.0131113 3.89215 89 139 127
-1.00768 0.0125166 3.91286 178 231 222
-0.990466 0.0126165 3.91951 170 228 217
-0.866083 0.0127914 3.9231 99 156 147
-0.59282 0.0131701 3.94085 95 153 142
-0.0108143 0.0114713 3.95857 104 158 153
-1.15806 0.0142932 3.90147 157 209 192
-0.72666 0.0145876 3.93584 178 232 227
-0.651863 0.0131856 3.93851 104 153 151
-0.425174 0.0153121 3.95087 71 142 132
-0.282151 0.0147809 3.95066 103 159 148
-2.03556 0.0148534 3.86351 103 152 144
-0.749708 0.0147385 3.93466 115 170 161
-0.378289 0.0151846 3.94051 98 160 160
-0.177242 0.0156888 3.94913 99 132 135
-0.16312 0.0153318 3.94938 166 200 189
1.98544 0.0161433 4.07123 174 231 228
-2.1212 0.015586 3.85239 185 229 222
-0.596409 0.0163443 3.93912 169 210 203
-0.335571 0.0173917 3.94465 187 237 237
-0.0948629 0.0172268 3.95163 101 143 136
-1.41862 0.0171475 3.89817 127 174 172
-1.22978 0.0168711 3.91213 166 210 203
-0.588904 0.0171827 3.94055 106 155 147
-0.534025 0.0180611 3.94528 126 182 183
-0.527298 0.0177481 3.94335 111 167 168
-0.421455 0.0174435 3.94702 148 214 203
-2.06632 0.0174169 3.86014 67 106 98
-1.47667 0.0186074 3.89872 112 180 169
-0.0617567 0.0186028 3.96706 163 228 219
0.453728 0.019313 3.98816 82 140 135
0.725066 0.0189521 4.001 127 180 183
-1.0025 0.019887 3.91706 107 169 155
-0.706664 0.0210567 3.93865 110 161 154
0.0683933 0.0204276 3.97408 101 142 144
0.797641 0.0207373 4.01061 111 161 159
-1.44778 0.0218832 3.89336 170 215 206
-2.09916 0.0221134 3.8666 83 142 128
-1.88881 0.0223168 3.86421 98 139 132
-1.42807 0.0228955 3.89692 68 117 109
-1.1538 0.0228013 3.90435 49 91 80
-0.750544 0.0230276 3.93794 103 150 141
-0.652783 0.0223159 3.94121 102 153 146
-0.583292 0.0230741 3.94371 119 161 160
-0.465312 0.0230317 3.94925 99 153 146
-0.408657 0.0230891 3.94586 157 215 204
-0.404736 0.0236092 3.95073 82 149 140
-0.17968 0.0226968 3.94751 198 227 218
-1.10828 0.024854 3.914 73 124 110
-0.739852 0.0243164 3.93736 168 222 215
-0.431432 0.0249078 3.94931 84 154 141
-0.428684 0.0246055 3.95005 54 123 110
-0.747141 0.0257283 3.93659 174 223 215
-0.741865 0.0261031 3.93389 113 166 157
-0.523162 0.025352 3.94611 87 148 144
-0.239293 0.0265347 3.95148 87 139 132
-0.23849 0.0268039 3.95251 90 141 134
-1.14478 0.0270861 3.9127 71 122 115
-0.89467 0.0265753 3.92651 67 139 127
-0.385023 0.0271615 3.95179 123 186 177
-2.05636 0.0280731 3.87555 159 211 201
-1.31418 0.0284988 3.90878 124 150 150
-1.21178 0.0285973 3.9183 105 159 159
-0.736299 0.0283329 3.9362 86 127 129
-0.331712 0.0281144 3.95402 105 162 163
-0.135149 0.0283043 3.95507 98 136 136
-1.93725 0.0289816 3.86861 184 224 212
-1.86858 0.0285646 3.87332 79 132 123
-1.84525 0.0297279 3.86892 101 138 134
-0.127019 0.0303989 3.9591 126 157 156
0.165984 0.0310032 3.97446 125 158 151
0.561154 0.0296091 3.99889 120 178 177
1.80771 0.0302319 4.06939 153 210 195
-1.26349 0.0303166 3.91106 101 133 132
-1.21077 0.0320738 3.91585 175 224 222
-0.593402 0.0324864 3.93943 120 174 161
-0.551481 0.0325796 3.94687 115 171 172
-0.121632 0.033212 3.96006 138 174 180
-1.93809 0.033322 3.87257 111 141 128
-1.25078 0.03416 3.91338 172 217 200
-0.731508 0.033871 3.93877 186 221 225
0.00300614 0.0337656 3.96692 116 170 163
0.451588 0.0340735 3.99207 106 163 160
-1.83993 0.0350206 3.87586 110 159 151
-0.460524 0.0344659 3.95161 83 130 127
-0.410458 0.0359273 3.95175 60 126 115
0.0776702 0.0357535 3.98316 96 148 160
-1.6922 0.0358896 3.89669 179 223 216
-1.64315 0.035141 3.89534 78 111 107
-1.36057 0.0355546 3.90712 117 160 151
-0.714718 0.037209 3.93951 120 153 156
0.708604 0.0373082 4.00798 181 234 220
-1.28933 0.0368347 3.91014 79 102 98
-0.692406 0.037083 3.94042 182 239 230
-0.683899 0.0376618 3.94115 177 231 218
-0.267608 0.0380884 3.94833 87 139 132
1.80266 0.0386557 4.06622 139 208 187
-0.454982 0.0376191 3.94552 148 203 194
0.703611 0.0388159 4.00779 146 173 169
-1.27846 0.0392913 3.91337 97 136 128
-1.0492 0.0407345 3.92606 99 156 147
-0.525668 0.0398654 3.9443 93 144 137
-0.216356 0.0405484 3.95181 165 225 214
-1.56642 0.0407291 3.89804 126 179 169
-1.28189 0.0405069 3.91138 81 120 112
-0.729938 0.0405451 3.94167 123 155 154
-0.222863 0.0411498 3.95033 179 227 209
0.570969 0.041507 4.00229 112 165 156
-1.27746 0.042674 3.91134 161 209 197
-1.23059 0.0422745 3.91459 183 233 221
-1.10423 0.0425871 3.91533 156 224 207
-0.561167 0.0419614 3.94741 193 245 238
-0.560466 0.0421581 3.94938 198 244 238
-0.481635 0.04286 3.94887 178 224 225
-0.471925 0.0414358 3.94627 167 223 218
-0.0845686 0.0430114 3.96128 111 153 158
-0.0608981 0.0424255 3.95981 130 167 159
0.57638 0.0433441 4.00154 174 233 218
-1.26303 0.0437302 3.9083 184 237 224
-1.25735 0.0439484 3.90878 106 154 142
-1.23541 0.0437846 3.91368 94 137 128
-0.542603 0.0442808 3.94723 180 234 227
-0.247054 0.0435229 3.9532 85 134 126
-0.162518 0.0435525 3.95077 191 215 213
-2.06089 0.043855 3.87466 70 142 129
-1.70921 0.0447167 3.88976 175 212 204
-1.46797 0.0449279 3.90573 109 156 147
-0.973921 0.0447598 3.9253 112 169 160
-0.334696 0.0450848 3.95475 118 169 171
0.301223 0.0454713 3.97868 121 163 168
-1.81697 0.046005 3.8872 98 139 131
-1.79937 0.045807 3.89007 92 126 119
-1.66903 0.0458311 3.89755 150 191 184
-1.34669 0.0465009 3.90381 101 132 123
-0.155916 0.0469383 3.9553 59 88 85
0.174739 0.0472408 3.97615 105 127 133
0.336675 0.0472326 3.98023 118 157 166
-2.07255 0.0478476 3.87573 83 136 127
-1.35429 0.0478913 3.90325 179 216 208
0.193617 0.0483791 3.97951 96 143 140
0.201764 0.0480782 3.98267 126 175 173
0.729255 0.0493402 4.01826 93 149 144
-1.8065 0.048317 3.88702 163 212 196
-1.79072 0.0490191 3.89006 190 233 218
-1.62185 0.0484481 3.89809 101 142 134
-0.771386 0.0500511 3.93609 161 205 204
-0.0786615 0.050001 3.96172 174 212 216
0.061761 0.0504551 3.98397 117 174 176
0.721951 0.0505198 4.01786 63 101 101
1.92134 0.0513207 4.07841 90 162 149
-1.60523 0.0494769 3.90305 88 132 125
-0.355108 0.0513774 3.95746 96 147 149
-0.31582 0.0507649 3.95266 192 233 235
-1.82807 0.0531895 3.88276 125 159 148
-1.79305 0.0527787 3.88899 83 117 110
-1.0634 0.0533175 3.92855 169 229 221
-0.963362 0.0529091 3.92941 102 153 145
-0.746864 0.0533336 3.93931 99 139 137
-1.16872 0.0545769 3.91646 106 165 151
-1.10891 0.0546496 3.92198 92 142 132
-0.315786 0.0551949 3.95355 129 167 171
-1.71322 0.0556424 3.89435 119 162 153
-1.5482 0.0545579 3.91086 96 145 131
-0.575717 0.0558613 3.94923 166 224 219
-0.399644 0.0552135 3.95996 95 169 157
-0.35647 0.0555075 3.95245 187 237 233
-1.7826 0.0569989 3.89476 178 218 207
-0.387201 0.0578043 3.96258 100 158 147
-0.219325 0.0580015 3.95584 97 137 142
0.359813 0.0587684 3.97306 137 168 167
0.440592 0.058459 4.00105 210 244 244
0.535283 0.057597 3.99923 112 157 160
-1.83049 0.0572848 3.87997 182 235 222
-1.62764 0.0579938 3.89869 176 222 210
-0.666807 0.0585641 3.94764 91 141 139
-0.304496 0.0591816 3.95705 184 221 225
0.526478 0.0594466 3.99352 94 139 142
-1.87458 0.0595281 3.88977 97 133 127
-1.39078 0.0589991 3.91053 140 177 181
-1.13366 0.0598973 3.91583 170 217 214
-1.12856 0.0594574 3.91734 90 141 134
-0.145134 0.0598643 3.95296 192 220 221
-0.457638 0.0614841 3.95507 149 202 193
-0.317469 0.0619624 3.95398 185 226 221
-0.99165 0.061645 3.92839 90 148 137
-0.977959 0.0614816 3.93074 105 164 156
-0.108583 0.0640013 3.96072 172 210 204
-1.88895 0.0642148 3.88515 189 229 227
-1.48832 0.0648126 3.91042 109 158 150
-0.665934 0.0649589 3.94817 104 161 160
-1.83624 0.0648314 3.88696 106 148 141
-1.5782 0.0657938 3.90643 164 205 200
-0.587946 0.067217 3.94936 85 149 143
-0.458328 0.0655553 3.95556 71 111 109
-0.0756593 0.0665245 3.96512 110 148 148
0.196536 0.0665932 3.98716 157 195 197
-0.105155 0.0675238 3.9668 73 103 98
-1.97397 0.0676672 3.89027 182 231 215
-1.89965 0.0677978 3.88939 176 221 218
-1.4175 0.06782 3.90954 134 175 168
-0.867166 0.069428 3.93726 180 230 228
-0.414686 0.0688126 3.96137 102 152 148
-1.23489 0.0685159 3.92309 155 211 188
-0.776101 0.0696925 3.9416 95 153 152
-0.311815 0.070393 3.96228 184 227 230
-0.225804 0.0702565 3.95625 186 223 231
0.739721 0.0708485 4.01096 182 233 229
1.18857 0.0704222 3.96572 149 167 144
-1.91763 0.0702892 3.89044 106 137 128
-1.86357 0.0698224 3.88875 101 139 139
-1.22998 0.0709181 3.92238 74 120 107
-1.04354 0.0707583 3.9288 109 161 151
-0.862546 0.0713982 3.9417 184 235 231
0.23208 0.0727563 3.98718 194 234 233
-1.97163 0.0716323 3.88802 60 110 92
-1.69089 0.0716837 3.89511 170 213 204
-1.21853 0.0721987 3.91847 84 135 121
-1.03354 0.072834 3.92894 115 168 159
-0.045513 0.0733156 3.96898 202 242 241
0.0125104 0.0736108 3.98692 121 173 180
0.629632 0.0747874 4.0098 115 163 164
-1.8103 0.0733053 3.88985 155 202 193
-0.588889 0.0740713 3.94894 75 139 134
-1.54909 0.0736447 3.9067 166 226 208
-0.260686 0.0760342 3.9588 128 172 173
-0.0993171 0.0761708 3.97099 108 148 147
1.84833 0.077737 4.07265 196 230 213
-1.91145 0.0759069 3.88921 76 99 95
-1.54047 0.0762234 3.91016 160 220 209
-0.439505 0.0766895 3.95734 86 149 153
-0.00979335 0.0768671 3.98307 97 168 158
0.631854 0.0775324 4.01637 128 174 182
-1.77122 0.0768273 3.90006 153 198 189
-1.59661 0.0767082 3.89734 139 161 159
0.204074 0.0786331 3.98748 137 181 182
1.85784 0.0795191 4.07083 110 161 141
-1.80163 0.0782775 3.89232 63 106 93
-1.30725 0.0782158 3.90848 154 196 185
-0.424276 0.0797884 3.96161 159 222 213
0.349673 0.0797821 3.99106 144 184 189
-0.285861 0.0814419 3.96688 123 171 173
2.02472 0.0833045 4.09214 165 226 212
-1.33159 0.0803208 3.91174 85 135 125
-1.03755 0.0817802 3.93264 181 222 215
-0.232042 0.0811053 3.95934 106 149 140
-0.22791 0.0821863 3.96313 180 220 209
0.794813 0.0833751 4.0281 93 156 140
-2.11709 0.0822272 3.88812 156 224 207
-0.256269 0.0840628 3.96148 100 151 144
-0.22205 0.0837625 3.95892 94 125 126
-0.0355727 0.0829857 3.97179 121 161 160
0.168278 0.0841656 3.98511 145 186 188
-2.2814 0.083294 3.87641 126 179 170
-1.70603 0.0837884 3.89866 92 129 119
-1.23785 0.0842354 3.92052 164 219 202
-1.04309 0.0839492 3.93093 83 126 123
-0.740362 0.0844085 3.94866 183 236 226
-0.585289 0.0837889 3.95411 108 163 154
-0.127803 0.0860782 3.96868 189 219 220
-0.104093 0.0851179 3.96825 83 118 121
-1.68374 0.0844766 3.90485 100 155 146
-1.2095 0.0857329 3.92331 166 220 207
-0.948743 0.0850652 3.93578 174 227 214
-0.265294 0.0862735 3.96098 84 138 139
0.234718 0.0867881 3.98281 127 175 169
-2.02961 0.0848955 3.88656 95 158 142
-1.76473 0.0861789 3.90079 103 144 136
-0.0242118 0.0884379 3.97433 95 131 131
-1.58479 0.0873223 3.91545 163 204 199
-0.777119 0.0889523 3.9455 111 168 165
-0.0861899 0.0895455 3.97244 181 226 229
-1.97141 0.0880768 3.88431 82 122 111
-1.77262 0.0886959 3.90165 76 123 114
-0.523759 0.0896512 3.9573 72 138 133
-0.495284 0.0900807 3.95716 189 242 239
-0.969694 0.0905547 3.93319 185 227 216
1.98623 0.0938351 4.08697 106 181 165
-1.98075 0.0906227 3.88671 90 135 126
-1.96286 0.0907414 3.87984 180 230 220
-1.02207 0.0920959 3.93296 74 128 115
-1.01619 0.0922785 3.93742 173 225 218
-0.634326 0.0921044 3.95595 86 138 138
-0.464311 0.092729 3.96133 95 148 145
-0.0492577 0.0933362 3.97299 143 181 183
-1.73333 0.0919223 3.90311 119 157 151
-1.59293 0.0924124 3.90268 167 203 197
-1.05178 0.0936641 3.93447 82 131 117
-1.00495 0.0929872 3.9335 175 231 212
-0.427259 0.0938865 3.96757 89 148 134
-0.214453 0.0942558 3.96673 193 225 220
-0.107927 0.0944 3.97784 116 154 156
0.348515 0.0956676 3.99814 101 153 159
-2.30747 0.0928363 3.88627 84 141 133
-1.10927 0.0945862 3.93171 164 222 211
-1.02846 0.0946681 3.93718 154 199 180
-0.503585 0.0954125 3.96396 172 222 222
-0.0485692 0.0950104 3.97907 128 175 179
0.425762 0.0968938 4.00145 110 161 163
1.83878 0.0984559 4.0748 116 120 101
-0.850061 0.095642 3.94615 94 134 132
-0.358437 0.0971611 3.96752 157 219 213
-0.0103779 0.0971339 3.98935 196 235 243
-2.19233 0.0965386 3.89239 108 161 152
-1.62526 0.0961841 3.91237 143 189 183
-1.05462 0.097134 3.93507 128 181 167
-1.03395 0.0986186 3.93889 68 92 84
-0.993726 0.0976867 3.93531 159 210 196
-0.770051 0.0972602 3.94815 188 230 229
-0.636044 0.0982346 3.9543 163 203 201
-0.365839 0.0980124 3.96311 176 232 221
-1.0642 0.0982382 3.93034 147 208 194
-1.01762 0.0984263 3.93566 159 203 190
-0.994395 0.0980837 3.93673 162 213 199
-1.57869 0.0988457 3.9183 159 212 202
-1.04018 0.0987724 3.92786 148 203 186
-0.942847 0.100476 3.94327 182 235 225
0.138051 0.100959 3.99513 176 221 224
1.85919 0.103789 4.0742 130 146 128
-2.28263 0.0989539 3.88179 170 231 217
-1.71694 0.100786 3.9015 115 153 147
-0.97288 0.101674 3.93796 146 199 186
-0.966215 0.10186 3.9389 59 105 93
-0.948367 0.101339 3.94224 76 129 126
-0.678586 0.101721 3.95537 119 170 172
-0.640732 0.102002 3.95725 72 119 110
-0.63381 0.101864 3.95377 94 138 132
-0.405062 0.102306 3.97108 91 140 138
-0.206151 0.100753 3.96341 205 233 227
-0.190664 0.102294 3.97093 197 233 227
0.0881791 0.102498 3.99291 186 235 227
0.71021 0.102276 4.02518 164 215 207
-2.02698 0.100209 3.89228 97 157 146
-0.668118 0.103875 3.95334 188 231 228
0.057267 0.103745 3.98825 72 116 115
-1.02301 0.10361 3.93798 159 196 186
-0.989114 0.103357 3.93392 172 221 205
-0.901273 0.104526 3.94363 145 190 187
-0.858277 0.104065 3.95003 179 228 220
-0.127887 0.104099 3.96178 94 132 134
0.523393 0.105531 3.99916 132 166 172
-1.51694 0.104891 3.92062 116 167 163
-1.12507 0.104554 3.93254 110 174 162
-1.07822 0.105065 3.93198 78 136 125
-1.01703 0.105326 3.93443 67 98 91
-0.207136 0.10528 3.96386 94 126 132
1.87796 0.108728 4.08224 164 200 170
-2.19759 0.104326 3.88816 174 222 210
-1.75301 0.105265 3.90534 86 123 115
-1.41483 0.106006 3.92351 107 149 148
-0.599982 0.107362 3.96198 152 207 198
-0.294602 0.107311 3.97003 84 142 137
-0.096659 0.106639 3.97907 167 208 201
-2.31397 0.106684 3.89187 148 188 183
-2.10774 0.106348 3.89503 94 156 138
-1.1645 0.108376 3.93841 115 178 169
-1.05279 0.107696 3.93311 116 174 156
-0.974975 0.108554 3.93605 81 128 119
-0.932288 0.108407 3.94505 87 122 125
-0.799535 0.108363 3.95325 191 240 232
0.359484 0.110111 4.00391 100 157 154
-0.559302 0.109025 3.96076 50 118 111
-0.466275 0.109839 3.96473 100 161 165
-1.74684 0.109228 3.90278 174 208 202
-0.572641 0.110701 3.95857 99 163 158
-0.447307 0.111617 3.96712 126 178 178
1.914 0.114065 4.08458 104 162 151
-2.11215 0.110707 3.89063 142 192 182
-2.06596 0.110437 3.89647 107 168 158
-0.988633 0.110984 3.94176 166 214 202
-0.761117 0.111532 3.95008 94 145 141
-0.712458 0.111999 3.96014 195 242 239
-0.623668 0.111427 3.96535 174 224 220
-0.590171 0.113394 3.96585 79 151 139
-0.0570201 0.113213 3.98083 172 216 210
-2.34323 0.11169 3.88394 146 195 193
-0.934944 0.113746 3.9466 185 225 220
-0.263994 0.114246 3.96626 197 230 226
0.807196 0.11549 4.03211 86 137 123
-1.16834 0.114998 3.94079 86 147 133
-1.02807 0.114634 3.93318 86 113 104
-0.617969 0.114661 3.95718 104 145 140
-0.352596 0.115587 3.97066 76 138 138
-2.20578 0.115185 3.88888 167 212 209
-2.06582 0.114245 3.89932 177 232 223
-1.56627 0.114883 3.91192 169 207 201
-1.21101 0.11681 3.94195 114 178 172
-1.20241 0.117079 3.94197 93 147 142
-0.932239 0.117237 3.93789 79 120 115
0.401191 0.119255 4.01001 110 170 164
0.76783 0.11832 4.0135 93 105 107
-2.30235 0.116714 3.88929 86 123 119
-0.842284 0.118938 3.95006 94 144 134
-0.510945 0.119376 3.9702 96 153 150
0.426154 0.120383 3.9971 182 233 226
0.652391 0.120428 4.02795 182 236 231
2.068 0.123729 4.10114 89 163 151
-0.804108 0.119885 3.95111 164 215 211
-0.639057 0.121001 3.95812 167 209 198
-1.11381 0.12057 3.93287 60 99 84
-0.977261 0.120625 3.9396 148 204 185
-0.941775 0.121477 3.94233 170 208 208
-1.78164 0.121484 3.90487 92 164 151
-1.17998 0.122525 3.9395 161 218 209
-1.00566 0.121635 3.93382 153 177 167
-0.603044 0.121648 3.96794 69 113 107
-0.470272 0.122798 3.97043 180 224 218
-2.23439 0.121141 3.89038 182 222 220
-2.22112 0.121849 3.88737 108 139 140
-1.51883 0.122535 3.9264 60 108 110
-1.28849 0.123694 3.93758 50 105 90
-1.09675 0.122543 3.93544 163 227 215
-0.866044 0.123814 3.9516 152 214 202
-0.84829 0.12279 3.9467 156 200 199
-0.790814 0.12432 3.95732 101 152 148
0.574927 0.125982 4.02319 159 207 209
-1.11405 0.124631 3.9337 149 202 192
-0.969442 0.124447 3.9422 140 195 180
-0.798333 0.125169 3.95602 94 137 140
-0.175327 0.124855 3.95778 172 191 188
0.2906 0.127528 3.99594 98 149 151
0.386994 0.125668 4.0131 90 149 141
-1.75552 0.124485 3.9056 91 132 124
-1.17393 0.126031 3.94163 171 236 221
-0.403542 0.126633 3.97418 70 133 123
-0.393299 0.126733 3.97808 73 136 127
-1.88806 0.125869 3.89358 185 219 212
-0.612761 0.128004 3.96478 137 170 163
-1.50107 0.129124 3.92696 185 229 228
-0.973828 0.128693 3.94165 140 200 182
-0.845921 0.129497 3.95356 81 135 128
-0.811528 0.128112 3.95887 96 146 142
-1.67351 0.128258 3.90794 103 149 137
-0.96769 0.130022 3.94485 62 104 97
-0.711608 0.131321 3.96218 119 168 170
-0.633316 0.131612 3.96043 138 164 158
-0.0698435 0.132599 3.99085 182 234 224
0.63795 0.133745 4.0258 92 145 148
-2.14778 0.130771 3.88949 69 118 116
-2.14541 0.130833 3.89026 59 115 110
-1.10839 0.13183 3.9361 98 158 150
-0.0519862 0.135059 3.99512 136 188 195
0.561899 0.135083 4.01541 166 212 206
-2.00228 0.13255 3.90167 184 227 216
-0.60868 0.134851 3.96666 145 179 173
-0.582564 0.134739 3.97055 110 172 166
-0.290182 0.135253 3.98012 89 144 147
0.274686 0.136449 3.99603 96 146 144
-2.29985 0.133721 3.88301 87 117 112
-2.09699 0.134359 3.89513 56 86 75
-0.967307 0.134914 3.94084 151 191 189
-0.82297 0.135213 3.95516 90 134 127
-0.0346753 0.136578 3.99369 203 249 250
0.319918 0.13743 4.00736 120 162 174
-1.24046 0.135591 3.94592 85 136 128
-0.387678 0.139 3.97872 161 243 225
-1.99988 0.13626 3.90222 130 178 166
-0.0691479 0.139816 3.98936 153 206 196
-2.30756 0.137385 3.89555 158 194 188
-0.891632 0.140271 3.95414 178 232 225
-0.52226 0.141007 3.97347 78 128 126
-0.490256 0.139435 3.97361 184 235 228
1.91661 0.145089 4.09364 94 176 154
1.95748 0.144419 4.09736 96 180 162
-2.18771 0.139044 3.89889 146 198 188
-0.602147 0.141636 3.97311 166 214 208
0.756575 0.143757 4.02254 221 243 249
-0.916572 0.142511 3.95213 184 231 222
0.16182 0.143677 4.00325 93 141 145
0.349313 0.143074 4.0065 112 170 165
-1.20167 0.14368 3.94786 77 133 128
-0.784223 0.14247 3.95318 167 222 203
-0.717565 0.144195 3.96632 178 222 216
-0.51578 0.143993 3.97907 89 143 144
-0.291412 0.143977 3.97699 128 176 177
-2.05266 0.144081 3.90823 116 172 161
-2.00813 0.143716 3.90385 101 147 135
-1.6523 0.145451 3.91903 177 211 201
-0.606841 0.148518 3.973 170 220 210
-0.592582 0.148368 3.97496 96 149 146
-0.291401 0.147216 3.9798 108 159 161
0.187572 0.15055 4.00731 157 196 198
0.509523 0.149585 4.01716 105 155 151
-1.23196 0.148233 3.94316 166 222 217
-0.279472 0.149416 3.97623 193 233 228
0.23313 0.150487 4.00725 159 216 213
0.48711 0.151819 4.01083 157 189 195
-1.92309 0.147782 3.9098 100 156 151
-1.48989 0.148845 3.93668 175 227 217
-2.06187 0.148828 3.90949 77 145 128
-1.49309 0.149955 3.93307 93 150 141
-0.799423 0.151328 3.95087 167 220 210
-0.790982 0.150747 3.95215 81 134 125
-0.488534 0.152179 3.97791 103 163 162
0.713599 0.153471 4.03049 112 150 152
-0.875507 0.152959 3.95884 153 205 195
2.01428 0.157352 4.09883 91 163 157
-1.52579 0.15346 3.92974 103 156 147
-0.973141 0.152736 3.93923 85 119 113
-0.833614 0.154078 3.95163 191 236 233
-0.549324 0.154624 3.97591 102 162 161
-1.03307 0.153707 3.90871 70 132 110
-0.628814 0.155913 3.97078 150 198 186
-0.0517743 0.15703 3.99519 105 155 153
-1.99071 0.154587 3.90887 169 204 190
-1.41771 0.155921 3.94478 175 217 210
-1.40694 0.156777 3.94613 113 157 150
-0.39855 0.157406 3.98026 87 146 142
-0.334061 0.157145 3.9835 167 224 216
-0.0343742 0.156976 3.99843 119 163 162
-0.717872 0.158865 3.96897 180 225 229
-0.435211 0.159141 3.97983 171 219 213
-0.0677306 0.160051 4.00138 109 170 172
0.586257 0.160419 4.02884 77 152 144
0.772919 0.160156 4.02429 125 169 168
-1.84299 0.156991 3.91342 43 102 94
