ply
format ascii 1.0
element vertex 603
property float x
property float y
property float z
property uchar blue
property uchar green
property uchar red
end_header
-0.0217321 -1.02759 3.32247 100 134 133
-0.0109197 -0.996133 3.33087 170 213 198
-0.00991545 -0.996125 3.33438 148 181 166
1.05537 -0.909118 3.19717 145 195 183
1.97496 -0.235306 3.17189 132 140 139
0.939936 -0.237001 3.32408 143 194 186
1.95551 -0.0906987 3.21371 92 96 101
1.17735 0.00377871 3.34066 151 218 203
0.0756474 0.0608282 3.44397 127 145 138
1.99107 0.129194 3.2519 131 129 128
0.654366 0.56867 3.52325 88 136 140
1.684 0.564873 3.3776 149 188 180
0.622223 0.750136 3.56099 84 133 131
0.98097 0.784646 3.47552 49 72 67
0.651954 0.909047 3.53233 138 195 170
0.719235 0.902713 3.50398 48 75 72
1.56944 0.921082 3.46145 109 133 125
0.511984 0.961662 3.59647 161 194 187
-0.0202174 -1.02749 3.32239 88 122 121
-0.011005 -0.996133 3.33086 170 213 198
-0.000462568 -0.972058 3.33096 194 234 232
1.95855 -0.730546 3.092 108 128 109
1.9493 -0.701712 3.09697 157 188 189
0.870019 -0.726257 3.2535 90 129 131
0.714464 -0.533163 3.32343 100 154 147
0.862855 -0.369848 3.31911 87 119 125
0.200449 -0.334246 3.41758 79 122 131
0.878664 -0.28873 3.33223 166 221 234
0.688161 -0.27537 3.36977 93 143 133
1.94803 -0.107751 3.22003 189 205 194
0.227864 -0.085079 3.44603 104 157 148
1.97138 -0.0655093 3.22172 211 226 222
1.25343 -0.00352346 3.3312 82 142 132
0.021898 0.0104139 3.46694 97 120 106
0.0261457 0.0211569 3.4495 148 192 175
2.00466 0.0220113 3.20896 118 141 143
0.0509602 0.0790624 3.45507 183 224 217
1.37315 0.203002 3.35107 91 142 134
1.93941 0.211267 3.27887 108 116 116
1.93619 0.213897 3.2792 99 118 121
1.93756 0.21457 3.28101 101 116 119
1.06911 0.473611 3.42979 169 185 197
1.55588 0.559892 3.37648 123 147 159
0.86691 0.68816 3.50112 153 190 188
0.952562 0.717141 3.47949 175 210 206
0.623534 0.742896 3.55208 159 192 188
0.62172 0.750064 3.56085 81 128 125
0.729146 0.762027 3.51563 100 134 123
0.790084 0.776415 3.51582 44 78 68
0.806747 0.787708 3.51828 50 75 71
0.548676 0.865264 3.57968 188 236 230
0.533953 0.904549 3.59362 93 129 112
0.621952 0.929319 3.52241 42 112 81
0.578622 0.954627 3.55666 122 199 161
0.281505 -1.24067 3.2542 80 140 132
0.951315 -1.12452 3.17327 81 141 133
0.834889 -1.08736 3.20135 89 135 129
0.661788 -1.02543 3.24414 99 149 147
-0.0192592 -1.04067 3.31453 90 135 132
0.162165 -0.984991 3.31441 101 146 137
0.86882 -0.942917 3.21086 73 119 113
0.783073 -0.940055 3.24553 154 229 201
-0.0253598 -0.951968 3.33958 168 216 217
0.161745 -0.9237 3.32039 93 128 124
1.34758 -0.87509 3.16368 84 139 136
0.191358 -0.906533 3.32031 73 116 105
0.205429 -0.902097 3.31839 92 114 109
1.95812 -0.731142 3.0923 88 114 100
1.95981 -0.731006 3.09377 108 128 109
1.5334 -0.733504 3.1569 78 121 110
1.93024 -0.697953 3.11035 203 218 210
0.870098 -0.726371 3.25209 90 129 131
1.40562 -0.599401 3.20338 89 134 131
0.716016 -0.532797 3.32597 78 135 127
0.206851 -0.520946 3.37808 105 129 127
1.93634 -0.4771 3.14608 111 133 138
1.95881 -0.454423 3.14872 178 212 206
1.96273 -0.453722 3.15266 156 189 182
1.96174 -0.431662 3.1504 117 145 139
0.844161 -0.386089 3.32867 86 125 133
1.1202 -0.318809 3.28682 49 101 91
0.878872 -0.288683 3.33244 160 213 223
0.869711 -0.285791 3.33705 100 149 163
1.20729 -0.279357 3.28549 190 228 222
-0.234607 -0.286936 3.48024 85 141 136
1.57499 -0.244358 3.2314 95 138 129
0.714665 -0.20786 3.38027 98 160 146
1.18784 -0.192858 3.31049 80 148 137
0.650845 -0.18905 3.388 92 145 135
1.96858 -0.161649 3.18564 126 133 128
1.98163 -0.119125 3.20162 136 129 126
1.94753 -0.107061 3.21699 205 219 207
1.96719 -0.0974042 3.24337 194 208 202
1.94928 -0.0885217 3.21705 81 106 110
0.697757 -0.0896922 3.39852 72 124 117
1.82982 -0.0862766 3.24016 97 155 150
1.97898 -0.0776064 3.21202 170 179 176
1.06166 -0.0718459 3.34807 46 117 107
1.97067 -0.0660243 3.21993 205 220 216
1.17897 -0.0632192 3.32764 81 136 127
1.15834 -0.0534463 3.31963 71 112 104
1.42263 -0.0512151 3.29279 87 143 132
1.77387 -0.0138411 3.2619 74 107 100
1.25601 -0.00256601 3.33402 68 125 117
1.5705 0.0134359 3.28864 156 214 203
0.0461084 0.0201171 3.44571 82 100 99
-0.0589885 0.0484194 3.49568 175 230 221
0.0172764 0.0886069 3.46727 72 94 89
1.98511 0.138117 3.25752 185 193 186
1.98791 0.155205 3.26962 151 181 176
1.12661 0.169117 3.38659 226 255 248
-0.0198614 0.195584 3.54541 191 220 224
1.27132 0.254302 3.37067 156 207 199
0.0527532 0.32614 3.55973 206 232 244
1.9944 0.312656 3.28662 107 138 131
-0.0770998 0.370302 3.58157 178 210 221
1.06703 0.368733 3.42173 99 142 145
1.89888 0.364507 3.31565 159 201 194
0.230069 0.416146 3.52339 161 214 200
0.342693 0.419362 3.51192 122 152 153
0.999514 0.409952 3.43912 92 134 133
0.265733 0.421406 3.51284 186 216 205
0.270197 0.430565 3.51212 74 75 65
0.252896 0.436842 3.52488 91 108 97
0.369917 0.446528 3.52169 74 116 105
0.210635 0.466857 3.54443 87 118 109
0.693003 0.461118 3.49209 203 231 231
0.728554 0.462517 3.48699 130 162 167
0.339253 0.467177 3.52716 157 217 206
0.25614 0.481065 3.54579 83 107 105
0.243286 0.481912 3.53794 175 226 222
0.256866 0.487173 3.56042 94 118 116
1.07105 0.475551 3.43429 159 177 188
0.664644 0.492136 3.50198 87 132 123
0.719366 0.493958 3.49255 85 142 133
0.64475 0.510421 3.50505 109 140 141
0.317721 0.520512 3.54909 144 195 175
0.657066 0.56976 3.52481 89 134 137
1.68064 0.563718 3.37556 176 216 211
0.651454 0.615955 3.52821 113 146 149
0.654318 0.619166 3.5352 115 148 151
1.03717 0.620829 3.46373 90 141 134
0.991759 0.634854 3.47935 58 114 115
2.04206 0.617873 3.34663 183 214 213
1.02906 0.641595 3.46803 161 201 190
1.01082 0.672352 3.47788 148 192 186
0.973529 0.694639 3.46931 150 192 185
0.619164 0.722571 3.55847 168 202 196
0.850161 0.70942 3.50428 94 125 118
1.38887 0.706726 3.4171 119 142 144
0.623833 0.744482 3.55532 131 168 164
0.618604 0.746408 3.55324 102 133 132
1.48342 0.719139 3.41167 77 100 85
1.67081 0.716245 3.40545 124 153 157
0.61302 0.764656 3.54516 83 120 112
0.82668 0.768934 3.50826 186 220 213
0.774821 0.786178 3.50924 85 140 123
0.571199 0.81054 3.57452 173 206 202
0.725785 0.830182 3.52925 112 150 138
0.626886 0.84034 3.55202 80 114 108
0.710418 0.84113 3.51689 184 235 221
0.941163 0.856391 3.51208 68 86 87
0.948734 0.869387 3.53666 102 145 148
0.533033 0.900867 3.58429 99 136 120
0.898284 0.919618 3.53704 52 85 78
0.907245 0.919612 3.53318 157 193 187
1.02859 0.92287 3.51029 145 208 168
0.854733 -1.21621 3.17849 89 110 111
0.801798 -1.21553 3.18973 97 156 142
1.43334 -1.17036 3.09628 81 135 112
0.174983 -1.19743 3.27682 83 142 127
1.58168 -1.10353 3.08772 93 127 117
1.67627 -1.08662 3.06967 108 153 144
1.81127 -1.01771 3.05642 164 205 200
0.796444 -1.03238 3.21625 77 120 109
1.09068 -1.00721 3.17406 76 119 110
-0.0186767 -1.04071 3.31779 97 138 133
1.48736 -0.97558 3.12686 72 109 101
1.91558 -0.94964 3.04569 132 155 150
1.45764 -0.940491 3.13657 90 136 123
0.000422856 -0.971686 3.32933 192 236 230
-0.0254887 -0.95198 3.33884 168 216 217
-0.054445 -0.932142 3.34946 78 119 112
1.34561 -0.876115 3.16439 101 155 148
0.205613 -0.902087 3.31872 92 114 109
0.527019 -0.831888 3.29744 90 151 141
1.95444 -0.767926 3.08916 90 107 98
0.745078 -0.767054 3.27509 90 134 133
0.770166 -0.760653 3.27484 83 133 129
1.5345 -0.733205 3.16054 74 122 110
1.92885 -0.698211 3.10766 211 228 215
1.3237 -0.705058 3.19507 112 158 145
1.532 -0.697283 3.17312 76 135 127
1.95391 -0.677422 3.09798 144 187 176
1.94744 -0.623634 3.11743 137 181 168
1.95764 -0.614051 3.11348 68 82 78
1.8769 -0.544944 3.13623 88 140 133
1.92062 -0.517474 3.13909 142 204 186
0.207355 -0.520256 3.38294 99 126 122
0.855771 -0.495341 3.28707 82 126 120
1.86411 -0.475797 3.15496 84 114 115
1.9628 -0.469981 3.12848 122 144 139
0.811883 -0.4564 3.30998 60 101 93
1.9616 -0.431675 3.15033 117 145 139
1.90426 -0.408316 3.18016 172 186 192
0.838677 -0.387848 3.32239 81 122 117
1.55784 -0.351421 3.22589 124 163 155
0.821038 -0.334196 3.33311 83 122 120
1.84632 -0.301655 3.19866 99 152 149
1.9275 -0.287279 3.17375 186 218 217
1.7022 -0.254515 3.22487 59 101 90
1.57809 -0.243347 3.23568 91 132 125
1.58395 -0.240673 3.2471 68 115 106
1.53544 -0.237485 3.24699 68 110 99
0.476013 -0.213107 3.40034 89 144 129
1.96259 -0.118714 3.20951 108 117 114
1.91285 -0.106836 3.21935 169 205 199
1.94836 -0.0890482 3.21518 81 108 112
2.00484 -0.07884 3.18308 157 189 225
1.97977 -0.0779708 3.21689 172 183 180
1.09577 -0.0656 3.34583 155 215 207
1.17797 -0.0644091 3.32605 82 139 130
0.712455 -0.00140044 3.41532 93 139 133
1.80985 0.00265972 3.2515 152 191 183
1.0691 0.0465183 3.36522 94 136 129
0.0492705 0.0787847 3.46009 185 222 214
1.7843 0.109823 3.27465 97 145 146
0.0134513 0.161369 3.52292 68 76 76
0.869689 0.175406 3.42183 102 148 159
-0.0376822 0.183541 3.53783 175 219 226
1.16408 0.207062 3.38419 75 116 118
0.656976 0.225764 3.45986 86 122 128
1.93624 0.214599 3.27561 90 96 101
-0.0164797 0.245436 3.55008 87 123 123
0.0246831 0.264968 3.54368 161 202 211
0.0267271 0.291879 3.54944 184 224 229
0.979228 0.301143 3.4211 104 145 147
1.57457 0.292179 3.33298 83 120 112
0.645013 0.361871 3.47973 120 158 160
0.111439 0.388084 3.56059 66 100 90
0.587161 0.395566 3.49238 117 157 155
-0.0741187 0.409537 3.58878 170 216 224
0.00898572 0.41523 3.57235 155 199 200
0.0663129 0.418769 3.56882 178 213 223
0.149165 0.435378 3.55852 109 164 155
1.89268 0.414506 3.3178 69 101 90
0.275271 0.44679 3.52362 157 190 183
1.06788 0.43737 3.43683 122 153 156
1.90043 0.437306 3.33059 73 91 84
0.72942 0.461702 3.48502 108 138 143
0.291016 0.484393 3.53294 175 211 211
0.635983 0.492954 3.51464 106 135 149
0.337558 0.511191 3.53194 176 211 207
0.658253 0.518275 3.51368 93 110 113
0.270331 0.577298 3.56591 98 134 128
1.00806 0.573407 3.46254 79 135 124
1.55733 0.560275 3.38565 116 143 153
0.653703 0.6046 3.53113 81 85 96
1.10562 0.609694 3.46345 130 162 175
0.991971 0.634342 3.47825 102 154 154
2.04254 0.617985 3.34685 188 219 218
0.807563 0.660353 3.50694 101 134 137
0.826969 0.658282 3.5065 104 139 135
1.02079 0.673025 3.48258 52 80 74
0.619061 0.709517 3.55021 79 91 97
0.975019 0.696866 3.47386 157 189 184
0.754256 0.712799 3.52924 106 143 151
1.40191 0.687508 3.41002 112 151 149
0.85115 0.711408 3.50835 74 108 102
0.626825 0.727256 3.548 79 93 82
1.44169 0.696062 3.42746 64 98 88
0.763308 0.725201 3.52062 102 142 141
0.865121 0.721493 3.51004 60 71 68
0.816862 0.745 3.51282 106 145 143
0.744162 0.750026 3.51681 114 135 137
1.38451 0.733988 3.42654 75 89 83
0.656486 0.76463 3.54321 56 95 80
1.3079 0.768379 3.46462 166 221 212
0.78785 0.787226 3.5145 149 212 180
0.628951 0.821714 3.53446 145 201 178
0.94267 0.821988 3.51456 47 64 51
1.4672 0.821588 3.44199 86 110 110
0.54655 0.865508 3.58028 186 237 230
0.883201 0.851659 3.52133 177 227 217
1.49382 0.840169 3.44537 119 152 148
0.694609 0.868425 3.52239 169 222 209
0.965589 0.869001 3.50715 73 94 95
0.52547 0.893411 3.60303 103 155 145
1.12133 0.866074 3.48608 71 94 89
0.521302 0.904472 3.60042 167 221 214
0.594248 0.898838 3.56172 130 179 163
0.522678 0.914534 3.59165 75 106 97
0.890556 0.896983 3.51534 130 195 179
0.635468 0.91279 3.53916 56 127 110
0.550813 0.940465 3.55553 84 125 110
0.846399 0.930427 3.52435 81 118 110
0.576557 0.950809 3.55205 134 209 171
0.631784 0.94818 3.53454 43 113 77
0.567498 0.957624 3.55583 103 156 129
0.488384 0.98337 3.61054 203 235 234
0.802459 -1.2156 3.19078 92 154 138
1.53886 -1.14783 3.08889 94 135 114
1.73764 -1.11286 3.04897 67 103 79
1.59185 -1.08618 3.08143 129 205 181
1.75668 -1.06504 3.07364 76 113 103
1.48887 -1.06599 3.1143 103 159 146
1.82861 -1.03004 3.05563 101 135 134
1.81306 -1.01773 3.05966 157 195 189
1.78727 -0.983643 3.07221 91 144 124
1.51713 -0.997148 3.12041 78 108 95
1.56698 -0.995374 3.1142 76 93 84
1.48699 -0.97559 3.12433 61 95 89
1.22927 -0.973843 3.1659 84 125 118
1.90798 -0.94009 3.0567 109 161 143
1.50083 -0.929892 3.13535 92 127 123
1.50477 -0.930209 3.1347 100 142 135
0.869799 -0.944625 3.21878 86 132 126
1.65459 -0.907717 3.11447 87 139 132
-0.0186964 -0.952801 3.33801 168 214 215
0.0304617 -0.949171 3.3278 72 106 99
1.57998 -0.836051 3.1419 92 152 134
1.15514 -0.831555 3.19478 110 152 145
0.527801 -0.831679 3.30153 89 149 141
1.93954 -0.771704 3.08776 156 196 185
1.88019 -0.748347 3.09597 133 142 146
1.49983 -0.732552 3.17173 81 129 111
1.92898 -0.696908 3.09958 206 221 213
0.864387 -0.72506 3.251 84 124 122
1.85614 -0.690707 3.11985 108 144 138
1.32416 -0.702778 3.19688 104 157 144
1.53409 -0.697064 3.1753 76 134 129
1.85618 -0.672796 3.12131 177 204 201
1.89874 -0.672296 3.12259 111 144 137
1.37178 -0.67158 3.19439 95 140 131
1.64655 -0.665604 3.16293 70 123 110
1.90231 -0.636384 3.12275 82 135 125
1.6599 -0.636476 3.16335 87 119 118
1.96121 -0.613263 3.11989 66 80 76
1.96116 -0.601403 3.12054 130 160 155
1.89357 -0.599489 3.12524 106 102 113
1.88973 -0.581855 3.13843 79 120 113
0.756284 -0.568945 3.30952 84 130 117
1.91147 -0.536346 3.13675 126 133 152
0.546367 -0.543371 3.33993 81 143 127
1.40808 -0.524289 3.21807 80 138 127
1.93154 -0.511928 3.13252 80 107 103
1.40729 -0.488688 3.21929 64 112 94
1.86473 -0.475582 3.15626 84 114 115
1.96517 -0.46943 3.13171 118 138 133
0.811233 -0.456371 3.3102 69 112 101
0.837206 -0.45059 3.30483 83 125 114
1.82936 -0.426581 3.17578 85 123 123
1.88175 -0.420541 3.16616 104 128 126
0.839567 -0.387786 3.32268 80 119 121
1.95741 -0.365823 3.16732 157 188 185
0.871631 -0.353382 3.33167 173 207 250
0.882023 -0.335383 3.31635 68 97 128
1.9595 -0.307505 3.17095 138 166 167
1.96045 -0.306012 3.17798 167 196 201
1.06658 -0.3029 3.29777 65 118 105
0.857641 -0.303598 3.33068 188 228 255
0.890893 -0.285354 3.3278 88 119 122
0.56779 -0.280276 3.38724 100 134 128
1.69436 -0.26782 3.22013 135 234 202
1.68127 -0.262062 3.22474 86 138 128
1.65705 -0.219273 3.23821 78 114 114
0.476698 -0.211313 3.4081 70 131 117
1.58437 -0.193199 3.2491 84 136 126
1.97103 -0.189812 3.19204 144 171 167
1.18797 -0.19269 3.30757 80 148 137
1.61907 -0.191432 3.24969 85 131 125
1.97753 -0.169648 3.20133 64 62 62
1.57602 -0.168856 3.25761 91 150 142
1.97295 -0.14962 3.20253 152 163 155
1.98227 -0.132554 3.20359 68 59 46
1.93463 -0.118615 3.20885 69 95 89
1.9674 -0.119289 3.21308 115 118 116
1.95252 -0.0901474 3.21688 85 99 105
0.699438 -0.0897031 3.39424 79 131 124
1.79519 0.0165031 3.25817 208 232 232
-0.0987345 0.0303633 3.50151 117 161 154
0.676355 0.0886467 3.43929 229 246 249
-0.0536882 0.113789 3.52545 86 116 105
-0.0526166 0.126561 3.52525 156 208 201
-0.00858578 0.12246 3.49945 140 168 149
-0.0719715 0.181471 3.54439 196 229 232
1.16424 0.183419 3.36868 73 113 108
1.95309 0.183837 3.28011 94 89 91
1.16466 0.208634 3.38862 113 154 156
1.70935 0.220407 3.31201 174 198 198
2.03388 0.220059 3.25391 126 156 167
0.665449 0.257718 3.46044 217 244 248
-0.00721862 0.266221 3.5645 82 103 100
1.5763 0.293197 3.33559 80 111 108
0.0585481 0.327492 3.55669 217 242 252
1.90428 0.302904 3.29326 95 111 110
0.616138 0.330268 3.4848 224 249 253
1.09147 0.33265 3.41016 239 255 255
1.89052 0.338797 3.29194 171 203 202
1.92508 0.343378 3.32814 71 75 76
1.91043 0.366619 3.30476 54 55 51
-0.0366085 0.399239 3.58085 111 136 140
0.588488 0.398193 3.49895 116 163 161
0.261294 0.420589 3.5117 168 202 195
0.183423 0.456727 3.56686 79 117 111
0.28815 0.458443 3.52721 183 223 218
0.207544 0.469585 3.55249 89 121 116
0.730368 0.462917 3.48792 103 133 138
0.330373 0.472513 3.51838 90 130 119
1.92217 0.451659 3.32563 125 183 172
-0.149444 0.497326 3.61244 223 248 252
0.290199 0.485683 3.53334 188 222 222
1.74105 0.469316 3.34172 87 107 95
0.23674 0.499294 3.53728 98 137 129
0.650374 0.519119 3.52502 138 173 169
0.166584 0.56726 3.58505 220 244 250
1.55591 0.540313 3.38027 129 169 167
0.660651 0.568313 3.51451 103 146 143
1.41409 0.553476 3.41196 102 137 133
0.645141 0.593945 3.53104 94 98 103
1.87239 0.591045 3.35673 116 150 139
1.02222 0.639205 3.47356 92 139 130
0.718391 0.656145 3.51545 78 112 101
0.806614 0.654586 3.49419 115 155 153
0.807112 0.661494 3.50936 115 156 158
1.04694 0.648416 3.47037 81 102 93
0.868195 0.665897 3.50015 99 130 129
0.961499 0.660928 3.48483 90 117 121
1.39199 0.655438 3.425 109 139 150
0.676362 0.686619 3.5203 92 114 109
0.899287 0.678069 3.48063 84 122 116
0.977066 0.68048 3.48497 56 81 77
1.30842 0.671474 3.43114 102 147 144
0.632052 0.697536 3.53336 180 220 209
1.3164 0.681627 3.45198 126 170 169
0.753115 0.705654 3.51144 98 124 130
1.31242 0.697779 3.43406 166 212 206
1.43516 0.689815 3.4051 75 107 96
0.778984 0.715831 3.51886 76 96 97
1.40987 0.69644 3.42806 86 113 109
1.60572 0.695446 3.41334 113 147 153
0.969321 0.710659 3.47975 91 99 98
1.00304 0.706533 3.45054 178 226 200
0.868432 0.723261 3.51624 53 61 60
1.40642 0.706836 3.41725 52 75 71
1.50671 0.709671 3.42444 60 83 78
0.614091 0.738536 3.55118 68 92 84
0.984925 0.725698 3.46457 163 207 194
1.40822 0.721708 3.3975 185 237 213
1.48224 0.72503 3.42324 71 94 79
1.38589 0.736504 3.42415 81 100 97
0.801452 0.763992 3.51956 85 116 107
0.876455 0.765963 3.51638 107 129 124
0.828079 0.770567 3.51149 183 217 210
0.789967 0.777667 3.51719 44 78 68
0.942664 0.791201 3.50605 107 129 124
0.554411 0.806833 3.55775 88 131 122
0.431806 0.825738 3.59951 116 166 162
0.681093 0.817239 3.53062 180 216 216
0.657362 0.825081 3.53848 89 116 113
1.47185 0.800987 3.44192 185 217 222
1.43117 0.819075 3.43533 106 128 123
0.586835 0.85276 3.55445 63 96 89
1.04433 0.847554 3.49855 146 206 188
1.62847 0.848794 3.44332 64 96 95
0.627113 0.878015 3.54565 59 75 68
1.56079 0.851014 3.42521 136 198 176
0.608043 0.89572 3.55767 49 79 66
1.53914 0.869933 3.44842 123 178 169
0.526407 0.918121 3.60178 88 122 111
0.690507 0.907215 3.53756 60 106 94
0.669765 0.906613 3.51186 175 226 212
0.717817 0.896043 3.49723 63 99 93
0.877118 0.917026 3.5542 88 136 124
0.579103 0.93537 3.58 171 238 207
0.847923 -1.21646 3.17368 105 135 130
1.43589 -1.17923 3.10063 96 150 127
1.40996 -1.16591 3.11032 121 172 158
1.73438 -1.13742 3.03452 111 145 128
1.76227 -1.14709 3.04946 60 88 68
1.53878 -1.1478 3.08834 96 135 114
0.175843 -1.19718 3.27832 80 141 127
1.5831 -1.07372 3.09374 87 121 110
1.61876 -1.06987 3.09044 67 85 84
1.77535 -1.0595 3.0696 53 104 84
1.59051 -1.05148 3.09552 87 104 100
1.81455 -1.01828 3.06106 158 198 193
1.51083 -1.00926 3.11469 87 122 112
0.79514 -1.03292 3.21178 79 132 119
1.55686 -0.995425 3.10001 70 73 64
1.51341 -0.997691 3.11556 98 130 119
1.25677 -1.00358 3.15527 75 138 122
1.48067 -0.978301 3.1299 113 172 157
1.60542 -0.952336 3.12552 91 126 116
1.65022 -0.909624 3.1157 99 158 143
1.84729 -0.845645 3.08399 200 227 224
1.87665 -0.848657 3.08049 178 209 208
1.85489 -0.810462 3.09233 118 130 142
1.15126 -0.831032 3.19417 118 167 159
1.80123 -0.810602 3.11418 89 162 136
-0.159294 -0.846102 3.37731 173 224 227
1.87963 -0.748424 3.09502 137 140 148
1.49555 -0.731881 3.16911 88 134 115
1.85425 -0.691828 3.12454 99 137 131
1.88962 -0.668778 3.11461 99 139 127
1.6389 -0.662076 3.15125 73 128 113
1.89816 -0.637689 3.12534 75 133 122
1.88845 -0.59738 3.12719 124 133 136
0.887671 -0.613237 3.26266 106 162 149
1.4046 -0.595229 3.20047 96 159 150
1.93279 -0.51353 3.14018 92 128 122
1.74765 -0.498591 3.1795 105 152 143
1.40779 -0.48918 3.22522 80 130 112
1.86615 -0.477328 3.1669 92 143 135
1.77737 -0.461021 3.17221 95 149 136
1.83101 -0.425621 3.1812 92 135 132
1.91804 -0.369138 3.17851 92 114 109
1.95331 -0.362574 3.18552 155 187 182
1.89683 -0.326946 3.18869 86 128 117
1.94517 -0.303154 3.15858 167 196 201
0.858729 -0.300617 3.34505 163 205 248
1.90725 -0.286125 3.18499 84 101 98
1.93895 -0.275009 3.17996 166 196 197
1.67925 -0.262188 3.22424 85 138 125
1.96295 -0.242891 3.18027 167 196 187
0.89613 -0.234903 3.34991 185 218 255
1.97078 -0.187573 3.20226 155 182 178
1.973 -0.169349 3.19871 66 69 67
1.79577 -0.151991 3.23965 85 147 133
1.97395 -0.149242 3.20395 152 163 155
1.91955 -0.1249 3.22318 70 101 94
1.67673 -0.0544496 3.27559 94 147 137
1.16379 -0.0488409 3.34197 102 152 140
1.31937 -0.0545664 3.31523 103 155 145
1.78906 -0.0176327 3.25121 187 218 217
0.0120728 0.0249366 3.4724 75 117 100
1.95477 0.0684521 3.24859 104 120 119
0.0266544 0.0875619 3.45951 141 175 164
-0.0530761 0.109918 3.51319 107 139 128
1.95286 0.13809 3.2186 153 164 162
1.94416 0.19865 3.27277 144 159 162
1.71573 0.220434 3.31476 236 255 252
1.94656 0.25085 3.29459 62 86 76
1.98086 0.25303 3.27578 104 157 137
1.98772 0.279047 3.28295 118 168 150
1.90374 0.3048 3.2947 98 116 115
1.75119 0.335674 3.31883 108 149 142
-0.132425 0.375712 3.59528 174 213 215
0.583111 0.400463 3.4998 147 196 198
1.90784 0.377636 3.31211 56 69 61
1.85876 0.405147 3.31134 64 78 74
1.90863 0.404482 3.31868 76 116 104
0.228315 0.460188 3.52921 76 93 82
1.90674 0.438164 3.33393 84 95 85
0.372941 0.473832 3.52494 218 241 243
0.335739 0.496912 3.52084 151 206 189
0.381017 0.530295 3.54294 89 129 124
0.335399 0.541888 3.55712 95 140 131
0.635993 0.540818 3.51928 221 246 250
1.62819 0.544561 3.38185 218 237 245
1.62819 0.561514 3.38308 61 105 99
1.69153 0.564277 3.37644 76 100 92
1.86748 0.59139 3.36354 119 160 153
0.71746 0.669579 3.53058 78 107 92
1.56219 0.645115 3.38973 112 144 139
1.98671 0.636559 3.37366 86 109 101
1.2731 0.660478 3.43314 94 128 121
1.56669 0.649847 3.39948 147 180 173
0.619538 0.709692 3.54991 78 91 99
1.43148 0.687362 3.40019 73 113 102
1.37201 0.696636 3.42458 209 229 234
1.39293 0.693228 3.39005 112 136 134
1.43685 0.691617 3.40873 74 104 91
1.52474 0.693085 3.41061 87 96 100
0.845375 0.727992 3.51882 146 178 183
0.928541 0.713666 3.47507 172 216 210
1.47452 0.703244 3.41703 191 226 229
1.40382 0.705601 3.41481 61 82 83
0.958501 0.730242 3.48219 75 101 95
1.06163 0.728754 3.47428 146 203 178
0.976668 0.728761 3.45279 140 180 175
1.6936 0.721013 3.41038 130 161 160
0.730266 0.751738 3.53109 161 209 203
0.855021 0.750379 3.51651 77 99 94
1.64687 0.735713 3.41529 72 106 99
1.64902 0.739548 3.42287 49 80 71
1.3711 0.756171 3.43059 64 78 76
1.58949 0.768738 3.41627 52 74 69
1.34873 0.785534 3.42873 207 229 234
1.64086 0.784429 3.41 62 85 71
1.46537 0.805287 3.45521 150 185 195
1.93227 0.786467 3.3658 77 108 99
0.8726 0.824484 3.52542 144 191 182
1.4291 0.823095 3.44501 104 119 121
1.91236 0.817696 3.40565 105 127 125
1.03772 0.849447 3.48515 142 216 188
1.52321 0.838037 3.45218 204 227 229
0.605188 0.869676 3.53723 125 181 162
0.660807 0.863456 3.51745 139 198 183
1.54206 0.845702 3.44925 52 81 72
1.0453 0.858744 3.50263 90 155 130
0.610654 0.898 3.56192 44 68 56
0.53395 0.909524 3.58692 98 115 101
