ply
format ascii 1.0
element vertex 1202
property float x
property float y
property float z
property uchar blue
property uchar green
property uchar red
end_header
-2.91647 -2.90428 7.49012 147 217 204
-1.3383 -1.31675 3.46981 52 120 125
0 0 0 73 115 192
-4.05015 -2.67194 7.64726 135 155 180
-1.96083 -1.1207 3.64428 167 223 224
0 0 0 96 122 199
-9.0582 -5.44607 18.3747 75 116 195
8.37836 4.70668 -16.9298 76 101 181
0.570414 -0.956924 3.4546 152 221 184
-2.20487 -1.16144 4.20213 168 185 188
-1.71039 -0.945687 3.47299 142 198 255
0.428833 -0.926958 3.46323 83 127 114
0.429032 -0.900495 3.46916 124 180 157
0.476522 -0.900482 3.47009 173 227 220
0.403153 -0.899179 3.47985 210 232 238
0.609012 -0.885849 3.46834 161 211 207
0 0 0 105 119 177
0.544519 -0.853989 3.46691 110 151 144
0.143094 -0.841838 3.50669 78 140 110
0.525741 -0.825165 3.47283 186 230 217
0 0 0 81 118 200
0.656432 -0.79824 3.49012 86 147 121
0.254075 -0.767317 3.50632 232 242 242
0 0 0 79 103 191
0.480038 -0.751869 3.48775 116 145 159
14.2784 6.01754 -29.0011 59 100 185
12.831 5.30663 -26.0631 69 121 198
0.143229 -0.703601 3.53026 85 131 109
-2.76701 -1.35865 6.87491 135 190 235
0 0 0 214 226 226
10.0621 3.94717 -20.4448 78 106 183
-1.6629 -0.825831 4.34255 52 116 127
0.946675 -0.616842 3.45953 157 223 182
0.948266 -0.616377 3.46369 162 225 183
0.950842 -0.609551 3.46385 127 170 127
0.77774 -0.590649 3.47666 157 209 172
0.499098 -0.554741 3.37965 248 248 248
0.896511 -0.546334 3.47273 66 126 96
-0.194038 -0.544126 3.58786 85 160 139
0.832964 -0.51799 3.47857 108 176 135
0.775335 -0.496951 3.48481 129 195 153
0.776466 -0.496654 3.48682 130 194 152
-1.9119 -0.507648 3.72695 125 160 146
-1.91076 -0.502478 3.72518 78 115 107
0.913462 -0.458882 3.49629 109 155 163
0.843061 -0.443849 3.49663 140 200 169
0.766321 -0.405442 3.50468 100 155 130
0.514201 -0.376678 3.51454 58 83 69
0.147557 -0.368698 3.57244 94 154 146
0.484196 -0.333355 3.5529 219 233 229
0.459808 -0.325601 3.54761 79 96 135
0.517632 -0.22669 3.55064 129 170 155
0.891496 -0.205919 3.53103 157 218 192
0.892828 -0.205376 3.53342 152 216 187
0.506633 -0.197606 3.55428 165 210 183
0.0471286 -0.177423 3.60191 70 132 120
1.22286 -0.170505 3.51657 70 119 97
0.855917 -0.129265 3.54573 83 147 111
-0.392033 -0.0988918 3.64813 73 138 106
0.452322 -0.0797229 3.57618 85 105 100
0.954446 0.135573 3.57612 126 148 130
1.2658 0.136424 3.54897 217 208 198
1.52568 0.247414 3.56667 229 235 234
1.15189 0.310602 3.5999 84 121 87
0.949662 0.316393 3.61133 88 120 85
-0.417921 0.353639 3.71647 165 230 221
0.942578 0.480098 3.64025 75 136 108
0.531181 0.70393 3.69149 93 131 119
0.394547 1.02148 3.7642 142 186 163
2.10516 1.11206 3.68524 43 83 48
-0.134027 -1.33535 -3.45634 85 144 106
1.07443 -1.29898 3.37439 93 132 130
-1.04586 -1.32908 3.56262 94 135 120
-2.7657 -2.28227 6.37743 138 160 231
0 0 0 78 107 192
15.0538 9.71003 -30.3771 90 109 196
-0.22693 -1.1152 3.53822 190 244 244
1.95277 -0.978309 3.33097 102 164 124
-1.52335 -1.0447 3.59972 121 170 214
-1.54045 -1.02943 3.58162 153 164 226
-1.50277 -0.99205 3.49613 154 173 234
0.463647 -0.945111 3.46276 71 100 104
0.284504 -0.938253 3.47532 94 131 121
0.374743 -0.916622 3.47694 161 201 196
0.376424 -0.911788 3.47543 121 151 152
0.527139 -0.904134 3.46634 113 165 147
0.166881 -0.906497 3.494 220 249 254
0.419355 -0.895315 3.46938 105 136 129
-6.41809 -3.76335 14.832 134 156 227
0.644519 -0.867931 3.47672 86 127 119
1.98596 -0.828442 3.3615 116 167 130
0.543185 -0.853577 3.46604 103 150 142
-0.121832 -0.860086 3.54602 196 248 231
1.98769 -0.813787 3.36159 86 130 99
-1.18024 -0.855853 3.61507 203 248 231
0.166636 -0.827203 3.50469 93 136 133
-1.67305 -0.816192 3.47821 169 192 240
0.519498 -0.816362 3.46983 93 123 110
0.466587 -0.818754 3.48856 95 122 118
0.630798 -0.817139 3.48148 191 244 230
0.583926 -0.800869 3.48277 212 252 234
0.59027 -0.794383 3.48217 98 155 130
-0.0810836 -0.781221 3.54673 210 245 241
0.253403 -0.767462 3.50419 237 250 252
-2.11645 -0.932751 4.30017 147 199 255
0.462511 -0.750645 3.49308 119 150 147
0.135742 -0.719699 3.51914 60 105 86
-0.434506 -0.729833 3.57897 202 251 249
0.764938 -0.671314 3.44758 113 118 117
0.314767 -0.657948 3.51612 122 136 130
0.763798 -0.650429 3.47287 148 123 119
0.359597 -0.654393 3.51232 142 178 186
0.954563 -0.632774 3.44941 71 127 92
0.319644 -0.640511 3.515 103 117 106
1.11069 -0.61216 3.45361 120 194 152
0.992569 -0.611364 3.45739 138 201 161
1.20225 -0.568676 3.45571 123 194 168
0.949061 -0.56988 3.46841 77 141 106
0.905068 -0.550438 3.4696 75 137 91
0.874473 -0.541364 3.47486 90 144 115
0.170876 -0.54811 3.53865 99 143 150
2.00602 -0.488017 3.4061 151 187 157
0.808969 -0.485922 3.48525 59 123 87
0.779684 -0.485493 3.4985 150 223 177
0.607223 -0.455725 3.51539 144 156 196
1.12968 -0.434372 3.48074 55 120 88
0.123772 -0.427378 3.56361 98 140 133
0.0935365 -0.42666 3.5663 148 207 186
0.634688 -0.404392 3.51188 125 160 156
0.640759 -0.392237 3.52477 89 136 127
0.574162 -0.383286 3.52351 172 233 213
0.511587 -0.375784 3.51236 60 80 68
0.450143 -0.327386 3.53743 119 147 178
0.478689 -0.306326 3.55621 154 186 222
0.136326 -0.265132 3.57917 81 146 121
1.0628 -0.240383 3.51646 178 242 206
0.918063 -0.228353 3.52601 105 151 132
0.329472 -0.231312 3.5678 165 184 205
0.408582 -0.207989 3.57237 194 209 218
2.05968 -0.161242 3.42591 157 196 241
0.0316469 -0.160515 3.60403 65 124 104
0.135795 -0.149281 3.59115 55 108 88
0.454409 -0.0856072 3.58719 238 255 255
0.292421 -0.0804331 3.59466 114 169 150
0.452486 -0.0784254 3.58123 77 99 94
0.23392 -0.0778621 3.60337 97 140 129
0.492805 -0.0371947 3.58335 134 191 166
0.500088 -0.0346997 3.58368 153 195 178
0.192441 0.0563465 3.61934 163 227 205
0.508114 0.0778942 3.59405 132 173 158
1.35448 0.109033 3.51891 116 105 108
0.956142 0.126263 3.58008 78 122 81
0.948846 0.155989 3.5744 98 107 86
0.827286 0.226184 3.59709 93 147 130
1.43841 0.229472 3.55992 125 192 153
1.52287 0.246201 3.56262 249 251 251
1.50437 0.250775 3.55796 240 253 251
-0.418345 0.352575 3.71356 167 235 224
0.91188 0.559918 3.65597 143 199 178
0.716079 0.620452 3.67446 111 167 156
0.664025 0.686559 3.69754 83 137 108
0.788122 0.765136 3.69329 70 128 110
0.789304 0.765801 3.69468 81 128 112
0.179056 -1.31794 3.45739 98 129 162
0.576557 -1.29943 3.42954 89 158 138
-1.04488 -0.906864 2.43373 145 158 226
0.356739 -1.2843 3.44319 125 161 191
-1.04844 -1.32758 3.56707 80 126 113
0.331561 -1.28036 3.44497 219 245 252
-1.66289 -1.40713 3.85012 145 170 234
-1.04591 -0.845588 2.44057 158 175 231
0.288166 -1.19887 3.4612 129 220 194
-0.13002 -1.21355 3.52535 220 251 252
-2.83903 -2.17369 6.55496 157 169 233
-0.154409 -1.16255 3.52896 190 252 234
1.16202 -1.10977 3.39008 89 152 142
-1.49922 -1.09126 3.48483 162 166 217
-1.75019 -1.08184 3.47206 132 175 242
0.273773 -1.07174 3.47916 94 154 124
0.211076 -1.06039 3.4803 99 131 107
-1.53939 -1.08131 3.57883 158 166 226
0.435172 -1.03069 3.462 84 150 125
0.598106 -1.02682 3.45867 73 109 97
1.95444 -0.978291 3.33423 117 179 139
0 0 0 166 172 201
0.247536 -1.00169 3.47555 106 152 133
-0.243512 -1.02101 3.54783 198 240 245
0.418404 -0.981869 3.45755 94 151 126
0.307734 -0.982662 3.47114 86 122 110
0.118353 -0.981158 3.49513 99 161 143
0.251136 -0.974115 3.4693 81 132 112
-1.50378 -0.979148 3.49729 146 165 233
0.249038 -0.972438 3.47473 85 124 109
0.590086 -0.966116 3.45614 92 147 128
0.411897 -0.962162 3.45916 171 228 213
0.393343 -0.961193 3.46084 118 155 145
0.66308 -0.96184 3.46578 71 129 105
0.474667 -0.9545 3.45436 73 116 105
0.463485 -0.945113 3.46267 71 100 104
-1.70946 -0.945697 3.47233 137 199 255
-1.72712 -0.944963 3.4806 150 174 220
1.88584 -0.910117 3.3523 68 127 96
0.445494 -0.92258 3.46711 173 222 206
0 0 0 150 167 230
-1.67223 -0.915298 3.46805 146 184 242
0.162878 -0.921034 3.49286 202 244 243
0.318813 -0.918929 3.48283 107 142 146
-0.841421 -0.942286 3.58704 221 255 255
0.136353 -0.922281 3.50129 64 100 88
0.425311 -0.912486 3.46544 139 194 175
0.49367 -0.906701 3.4579 147 202 185
5.51061 2.71249 -10.382 169 195 211
0 0 0 139 161 227
-1.6691 -0.902277 3.46672 151 182 243
0.415209 -0.902075 3.4731 153 191 191
0.564322 -0.899522 3.46031 66 95 79
0.166941 -0.906495 3.49406 220 249 254
-1.69376 -0.890106 3.4772 78 113 193
0.354068 -0.893448 3.48338 211 237 244
0 0 0 100 111 169
0.416655 -0.887907 3.47706 184 214 225
0.455902 -0.886645 3.47451 93 132 117
1.98841 -0.853363 3.35315 75 125 93
0.465082 -0.864705 3.4709 175 216 211
0.601237 -0.86526 3.47072 90 123 116
0.149881 -0.870005 3.50119 99 164 143
0.319918 -0.859495 3.48827 211 237 249
0.769483 -0.858145 3.48208 169 239 209
1.9868 -0.828375 3.36279 111 160 122
-6.10572 -3.47381 14.1171 144 163 231
0.497122 -0.855344 3.47141 95 113 112
-1.67207 -0.852327 3.47312 163 198 241
0.560762 -0.847701 3.46935 83 131 119
0.722633 -0.853483 3.47963 76 148 128
0.643072 -0.847819 3.47753 89 151 133
0.799683 -0.848296 3.47619 161 238 210
0.396283 -0.845929 3.48569 217 243 250
0.52866 -0.843039 3.47301 85 119 112
-0.0946195 -0.85541 3.54365 171 224 204
1.98639 -0.813898 3.35962 104 148 117
0.32345 -0.837767 3.49107 110 149 147
-2.83485 -1.62006 6.76943 56 65 128
-1.67197 -0.828101 3.47394 157 187 244
0.594387 -0.827844 3.47441 84 142 124
0.344469 -0.829134 3.4938 149 175 175
0.167491 -0.827167 3.50529 97 141 135
0.405517 -0.823976 3.48976 228 250 255
-1.67177 -0.816287 3.4764 160 187 243
-10.5044 -5.7045 24.2832 148 157 225
0.587919 -0.815313 3.47656 89 133 120
0.630988 -0.817062 3.48296 185 240 225
-1.02906 -0.841657 3.60636 215 249 242
0.141805 -0.817113 3.50858 78 127 111
0.58183 -0.812633 3.47859 95 135 123
-1.51973 -0.826372 3.58887 145 149 177
0.590582 -0.794324 3.48316 97 155 131
0.917481 -0.791337 3.46798 95 151 146
-1.6746 -0.791335 3.48068 149 181 234
0.575256 -0.791995 3.48569 107 147 129
0.161049 -0.794045 3.50138 151 225 189
0.130255 -0.790283 3.51171 77 130 116
0.522741 -0.780583 3.47869 109 156 147
0.190457 -0.784649 3.50767 128 176 182
0.486284 -0.777882 3.48968 91 111 112
-1.67493 -0.765638 3.48229 149 188 240
0 0 0 131 149 226
-1.30324 -0.807187 3.66959 81 149 124
-0.080017 -0.781198 3.54696 214 246 245
-0.576174 -0.771259 3.58964 136 172 202
0.146301 -0.755589 3.51727 141 215 179
0.462947 -0.750841 3.49022 128 153 155
0 0 0 146 157 225
0.471403 -0.743162 3.49457 114 140 147
0.45795 -0.740587 3.4921 127 153 177
0.466521 -0.735019 3.48996 195 232 246
-4.17255 -2.02352 9.67876 124 146 217
0.291672 -0.727251 3.50486 181 179 178
0.127039 -0.728492 3.52607 69 136 115
0.469796 -0.722403 3.5009 157 182 202
0.353083 -0.703721 3.49556 110 90 85
-1.70091 -0.702351 3.50144 74 95 180
-1.43185 -0.742371 3.70024 108 178 171
0.143112 -0.700658 3.54192 63 125 101
-1.70075 -0.690109 3.50285 76 102 186
-1.84774 -0.693189 3.55176 150 190 219
0.121725 -0.686087 3.54308 87 140 130
0.490978 -0.67467 3.49752 162 212 200
-0.353687 -0.685741 3.59017 226 253 250
0.359448 -0.654473 3.51151 142 178 186
0.34586 -0.647234 3.50876 160 201 193
1.54793 -0.630419 3.42187 119 201 158
0.317946 -0.641147 3.50886 101 121 109
0.955021 -0.632551 3.45151 71 127 92
1.90454 -0.62231 3.39668 106 155 117
0.949198 -0.630937 3.45954 150 215 166
0.859817 -0.627739 3.46951 124 184 150
1.24149 -0.62439 3.4453 127 186 148
-1.74896 -0.632454 3.5176 168 213 250
1.89384 -0.611153 3.40052 119 183 147
0.869561 -0.620104 3.46714 132 190 155
1.04609 -0.613983 3.45655 61 117 88
1.11055 -0.612147 3.45375 112 185 145
0.297174 -0.622952 3.52549 208 239 242
0.778333 -0.612951 3.46955 84 111 95
0.995899 -0.611406 3.46078 160 225 180
-1.70393 -0.61664 3.51443 68 93 173
1.0139 -0.601196 3.4662 69 112 85
1.30802 -0.597588 3.44479 61 125 96
0.988893 -0.59684 3.46119 72 124 94
0.286134 -0.597419 3.52482 182 205 220
0.774887 -0.59093 3.47403 169 226 187
1.2094 -0.585635 3.44863 53 88 61
1.34405 -0.582374 3.45007 148 187 171
0.937375 -0.582496 3.46801 61 114 81
0.970104 -0.569682 3.46354 158 240 197
1.66307 -0.556763 3.42208 55 116 78
0.101418 -0.573569 3.54748 148 225 181
0.326796 -0.567608 3.52974 162 182 199
0.905919 -0.548559 3.47617 80 137 99
0.901031 -0.547157 3.47718 48 93 76
1.84256 -0.537593 3.41273 74 135 97
0.862408 -0.544994 3.48623 79 135 106
0.170999 -0.548163 3.53822 99 143 150
1.2753 -0.529589 3.46017 90 156 131
2.03741 -0.519772 3.40452 157 173 172
1.02187 -0.513228 3.47283 129 203 155
0.3272 -0.512957 3.54298 160 177 190
0.825868 -0.500158 3.48511 83 150 111
2.00993 -0.488131 3.40854 160 198 170
0.155452 -0.50789 3.54591 115 169 156
1.24256 -0.494942 3.46753 73 125 102
1.76728 -0.490708 3.42631 84 136 106
0.327316 -0.48547 3.53323 102 114 120
0.323548 -0.48501 3.5366 147 185 187
0.875526 -0.474568 3.4845 116 178 132
0.985144 -0.474245 3.48649 45 102 71
0.866671 -0.469544 3.49083 28 80 56
0.91051 -0.461247 3.49651 83 133 123
-0.228564 -0.471843 3.59698 194 238 237
0.557372 -0.451471 3.51679 115 118 116
0.924922 -0.450001 3.49113 85 149 119
0.561668 -0.440779 3.51641 236 248 248
-0.164007 -0.441422 3.59849 236 255 255
0.306624 -0.437751 3.54608 182 219 227
-1.8584 -0.453679 3.71542 59 134 118
0.141657 -0.433298 3.55913 93 176 151
1.08957 -0.41086 3.4915 97 148 121
-0.503151 -0.425069 3.61469 74 137 127
0.730555 -0.404074 3.50452 115 179 149
0.637377 -0.399336 3.51846 102 137 127
0.381328 -0.399726 3.55055 123 125 135
0.527821 -0.39614 3.51055 111 150 135
0.135881 -0.400568 3.57443 101 132 125
1.99231 -0.386154 3.41889 164 217 190
0.641177 -0.3925 3.52321 97 144 135
0.723835 -0.386975 3.51701 86 133 111
0.00312349 -0.389746 3.57908 79 138 110
0.573639 -0.383276 3.52359 170 228 210
1.01669 -0.380757 3.50602 147 226 183
0.150822 -0.378274 3.56189 168 227 219
0.487024 -0.375805 3.53963 134 175 177
0.146547 -0.370114 3.56501 89 135 129
0.195889 -0.36931 3.55736 143 191 195
1.62655 -0.352954 3.46237 133 205 175
0.192866 -0.35891 3.56019 165 199 212
0.510191 -0.352827 3.51232 125 172 150
0.590436 -0.347279 3.52902 64 137 97
0.158028 -0.345202 3.57398 111 169 168
1.87379 -0.336075 3.44178 142 201 180
0.302063 -0.342335 3.55236 158 172 190
0.469224 -0.343405 3.53913 86 118 124
0.479151 -0.334891 3.54275 240 255 253
0.345793 -0.330263 3.5578 199 230 239
0.560863 -0.322505 3.5328 159 242 197
1.07083 -0.323145 3.50876 83 139 116
2.04621 -0.310871 3.41098 149 184 218
0.331283 -0.314037 3.55567 152 171 184
0.896017 -0.311291 3.51136 138 172 166
0.333187 -0.310012 3.57654 199 221 233
0.489878 -0.305911 3.55761 79 111 117
0.644733 -0.300132 3.53082 76 123 91
0.482867 -0.291339 3.55339 151 189 213
0.61134 -0.276049 3.54218 73 137 101
0.499626 -0.267273 3.55999 107 124 121
0.601993 -0.257183 3.53399 71 128 89
2.14903 -0.245508 3.4267 212 250 232
0.609311 -0.250395 3.54336 71 122 94
0.33146 -0.249823 3.56935 191 201 211
1.97846 -0.233914 3.45662 129 187 152
0.596656 -0.235923 3.5447 77 117 82
1.09136 -0.235104 3.51792 167 224 209
0.0898061 -0.238344 3.58794 64 130 111
0.487948 -0.23525 3.56597 170 205 238
0.329349 -0.230846 3.57162 160 185 201
0.762979 -0.230309 3.53909 163 236 196
0.917877 -0.227902 3.52143 103 155 131
0.612525 -0.218509 3.55085 52 106 77
0.141094 -0.211641 3.58595 91 143 119
0.0109304 -0.208903 3.5959 56 112 99
0.409937 -0.207646 3.57388 210 229 237
0.402769 -0.200517 3.57073 115 114 134
1.74497 -0.19288 3.47927 79 116 106
-0.407063 -0.193715 3.64202 158 231 199
0.499686 -0.193185 3.5674 137 181 152
0.482786 -0.188251 3.56995 191 219 243
0.831003 -0.181549 3.54012 209 242 235
0.47566 -0.178884 3.56035 129 145 174
2.05515 -0.17113 3.43168 208 227 255
0.480636 -0.17215 3.57727 182 208 225
0.397993 -0.167935 3.57455 206 221 237
0.484641 -0.168903 3.57182 136 160 184
2.06421 -0.159437 3.43328 162 211 255
0.487076 -0.163059 3.56876 175 205 222
0.160828 -0.156125 3.59958 81 132 124
0.48798 -0.147365 3.57481 210 231 246
0.493091 -0.139541 3.57939 114 153 168
0.495886 -0.138817 3.58233 108 140 139
0.960452 -0.131549 3.5343 83 131 103
1.14375 -0.129217 3.52341 90 158 135
2.03077 -0.128376 3.46441 92 140 98
0.358862 -0.108517 3.59473 107 150 169
0.839687 -0.0882451 3.55705 159 229 193
0.750296 -0.0853484 3.56392 76 130 113
0.379175 -0.0832448 3.59061 164 227 211
0.828623 -0.0621509 3.5703 70 127 118
0.449671 -0.0520668 3.58686 71 120 104
0.347324 -0.0451471 3.59711 184 232 234
0.508796 -0.0427921 3.57201 62 99 79
0.500332 -0.0344851 3.58448 152 191 175
0.976078 -0.0248166 3.56171 151 213 189
-0.213869 -0.00283533 3.65255 159 215 204
0.702056 0.00149898 3.57938 192 229 225
2.04263 0.0287777 3.49173 110 161 123
0.921385 0.0499237 3.57201 65 123 99
0.192615 0.0569777 3.6215 173 235 213
0.503066 0.0698886 3.59716 50 68 51
0.992626 0.0678919 3.56636 87 130 109
0.906911 0.0754644 3.57263 153 221 196
0.508368 0.0776622 3.59327 144 187 172
-0.0646077 0.0867962 3.64976 101 150 136
1.01415 0.0966119 3.5611 58 86 56
1.04982 0.116318 3.57152 78 107 84
1.07946 0.118669 3.56171 116 188 146
1.43527 0.11557 3.54431 143 189 160
1.29917 0.117626 3.50447 100 91 88
1.43445 0.123169 3.53556 59 91 72
0.958627 0.128087 3.58586 68 101 67
0.947409 0.13028 3.57713 151 201 169
0.949616 0.156254 3.57521 109 118 97
1.41232 0.16528 3.50275 255 253 253
2.05083 0.186849 3.51238 77 130 86
0.970279 0.195726 3.57922 94 112 95
0.0578036 0.203569 3.6556 213 241 235
1.05082 0.203825 3.57905 58 90 73
1.29353 0.209092 3.56302 57 71 67
1.24136 0.213847 3.56702 85 83 48
0.513221 0.222142 3.61695 132 193 155
1.02876 0.221828 3.59197 108 147 121
1.04552 0.221972 3.5853 157 196 174
1.2445 0.221353 3.56412 153 208 163
1.02736 0.236067 3.58969 104 152 128
1.22742 0.234755 3.57184 129 81 57
0.385256 0.259018 3.64035 61 95 88
1.37229 0.258151 3.53579 144 104 122
1.27683 0.285608 3.55907 250 246 245
1.35413 0.289908 3.56991 109 163 120
1.85583 0.283406 3.54427 86 138 121
1.45267 0.293021 3.56542 84 141 102
1.46051 0.299531 3.58336 73 131 106
1.0288 0.309059 3.59972 131 173 156
1.44537 0.309788 3.57424 130 187 156
1.03071 0.318398 3.60957 49 68 49
1.60024 0.31841 3.56949 157 223 188
1.03023 0.324944 3.60679 82 116 92
0.48637 0.339943 3.64139 54 99 83
1.71218 0.36827 3.56774 94 142 116
0.58706 0.387459 3.63555 75 123 94
0.92135 0.409465 3.63396 80 134 105
0.923814 0.413241 3.6437 82 142 112
1.15642 0.436866 3.62157 60 92 81
0.472259 0.460182 3.66405 75 114 92
-0.880009 0.477141 3.76466 81 117 103
-0.671643 0.446979 3.53616 74 159 121
-0.880281 0.477834 3.76643 79 109 98
-0.886605 0.4807 3.75767 160 215 198
-0.840288 0.484379 3.75694 131 187 166
-0.855991 0.48687 3.76233 110 139 116
-0.903466 0.515675 3.7859 73 102 77
2.08793 0.507268 3.54733 45 53 66
-0.91597 0.544579 3.77023 115 168 148
0.394612 0.545445 3.68939 62 98 82
0.474148 0.594005 3.67302 133 180 188
-0.889138 0.627455 3.77894 66 95 79
0.876902 0.607655 3.66001 85 147 123
-0.866343 0.65635 3.78016 63 118 103
2.09581 0.639072 3.5848 133 201 178
0.663369 0.685066 3.69427 83 137 108
0.515198 0.702525 3.70978 220 241 233
0.161878 0.750322 3.72545 92 158 129
0.51767 0.752818 3.71694 115 164 148
-0.125614 0.773589 3.76623 189 227 231
0.788934 0.765309 3.69365 81 128 112
0.948975 0.826812 3.69583 65 124 96
0.161856 0.847381 3.74254 82 145 113
0.515742 0.844034 3.73836 45 91 79
0.363697 0.983227 3.7562 64 127 95
0.399642 1.041 3.76263 84 123 101
0.26215 1.09902 3.77755 159 229 193
0.40675 1.11915 3.76831 73 111 81
0.383667 1.18329 3.78072 85 133 109
0.369395 -1.28888 3.44329 120 163 182
0.4042 -1.29097 3.44078 215 243 254
1.87045 -1.24129 3.30973 70 110 85
1.964 -1.22359 3.30636 111 164 131
1.08709 -1.24414 3.38252 90 149 129
-1.50073 -1.2161 3.46668 105 131 207
-0.130332 -1.21359 3.52499 220 251 252
1.96581 -1.14032 3.31468 109 155 132
-2.81632 -2.23079 6.57976 92 99 156
1.53203 -1.12836 3.35523 61 81 58
-2.71942 -2.23033 6.72368 69 95 171
-2.10956 -1.19132 3.632 103 140 124
1.87189 -1.07337 3.31707 69 121 104
-1.30141 -1.15836 3.61509 40 91 64
-2.05218 -1.1557 3.62443 91 133 116
-1.29805 -1.14756 3.62029 59 94 80
-1.52576 -1.06806 3.4789 107 131 207
1.27969 -1.04156 3.39039 162 209 206
-2.09085 -1.10767 3.65757 76 109 94
-2.10133 -1.09815 3.6549 82 134 111
-0.147828 -1.04114 3.53627 219 252 248
0.249964 -0.980515 3.49341 100 140 122
0.663208 -0.961836 3.46601 69 125 104
0.552595 -0.948018 3.45487 91 140 124
0.268036 -0.951167 3.47427 171 224 215
0.319996 -0.948567 3.46857 77 127 103
0.428834 -0.943947 3.4612 67 115 91
0.471076 -0.937543 3.44528 153 234 195
-0.0911262 -0.960597 3.5369 69 125 106
0.385415 -0.936904 3.46646 75 115 97
0.105076 -0.943069 3.5003 213 234 231
-0.58831 -0.959992 3.57037 145 190 223
0.170099 -0.936163 3.4881 179 234 231
0.2015 -0.934703 3.48847 79 117 105
0.174749 -0.93054 3.49343 209 247 252
0.282095 -0.922926 3.48545 221 242 250
0.151673 -0.918434 3.49771 82 135 121
0.393789 -0.906189 3.47568 178 219 221
0.610392 -0.892847 3.46542 83 118 108
0.434576 -0.892823 3.47721 55 63 53
0.416825 -0.887848 3.4789 193 221 228
0 0 0 96 97 153
0.316867 -0.889501 3.49162 126 158 164
0.426053 -0.875056 3.47828 160 199 207
-1.45305 -0.915102 3.67301 133 178 251
0.21863 -0.868025 3.49538 98 136 140
0.207984 -0.86579 3.49421 207 241 247
0.560883 -0.847669 3.47007 93 143 133
0.507949 -0.84039 3.46412 110 151 130
0.323451 -0.837767 3.49106 110 149 147
0.340359 -0.838481 3.49417 205 238 247
0.438165 -0.834188 3.48053 145 162 183
0.476224 -0.836002 3.47973 98 119 120
0.676046 -0.822523 3.48533 88 139 125
0.727222 -0.813794 3.4811 85 134 120
-1.5219 -0.826129 3.5939 147 150 178
0.140566 -0.805469 3.51093 144 227 189
0.583631 -0.800911 3.48206 212 252 234
-1.53259 -0.82485 3.62032 147 151 186
-0.583499 -0.809516 3.58018 133 191 210
0.484585 -0.774795 3.4855 111 139 139
0.451559 -0.763536 3.51293 233 246 254
-0.575251 -0.771302 3.58891 130 170 189
0 0 0 99 176 169
0.457756 -0.740721 3.49029 127 153 177
0.466686 -0.732624 3.50013 225 247 255
0.469903 -0.722372 3.50129 157 182 202
0.212902 -0.702988 3.52319 204 211 206
0.398521 -0.684814 3.4969 224 212 202
3.76146 1.69852 -8.89161 181 232 255
-0.353496 -0.685929 3.58803 227 251 251
0.358321 -0.654579 3.51052 141 169 170
0.162121 -0.656951 3.51916 192 223 248
1.01123 -0.636396 3.45948 125 185 144
1.99081 -0.624287 3.38097 112 186 134
0.318809 -0.640642 3.51319 103 122 113
1.88806 -0.61354 3.39842 134 193 162
0.776846 -0.613321 3.4663 87 120 99
1.36688 -0.607081 3.45103 49 78 55
0.849673 -0.599851 3.46798 68 119 85
1.01383 -0.601371 3.46465 65 107 82
1.75783 -0.581114 3.40612 64 116 86
1.88199 -0.582061 3.39783 54 85 54
0.285924 -0.597332 3.52561 182 205 220
1.20985 -0.585403 3.45058 48 84 60
1.46938 -0.579238 3.43953 162 218 197
1.76513 -0.573505 3.41 123 215 166
1.63972 -0.568595 3.42323 66 131 105
-1.42002 -0.614903 3.71793 81 128 172
0.937569 -0.572004 3.47127 136 212 171
1.32853 -0.569325 3.45432 58 116 87
0.914413 -0.566677 3.47304 44 87 66
0.887213 -0.563885 3.47152 61 122 88
1.04736 -0.563094 3.46707 38 79 48
1.98321 -0.51896 3.40192 156 206 166
0.860555 -0.519264 3.47976 66 119 92
0.884506 -0.51671 3.48195 71 142 102
0.78177 -0.49883 3.47666 78 132 95
1.90891 -0.487834 3.41483 129 193 157
0.784285 -0.497315 3.48716 86 148 108
-1.64272 -0.503983 3.72352 114 201 157
0.352552 -0.479034 3.52935 143 165 171
0.852976 -0.469362 3.50065 157 229 206
1.01198 -0.464177 3.48264 140 203 161
0.360916 -0.467155 3.53684 222 240 251
0.608509 -0.463238 3.51843 227 241 247
0.608704 -0.463978 3.51352 247 255 255
0.90805 -0.460863 3.49352 83 133 123
1.00227 -0.458903 3.48643 70 105 85
0.426 -0.461404 3.52774 125 111 89
0.130504 -0.452714 3.56164 215 253 255
0.421327 -0.442496 3.53115 148 129 96
0.148633 -0.442161 3.55247 244 255 255
0.563072 -0.439817 3.50976 248 255 255
0.977509 -0.436009 3.48633 68 117 89
0.539284 -0.437966 3.51176 255 255 255
-0.163767 -0.441505 3.59794 236 255 255
-1.85779 -0.453866 3.71415 59 134 118
0.748371 -0.426016 3.50151 245 253 252
1.88456 -0.414384 3.42733 59 88 65
-0.503499 -0.42495 3.61544 76 137 127
0.142228 -0.422509 3.55542 208 255 250
1.09018 -0.410525 3.49349 97 148 121
0.136818 -0.400365 3.57561 86 124 112
2.00866 -0.379263 3.42784 94 135 114
0.63831 -0.381759 3.50348 166 231 215
0.149775 -0.389606 3.55493 127 199 176
0.643017 -0.37753 3.52743 186 231 222
0.612224 -0.37348 3.51806 75 132 111
0.513409 -0.368683 3.53195 46 60 48
1.23618 -0.35797 3.49087 210 243 228
0.192421 -0.360248 3.55276 168 207 216
0.491513 -0.355393 3.54193 76 117 110
0.545635 -0.349866 3.5194 64 107 86
0.450555 -0.346383 3.54355 151 190 212
0.326058 -0.345289 3.56179 166 180 192
0.410485 -0.344244 3.54885 150 130 113
0.34545 -0.330641 3.5558 201 233 244
2.04349 -0.317879 3.414 54 62 99
1.62306 -0.317898 3.46765 79 158 131
2.0821 -0.312358 3.42298 186 221 211
0.898775 -0.311731 3.51725 119 162 149
2.03056 -0.308978 3.43836 106 170 124
2.04906 -0.295841 3.40532 199 233 255
1.08034 -0.299622 3.51118 68 144 112
0.377302 -0.289795 3.56588 104 105 131
2.02705 -0.275504 3.42808 78 128 86
0.119592 -0.274902 3.57877 79 136 111
0.888634 -0.26466 3.5212 70 134 104
0.601311 -0.257884 3.53066 72 132 92
2.0854 -0.250783 3.432 131 183 159
0.604576 -0.25429 3.54775 58 104 75
1.07153 -0.246856 3.51679 82 137 110
0.487174 -0.232181 3.5638 197 224 251
0.329482 -0.231217 3.56989 160 185 201
0.428386 -0.219598 3.5672 223 244 252
0.343342 -0.210675 3.57095 116 142 158
0.398878 -0.212622 3.57248 115 112 114
0.99836 -0.209556 3.52457 76 132 113
0.410224 -0.208164 3.56777 197 216 224
0.901717 -0.199228 3.53789 54 112 84
1.74435 -0.193176 3.47799 79 116 106
0.482904 -0.188492 3.56888 191 219 243
-0.447143 -0.181182 3.64714 78 130 112
1.22113 -0.170135 3.51575 70 119 97
1.76904 -0.160937 3.479 78 140 118
0.03233 -0.160498 3.60448 67 123 102
2.05178 -0.153021 3.43114 178 202 244
0.377422 -0.151491 3.57886 98 100 110
1.14226 -0.129558 3.52207 94 162 139
2.01825 -0.122361 3.45507 97 148 110
0.497157 -0.12221 3.58003 198 229 244
2.08792 -0.110484 3.46017 71 99 134
0.357337 -0.109409 3.58714 114 159 180
0.364807 -0.104807 3.58164 205 240 255
0.168319 -0.0849105 3.5975 202 228 234
0.231293 -0.0727701 3.60104 96 138 127
0.448008 -0.0728689 3.59478 68 88 83
0.503593 -0.0502168 3.58857 160 211 177
0.298805 -0.00336855 3.60127 92 138 116
0.702364 0.00162399 3.57982 192 229 225
1.03292 0.000407032 3.56089 93 163 127
0.53139 0.00483682 3.59113 136 193 160
2.16729 0.00271986 3.47333 210 249 228
1.01996 0.0076681 3.54794 145 219 183
2.00819 0.0123646 3.4864 70 110 85
2.06993 0.0355672 3.46699 189 231 255
1.00649 0.051152 3.56367 141 216 172
2.21263 0.0850491 3.49211 194 228 217
1.41304 0.0955544 3.50572 79 88 67
1.2915 0.119716 3.55416 79 85 80
0.965516 0.121295 3.58037 143 207 165
1.02448 0.123466 3.56782 130 176 153
1.05408 0.128264 3.57345 165 225 214
1.03275 0.134653 3.57342 49 81 57
1.43649 0.133914 3.54903 118 175 144
0.940128 0.14019 3.57382 49 78 55
1.03081 0.148383 3.57753 147 206 185
2.02253 0.151695 3.50682 84 124 99
1.43186 0.171526 3.50376 136 102 79
2.05154 0.187529 3.51441 79 137 89
2.04536 0.18672 3.51396 109 164 117
1.62457 0.193157 3.54858 75 134 106
1.28957 0.206838 3.55642 57 69 57
1.02807 0.217796 3.58865 91 138 112
0.806178 0.227929 3.60045 82 155 117
1.02931 0.23876 3.59377 108 176 145
0.495269 0.249729 3.61571 55 112 81
0.385104 0.257898 3.63711 70 99 90
0.80196 0.255518 3.61154 184 239 222
1.30803 0.25595 3.5539 140 149 136
1.37351 0.256941 3.53487 134 94 105
1.18495 0.259475 3.5444 255 255 255
1.51036 0.258641 3.56116 138 164 151
1.35415 0.290135 3.57055 106 159 119
1.30517 0.290444 3.55325 121 87 74
0.528747 0.302947 3.59715 178 202 190
1.15318 0.297494 3.58789 88 113 87
1.44449 0.301436 3.57357 40 69 43
2.0427 0.300967 3.53812 139 189 159
2.06596 0.303872 3.536 80 122 87
1.44552 0.311894 3.57616 111 166 133
1.02952 0.324342 3.60515 82 116 92
2.08428 0.32417 3.51604 151 187 225
0.487049 0.342142 3.64737 73 122 108
1.7122 0.368344 3.56794 94 142 116
1.43697 0.374714 3.5758 46 90 61
2.06444 0.379707 3.5528 120 180 139
1.43333 0.398702 3.58965 78 135 104
-0.887349 0.480924 3.75824 160 220 202
-0.895478 0.496184 3.76562 57 92 65
-0.900685 0.507315 3.76358 134 194 170
2.03216 0.493171 3.56686 176 230 200
0.394305 0.543956 3.68583 52 86 69
-0.892258 0.586306 3.79052 65 86 64
-0.894904 0.586906 3.75766 105 172 145
0.476584 0.599217 3.68502 151 198 202
0.875662 0.625647 3.6741 79 130 110
1.99716 0.611773 3.5998 56 107 73
1.63377 0.646811 3.62608 79 137 119
2.10079 0.65935 3.56838 162 210 222
0.396738 0.68556 3.70727 40 89 67
2.09676 0.6685 3.58182 27 43 55
0.280317 0.73084 3.72614 236 255 255
0.745451 0.721087 3.69389 76 131 116
0.921089 0.720768 3.67852 74 141 110
0.798352 0.811403 3.71346 94 142 136
0.949364 0.827088 3.69638 58 119 91
2.09868 0.870344 3.63278 53 89 53
0.443169 0.926048 3.73682 142 202 184
0.403929 0.975103 3.74678 83 103 90
0.26215 1.09902 3.77755 159 229 193
0.394063 1.11734 3.78364 58 88 63
0.404055 1.1263 3.77546 61 91 62
0.518315 1.19464 3.79321 182 220 224
0.37 -1.28894 3.44408 121 165 182
-1.07116 -1.31678 3.56356 94 160 148
-2.73541 -2.56814 7.05195 77 122 149
-1.46147 -1.27665 3.53129 89 106 162
1.91852 -1.14919 3.32198 65 114 94
1.54512 -1.14992 3.35461 117 172 147
1.54983 -1.1359 3.35818 51 70 51
-0.0776748 -1.18195 3.51729 211 240 237
-2.07513 -1.20587 3.63579 87 120 113
-1.4759 -1.17574 3.63828 187 234 255
1.97102 -1.04908 3.31955 139 184 168
1.93914 -1.04462 3.33483 82 121 106
-2.05577 -1.12952 3.65114 66 108 97
-2.10229 -1.0982 3.6571 90 139 119
0.542182 -1.02517 3.45045 86 122 98
-0.244659 -1.01915 3.54615 191 230 238
-1.29768 -1.03157 3.63274 58 109 89
-0.583431 -0.987605 3.5715 141 195 220
0.315091 -0.957849 3.47606 87 123 106
0.449284 -0.949235 3.44652 82 122 104
0.267634 -0.951131 3.47721 171 227 216
0.554082 -0.94793 3.46039 82 128 115
1.89576 -0.920776 3.36593 67 95 75
-0.518261 -0.967253 3.56628 140 194 211
0.313656 -0.938307 3.48032 202 237 241
-0.58825 -0.959955 3.57343 158 195 233
0.170732 -0.936086 3.49215 195 238 241
0.201725 -0.934772 3.48459 68 109 94
1.95387 -0.898949 3.35184 59 73 49
0.262191 -0.922372 3.48242 207 239 245
0.136914 -0.922542 3.50105 68 104 90
0.385991 -0.917846 3.4844 75 114 106
0.371979 -0.907976 3.49865 123 153 164
0.579812 -0.890252 3.46196 60 93 78
0.433877 -0.892868 3.47591 55 63 53
0.482347 -0.877478 3.46396 194 230 230
0.547232 -0.874439 3.46816 193 232 230
0.691325 -0.865062 3.47772 63 112 96
0.561129 -0.84765 3.47046 86 136 126
0.427984 -0.839202 3.48821 199 227 234
0.34166 -0.838547 3.49249 201 233 244
0.204467 -0.820176 3.506 232 249 255
0.467866 -0.814919 3.48197 102 124 129
-1.02999 -0.842339 3.614 215 249 239
0.142164 -0.817309 3.50474 71 120 106
0.586723 -0.813496 3.48397 97 137 125
0.56219 -0.801825 3.47946 202 254 244
0.483777 -0.794436 3.48698 111 130 133
-0.582123 -0.811762 3.58759 145 206 220
0.322027 -0.787685 3.5004 233 247 246
0.449006 -0.765048 3.49042 251 252 255
0.436175 -0.755083 3.49773 150 168 185
3.67889 1.85242 -8.69069 70 73 124
0.459619 -0.740438 3.49394 146 179 199
0.193107 -0.736375 3.5165 218 241 249
0 0 0 102 104 162
0.280776 -0.700299 3.51012 103 93 83
0.363441 -0.698587 3.50819 108 77 78
0.7623 -0.674322 3.41467 231 248 244
0.39077 -0.685026 3.49504 114 88 88
0.293711 -0.685674 3.51514 124 111 113
0.207768 -0.672718 3.51795 107 110 115
0.433945 -0.667682 3.50286 117 102 134
0.134187 -0.664939 3.52931 158 217 203
0.16198 -0.656419 3.52465 203 234 255
0.929159 -0.639846 3.45536 68 119 85
0.999404 -0.638627 3.46745 28 53 27
0.791722 -0.602767 3.47537 149 203 174
0.811684 -0.600568 3.46899 40 91 64
1.34946 -0.594771 3.45404 55 82 62
1.88328 -0.581934 3.39879 53 81 52
0.292277 -0.598589 3.52749 162 198 206
1.47513 -0.577525 3.42824 66 87 72
1.49142 -0.578391 3.43319 121 185 156
1.32593 -0.570664 3.44343 63 105 80
0.915172 -0.566185 3.47701 42 94 70
1.04908 -0.562421 3.47241 42 83 55
1.20093 -0.562083 3.45875 149 220 194
2.04899 -0.522948 3.3849 210 231 233
1.98577 -0.518396 3.40588 152 202 160
0.861475 -0.518988 3.48173 78 131 104
1.03122 -0.512055 3.47766 146 218 172
1.87681 -0.48829 3.41262 68 94 71
0.328677 -0.486522 3.53955 102 114 120
1.90036 -0.46054 3.40686 159 216 191
1.67696 -0.45679 3.44315 144 226 191
0.317982 -0.469511 3.53728 235 242 245
0.608553 -0.463591 3.51609 239 252 254
1.67468 -0.457079 3.44143 137 221 187
1.09568 -0.459593 3.48445 64 120 99
1.90336 -0.448951 3.42277 136 190 155
0.558138 -0.454499 3.51555 127 128 126
0.422174 -0.448184 3.50121 140 119 98
0.424615 -0.443737 3.52948 147 124 98
0.539548 -0.437253 3.51624 255 255 255
0.569351 -0.438712 3.5205 255 254 254
0.780483 -0.437174 3.50113 84 123 97
0.990271 -0.433587 3.48996 115 166 129
1.13234 -0.434746 3.48866 63 128 96
0.149986 -0.441181 3.55866 255 255 255
-1.8576 -0.453717 3.71517 57 135 118
0.997515 -0.429784 3.51336 65 119 82
0.774895 -0.423015 3.5019 141 209 178
2.08132 -0.414555 3.41222 186 201 203
0.518547 -0.411335 3.5005 159 181 176
0.515131 -0.399444 3.54753 52 77 67
2.00706 -0.377652 3.42269 89 131 113
1.01105 -0.380939 3.50008 143 219 178
0.90971 -0.377564 3.50385 149 214 175
0.509589 -0.369454 3.52147 48 59 49
0.88537 -0.369294 3.50978 215 237 242
0.140205 -0.369067 3.5685 117 161 155
0.326006 -0.359684 3.55371 242 249 252
0.448771 -0.346897 3.54083 156 193 227
2.05212 -0.334589 3.41501 191 226 255
0.410314 -0.343863 3.55093 158 140 123
2.03271 -0.308515 3.44062 94 156 110
0.339837 -0.30929 3.55819 157 180 195
2.05131 -0.292821 3.41221 202 235 255
0.640764 -0.301409 3.53548 65 112 79
1.08125 -0.299217 3.51319 68 144 112
0.497807 -0.282118 3.54903 55 72 58
2.15208 -0.266331 3.43153 230 255 247
0.975499 -0.263409 3.52004 186 224 218
0.364425 -0.265345 3.56455 222 239 252
0.486536 -0.263353 3.56721 223 236 244
0.868226 -0.256517 3.52439 145 202 169
0.482194 -0.242618 3.54779 116 119 140
0.393772 -0.237107 3.56773 120 122 132
0.487805 -0.231773 3.56569 192 220 250
0.453051 -0.218375 3.56826 82 86 104
0.517418 -0.218099 3.54782 157 197 185
0.13964 -0.213556 3.59046 71 120 100
0.290956 -0.20769 3.5755 157 183 207
2.06063 -0.178452 3.43647 205 242 255
0.487395 -0.169009 3.51931 150 174 192
2.03333 -0.167679 3.45636 71 118 80
2.05136 -0.16145 3.43475 89 98 162
0.972464 -0.162254 3.53093 174 231 192
0.135561 -0.15282 3.59972 51 96 77
0.438223 -0.153647 3.57676 157 185 202
0.495228 -0.138241 3.5665 113 148 152
0.49671 -0.121913 3.58126 201 230 245
0.849159 -0.119963 3.55088 74 131 98
2.0208 -0.117375 3.46188 97 147 113
2.08884 -0.110143 3.46149 74 102 137
0.172942 -0.0856081 3.59385 202 228 234
0.45291 -0.0881496 3.58031 229 248 255
0.291494 -0.0778424 3.59656 113 167 150
0.449276 -0.0730577 3.59402 71 93 88
0.27423 -0.0753994 3.58819 179 237 226
0.47764 -0.0619481 3.58215 77 125 99
0.352356 -0.0461642 3.59951 191 227 237
0.41311 -0.0419305 3.61464 65 86 77
0.387875 -0.0275336 3.6026 61 82 67
2.14525 -0.0165734 3.47129 251 255 247
0.385595 -0.0125546 3.60344 57 77 54
2.00072 -0.000645579 3.48767 138 201 169
1.89351 0.00594139 3.5023 223 251 231
2.0362 0.00693776 3.48764 102 165 123
0.530308 0.011056 3.59138 144 196 166
2.21331 0.0853868 3.4932 194 228 217
0.862323 0.0926342 3.5805 162 227 211
1.32367 0.0941016 3.50417 80 74 67
1.38299 0.0980808 3.51112 81 89 72
1.01729 0.103215 3.57985 48 61 37
0.38193 0.11923 3.63303 61 85 77
0.964706 0.120999 3.57944 144 210 168
1.02807 0.118147 3.57132 141 213 177
1.05489 0.131365 3.57778 168 225 216
1.25678 0.132451 3.55274 150 196 197
0.940801 0.143348 3.5779 61 77 53
1.02992 0.14875 3.57352 145 203 178
1.3927 0.151088 3.49176 106 73 64
1.34213 0.154711 3.50542 117 122 121
1.95095 0.165085 3.52808 79 140 120
1.43646 0.171446 3.50475 134 97 77
1.16153 0.178729 3.52526 73 74 54
0.512479 0.229279 3.61868 58 91 76
0.805914 0.22759 3.59946 81 152 112
1.44441 0.22672 3.56053 102 189 145
1.35873 0.235368 3.55371 86 108 103
1.03663 0.246419 3.6104 125 191 166
1.5056 0.245241 3.55922 248 255 255
0.803159 0.255141 3.61587 176 233 218
1.14558 0.248516 3.56751 91 102 82
1.28777 0.257058 3.55771 124 188 159
1.31565 0.257405 3.57137 140 149 136
1.38198 0.255436 3.53851 93 78 76
1.41837 0.253982 3.52765 47 61 43
1.18496 0.260243 3.54657 255 255 255
1.39495 0.266689 3.53497 255 255 254
1.41169 0.276811 3.50876 50 54 35
1.04212 0.288926 3.59787 158 219 199
1.33795 0.299332 3.58145 68 83 69
1.44563 0.295337 3.56266 83 139 98
1.27415 0.3108 3.58177 128 204 162
2.02676 0.305981 3.548 139 189 171
1.03083 0.317149 3.60552 47 69 50
1.85609 0.352561 3.5583 73 107 106
0.588634 0.389496 3.63926 84 137 110
1.23546 0.388035 3.61078 55 87 63
0.394205 0.396074 3.65306 69 102 88
1.02476 0.392622 3.61297 52 81 66
2.05907 0.381339 3.54492 104 160 117
1.43595 0.400386 3.59395 77 135 106
1.36816 0.418195 3.59806 48 71 49
2.06955 0.410996 3.5511 123 177 134
1.15858 0.427671 3.61949 61 79 62
1.18699 0.431723 3.61337 154 218 206
0.908987 0.454207 3.63256 77 136 108
-0.894251 0.49081 3.75832 87 116 93
2.0801 0.503926 3.5475 26 33 28
0.395423 0.543195 3.68547 48 81 66
2.07418 0.535316 3.54981 41 51 39
0.985482 0.557482 3.64894 156 223 194
2.07801 0.567999 3.58699 105 165 124
2.00954 0.580102 3.57245 59 98 66
0.562895 0.608645 3.68511 83 139 116
0.521777 0.610936 3.66341 56 94 72
0.876628 0.627086 3.67735 75 127 110
-0.855699 0.643769 3.75338 77 104 88
-0.862904 0.655022 3.77907 63 117 100
1.63046 0.644664 3.62138 84 139 122
0.685357 0.66587 3.69192 112 176 147
0.39714 0.684939 3.7059 38 87 65
1.38617 0.691684 3.64198 77 128 100
2.10335 0.677849 3.59244 38 44 49
0.280324 0.729437 3.72311 233 255 255
0.920815 0.719096 3.67494 72 140 109
2.09357 0.701069 3.57958 122 167 141
2.06953 0.734399 3.61181 118 184 132
0.855402 0.758231 3.69274 71 144 106
0.916614 0.779029 3.69166 165 230 191
0.400399 0.834436 3.73651 76 110 93
2.04814 0.970059 3.66525 140 213 181
2.00772 0.992362 3.67289 87 136 122
0.35861 1.01751 3.76002 173 228 209
0.511623 1.06882 3.76533 47 93 80
0.860282 1.06563 3.74726 169 216 214
1.63822 1.08189 3.71444 77 87 75
2.10433 1.10671 3.67606 40 59 40
-1.51596 -1.28777 3.56778 155 157 191
-2.02218 -1.29732 3.62536 65 82 73
1.31091 -1.19077 3.35932 82 138 117
-1.96465 -1.28605 3.62727 131 204 182
1.49085 -1.14429 3.35658 118 189 172
1.49354 -1.12726 3.36313 62 98 84
1.51392 -1.12232 3.36059 124 192 169
1.54142 -1.12956 3.36118 60 78 55
-2.09451 -1.20651 3.62054 216 246 241
-1.47974 -1.16909 3.63565 181 229 255
0 0 0 82 89 158
-2.07071 -1.13401 3.62208 227 241 239
1.97875 -0.988635 3.33492 69 108 76
1.93938 -0.982867 3.33979 106 156 114
1.91931 -0.972615 3.34154 68 115 83
-1.81681 -0.984693 3.48062 151 191 220
1.91988 -0.950886 3.33517 86 123 97
-1.68817 -0.963558 3.45497 115 121 194
0.630207 -0.964806 3.45914 166 225 211
2.01 -0.920024 3.31518 176 206 231
-1.71128 -0.963057 3.50245 78 92 175
0.31593 -0.954627 3.47221 96 137 116
0.507032 -0.953054 3.46505 35 48 40
2.02056 -0.917243 3.37385 30 40 34
0.268499 -0.920927 3.48158 183 217 223
0.43601 -0.922163 3.46835 131 184 171
-1.70024 -0.915023 3.47931 93 120 201
0.354913 -0.913249 3.49673 189 231 230
0.46355 -0.895009 3.45189 165 224 216
0.402872 -0.892437 3.47733 192 215 223
0.433861 -0.892835 3.47702 63 72 62
-1.51309 -0.907302 3.5899 64 83 144
-1.50114 -0.908622 3.58755 78 96 159
0.462662 -0.877363 3.4711 90 118 119
0.381086 -0.876234 3.46932 230 239 248
2.01543 -0.832437 3.33398 163 184 215
-1.27882 -0.88271 3.64465 61 117 98
0.407 -0.832504 3.48478 178 200 218
0.221937 -0.831245 3.50073 169 209 221
0.353945 -0.83226 3.4771 158 181 176
0.205366 -0.820141 3.50657 240 251 255
-1.51409 -0.818669 3.59939 139 153 181
0.480615 -0.775469 3.48212 122 149 153
0.289857 -0.777505 3.50758 127 106 109
0.256359 -0.753636 3.50833 141 129 117
-1.84733 -0.744183 3.55146 183 223 235
0.459224 -0.735341 3.5069 250 255 255
1.91415 -0.680695 3.34595 164 183 166
0.37798 -0.692214 3.50369 103 75 74
0.165138 -0.678338 3.50139 104 131 122
0.42656 -0.670356 3.50324 109 95 119
0.502288 -0.664884 3.48782 72 69 65
1.68699 -0.64971 3.38641 69 88 69
0.194615 -0.658544 3.50628 212 236 242
0.290046 -0.665582 3.53319 246 251 250
-1.74545 -0.633773 3.52198 163 214 254
0.83801 -0.62226 3.4579 71 100 77
0.313323 -0.618659 3.52251 152 195 184
-1.68366 -0.609567 3.49777 208 245 255
0.0838946 -0.614691 3.54164 65 109 80
0.809774 -0.600966 3.46562 57 108 80
1.20397 -0.592707 3.461 81 117 93
1.7644 -0.586758 3.41512 66 126 92
1.53301 -0.568914 3.43154 85 139 109
-1.96142 -0.594325 3.69846 70 94 84
0.372547 -0.560493 3.52632 127 129 137
2.03545 -0.535774 3.38935 77 82 73
2.04163 -0.524595 3.37323 209 233 233
1.91265 -0.487215 3.4216 131 195 159
0.852134 -0.468208 3.50613 127 198 172
-1.89264 -0.476251 3.70322 72 88 81
1.87597 -0.443848 3.41233 74 128 93
-1.90273 -0.47298 3.72635 66 97 90
0.82201 -0.429862 3.51285 82 129 96
0.512728 -0.421292 3.46087 122 145 137
0.743222 -0.424099 3.50371 251 249 249
1.89111 -0.419559 3.4295 48 73 45
2.00848 -0.416247 3.40884 87 142 103
2.07918 -0.414638 3.41993 167 195 196
0.823048 -0.417319 3.50326 86 146 105
0.50546 -0.408175 3.49845 47 45 37
0.520014 -0.410887 3.5232 98 126 120
0.592629 -0.411933 3.51587 111 190 157
0.136591 -0.388456 3.56851 112 154 129
0.328197 -0.384102 3.55455 179 210 211
0.637987 -0.376327 3.52174 183 227 220
2.10081 -0.358739 3.43805 221 234 236
0.435019 -0.335858 3.55082 173 214 239
0.291171 -0.338116 3.56102 175 195 212
2.03631 -0.324178 3.42636 37 49 37
0.378599 -0.306308 3.52218 98 96 116
2.03412 -0.293987 3.38937 176 209 255
0.343274 -0.308906 3.56006 152 178 185
2.0441 -0.290416 3.40653 201 227 255
0.256937 -0.293752 3.55029 236 248 255
0.379637 -0.300637 3.55105 134 136 154
0.887819 -0.271485 3.52364 73 138 113
2.03042 -0.260763 3.46105 109 178 127
0.480256 -0.266277 3.5621 237 244 253
0.868463 -0.256628 3.52385 143 200 167
0.159528 -0.246543 3.57966 80 125 136
0.274036 -0.244163 3.57074 172 198 214
0.921337 -0.242725 3.52241 86 131 112
0.892857 -0.226793 3.5269 252 254 254
0.481974 -0.221883 3.56664 180 209 236
0.501356 -0.217255 3.55254 65 80 76
0.397557 -0.21008 3.57674 125 124 128
1.9031 -0.198197 3.46691 38 66 47
2.0022 -0.11726 3.4764 86 123 91
1.97991 -0.101836 3.47581 67 106 85
2.00484 -0.100254 3.47034 135 184 162
0.177022 -0.0835089 3.60202 192 217 221
0.481829 -0.0656938 3.57536 63 115 85
0.478116 -0.0558357 3.57967 69 111 86
2.12458 -0.0513264 3.46239 89 146 115
0.414942 -0.0491153 3.6053 62 94 75
0.384731 -0.013854 3.5987 57 77 54
2.05598 -0.00395664 3.46188 39 40 50
2.02279 0.00194444 3.47864 119 182 142
0.704851 0.0164024 3.61813 144 194 190
0.473588 0.0609491 3.5916 114 167 153
0.493856 0.0746175 3.6028 70 88 75
1.95587 0.0925849 3.51573 85 133 107
1.27098 0.0912755 3.51879 84 105 107
1.32572 0.0920239 3.49134 99 90 81
1.37605 0.100895 3.49255 98 91 82
1.00899 0.105861 3.57128 48 61 39
1.02918 0.109832 3.57422 128 194 165
1.05553 0.115303 3.56771 110 132 113
1.02336 0.136515 3.57324 66 90 66
0.938334 0.150205 3.58566 73 104 71
1.40355 0.148149 3.50606 65 65 51
0.53125 0.162451 3.63414 152 199 177
1.32039 0.175958 3.53908 255 255 255
1.36199 0.186729 3.51287 109 80 89
1.40061 0.185923 3.50778 83 66 47
1.29394 0.198296 3.55493 124 116 123
1.28239 0.205212 3.56368 41 48 33
2.03387 0.199399 3.51124 51 77 47
1.46544 0.213855 3.56751 39 87 61
1.02687 0.243556 3.58101 130 196 171
1.38204 0.245913 3.52647 107 76 67
1.35497 0.257206 3.51647 255 255 255
1.95141 0.263029 3.52493 54 118 83
1.14091 0.279842 3.5571 89 129 94
1.49303 0.276728 3.55171 123 139 121
1.03814 0.286784 3.60211 125 191 166
1.26761 0.284162 3.53528 170 157 149
1.05753 0.29467 3.60021 49 64 50
1.11414 0.294138 3.59919 79 125 102
1.42399 0.291007 3.55135 52 56 37
0.515039 0.314605 3.66349 76 110 93
1.28106 0.2977 3.57255 48 59 43
1.23375 0.30531 3.5562 91 134 107
0.468209 0.334682 3.64485 72 98 82
1.3458 0.320447 3.57631 138 200 170
1.43837 0.372015 3.59106 47 68 43
1.01561 0.396148 3.61246 52 61 40
1.22775 0.388386 3.60555 56 72 48
0.955599 0.425127 3.6243 38 50 28
1.97313 0.422512 3.5574 65 106 85
0.514193 0.435548 3.64837 52 72 53
1.18689 0.433065 3.61679 141 209 186
1.9808 0.43696 3.57579 72 119 86
2.00118 0.491952 3.57399 165 215 197
1.62047 0.502654 3.60581 84 149 117
2.07683 0.495905 3.54901 44 53 43
2.09772 0.499371 3.54907 129 157 192
0.394186 0.543473 3.68841 68 105 85
2.08999 0.538749 3.5367 175 208 247
-0.902754 0.601494 3.77568 124 197 171
2.06648 0.573532 3.57443 111 170 125
2.06451 0.5718 3.57048 104 166 120
2.01409 0.587467 3.58628 57 102 69
0.454771 0.632506 3.69585 77 102 92
-0.861458 0.642733 3.77329 72 93 71
2.09029 0.625011 3.57447 36 52 51
0.39521 0.680267 3.69542 60 103 82
-0.866273 0.71667 3.79211 64 88 70
0.88735 0.691431 3.6868 93 137 114
1.38308 0.691762 3.64402 84 137 110
2.09264 0.677379 3.58315 31 42 40
2.06528 0.692793 3.59895 119 187 146
0.52034 0.71812 3.70157 55 64 54
-0.936696 0.77235 3.81501 55 91 69
2.08917 0.731202 3.6008 36 40 28
0.795631 0.770404 3.72742 94 150 131
0.423266 0.804693 3.72492 89 108 105
1.98765 0.808654 3.63178 41 81 46
0.474623 0.911404 3.73385 56 89 68
2.0978 0.914167 3.64714 44 67 39
0.402326 0.957535 3.72685 93 145 128
2.05125 0.943278 3.65221 74 111 95
2.01499 0.9957 3.6866 86 138 120
1.67564 1.05528 3.70867 86 103 99
