ply
format ascii 1.0
element vertex 1275
property float x
property float y
property float z
property uchar blue
property uchar green
property uchar red
end_header
-0.370007 -1.08774 4.29433 163 223 215
2.45411 -0.994096 3.92194 107 162 143
1.43344 -1.02119 4.03714 116 157 152
1.76328 -1.01 4.00544 61 104 95
1.19485 -1.02293 4.0706 80 129 115
2.05397 -0.99651 3.95908 136 185 157
2.07048 -1.00157 3.97152 64 104 99
-0.148232 -1.0712 4.25345 88 155 126
1.35278 -1.01519 4.04445 157 205 187
-0.0375019 -1.0632 4.2528 69 121 103
1.13866 -1.02452 4.08228 79 132 118
1.75382 -1.00497 4.00832 126 203 189
0.275959 -1.04699 4.1925 76 142 130
0.794781 -1.03175 4.12748 93 150 142
2.00112 -0.99313 3.98363 128 193 168
0.917373 -1.0224 4.10641 70 140 123
1.01017 -1.01915 4.10231 88 150 138
0.909828 -1.0178 4.10328 143 216 200
0.97043 -1.01845 4.11274 64 122 104
2.06697 -0.984674 3.97444 94 125 116
-0.538797 -1.06537 4.31812 107 155 149
0.836964 -1.02088 4.12469 75 123 105
0.3972 -1.03244 4.18258 72 137 121
0.617105 -1.0269 4.15609 78 138 132
1.35209 -0.997635 4.05561 90 138 132
1.75116 -0.987245 4.01627 93 146 137
-0.835851 -1.07031 4.35864 211 240 249
2.03481 -0.974727 3.97544 58 110 100
0.603628 -1.01531 4.15498 71 130 116
-0.181894 -1.04066 4.26235 87 126 110
0.668457 -1.01398 4.15111 139 198 190
1.61219 -0.98374 4.02503 133 193 169
1.48297 -0.981754 4.03375 105 143 137
1.46134 -0.980247 4.04189 183 237 224
0.880018 -0.99628 4.11679 74 143 130
0.893172 -0.995174 4.11374 95 139 132
1.41068 -0.972201 4.03858 82 126 119
-0.0207873 -1.01977 4.23561 119 194 162
0.212955 -1.00869 4.20041 76 137 127
1.59003 -0.967195 4.01816 91 132 111
1.17495 -0.976799 4.06647 123 195 173
-0.086573 -1.01471 4.24408 72 125 112
0.216902 -1.00697 4.20623 91 146 137
0.746614 -0.99033 4.13773 66 129 120
1.06621 -0.976271 4.08986 159 222 196
1.10761 -0.971619 4.08109 90 140 128
1.2609 -0.967703 4.05269 84 141 132
1.35258 -0.971348 4.0645 107 139 144
0.841817 -0.98638 4.141 95 158 142
0.0284765 -1.00497 4.23291 76 147 120
1.30636 -0.962899 4.05005 80 148 131
1.5574 -0.958775 4.02702 173 207 196
1.00336 -0.967822 4.09357 75 140 118
1.2564 -0.961818 4.06032 158 229 212
1.26491 -0.959448 4.05079 87 147 137
1.59529 -0.94952 4.01033 157 210 177
1.99039 -0.944396 3.98695 114 194 171
-2.16239 -1.07867 4.55764 104 134 145
0.937112 -0.972815 4.11259 137 202 176
1.38692 -0.954528 4.04918 89 128 120
-0.0682523 -1.00054 4.25081 70 119 97
-0.0577135 -1.00245 4.24624 74 116 98
-0.089868 -0.998486 4.25278 78 144 125
-0.00522905 -0.992666 4.22988 62 131 98
0.542384 -0.975806 4.15476 78 144 133
1.47788 -0.945789 4.02036 79 102 88
1.7135 -0.942709 4.0093 73 136 126
1.72738 -0.939919 4.00811 159 219 208
2.15256 -0.933051 3.9783 140 210 193
-0.0350242 -0.991863 4.24191 64 109 92
2.05959 -0.931814 3.97609 67 131 112
0.516845 -0.973885 4.16638 67 141 123
1.33268 -0.947782 4.06161 174 234 226
-1.86773 -1.05192 4.52168 103 132 146
-0.19369 -0.992629 4.26856 92 159 144
-0.0746303 -0.988555 4.24787 154 226 196
1.52594 -0.940026 4.02911 98 151 141
2.06721 -0.924131 3.98013 133 195 177
-0.27332 -0.993835 4.28573 165 223 218
0.48943 -0.968908 4.1747 140 216 192
0.788977 -0.961315 4.13978 94 137 128
0.961128 -0.953748 4.10947 86 141 114
1.08593 -0.950612 4.08835 131 191 167
1.09424 -0.947767 4.07199 166 225 204
1.78452 -0.929146 4.00666 86 139 129
0.881672 -0.958657 4.13129 87 140 127
1.42922 -0.93555 4.04421 166 226 208
-0.171645 -0.984286 4.26215 103 163 145
0.567958 -0.962283 4.16376 95 148 145
1.5912 -0.922347 3.99293 158 195 179
2.00084 -0.922334 3.98942 37 96 82
0.447469 -0.96241 4.18684 72 128 109
0.793925 -0.948847 4.12132 183 232 224
1.78963 -0.922827 4.01341 134 199 183
2.25461 -0.912935 3.97139 70 124 107
1.01407 -0.941223 4.10405 168 233 207
1.47631 -0.92332 4.02717 64 101 85
1.28522 -0.929888 4.06644 91 151 140
1.09258 -0.932873 4.09033 142 198 185
1.62282 -0.914496 4.00243 71 98 89
2.0832 -0.910025 3.9854 79 129 127
0.982826 -0.934023 4.10437 69 118 102
1.61294 -0.910703 3.99647 123 167 150
-0.077629 -0.965064 4.25637 78 146 115
0.831069 -0.936586 4.13203 72 141 120
0.0694252 -0.954293 4.22543 75 126 112
0.946361 -0.93395 4.11951 78 130 107
1.07206 -0.92599 4.09888 150 218 201
1.55879 -0.911314 4.03719 65 91 68
0.0197509 -0.955411 4.23597 68 124 95
1.54367 -0.909862 4.03428 64 79 75
-0.00182003 -0.953138 4.23883 152 229 195
1.07973 -0.921834 4.09993 129 201 179
-0.113346 -0.952927 4.26251 92 151 137
0.518131 -0.933993 4.17533 44 106 94
0.909354 -0.927776 4.13179 55 124 104
1.53584 -0.907437 4.04475 164 227 195
1.75796 -0.900367 4.02196 68 130 116
-1.20152 -0.989303 4.42224 210 248 253
1.21033 -0.910631 4.07416 73 130 115
-0.83435 -0.971505 4.37179 112 139 153
1.6343 -0.886006 3.99908 187 227 216
0.643931 -0.917334 4.15785 77 134 125
1.01551 -0.905808 4.1014 144 226 203
1.5395 -0.889824 4.03495 104 128 120
-0.201923 -0.939979 4.26733 127 233 192
1.02981 -0.900155 4.10573 101 169 152
-2.66313 -1.02316 4.66574 125 135 159
1.74975 -0.879292 4.02217 72 135 115
-2.17441 -0.996872 4.57364 103 126 134
1.12948 -0.884473 4.0839 105 168 148
1.78563 -0.871051 4.01609 154 209 190
-0.0172163 -0.916893 4.23749 86 154 129
0.619935 -0.895879 4.15319 124 226 198
1.47128 -0.87566 4.04911 145 194 172
1.55927 -0.870293 4.02929 76 107 98
1.01378 -0.886237 4.11352 130 202 182
0.385315 -0.902889 4.19716 165 225 215
1.23553 -0.877596 4.07344 74 121 112
2.18137 -0.855698 3.98143 126 205 184
0.684267 -0.889138 4.15118 142 212 199
1.55177 -0.863761 4.04205 161 204 195
1.22267 -0.868902 4.06328 158 221 205
1.39862 -0.8634 4.0415 162 198 186
1.79051 -0.855979 4.00116 70 113 102
-0.530883 -0.920555 4.31961 106 149 158
0.517621 -0.887093 4.18269 54 134 121
1.11915 -0.865773 4.08676 65 125 101
0.380431 -0.887746 4.18932 145 212 197
1.56321 -0.853964 4.03016 76 99 95
1.9151 -0.849256 4.01044 152 208 195
1.45789 -0.856345 4.04907 95 137 119
-1.21617 -0.93189 4.4388 227 253 253
-0.0462254 -0.8936 4.24999 90 148 123
1.20868 -0.856611 4.0766 57 112 95
1.71956 -0.84962 4.03371 153 206 192
-0.0762253 -0.890829 4.25064 78 141 115
1.99639 -0.837883 4.00118 85 116 119
2.33175 -0.828011 3.96708 151 218 191
1.72006 -0.836686 4.01844 59 95 83
-0.533928 -0.897887 4.3152 106 149 152
1.39265 -0.841645 4.05747 125 162 152
0.54479 -0.8629 4.17978 122 231 205
0.780322 -0.855323 4.14488 88 147 139
-0.156584 -0.87793 4.27399 84 144 133
1.25089 -0.837609 4.07315 163 204 189
2.04411 -0.818893 3.98076 140 190 166
2.07964 -0.821249 3.99068 101 165 146
0.976785 -0.840044 4.12072 147 218 198
1.41948 -0.829152 4.04786 94 138 125
1.87246 -0.822422 4.02027 67 120 107
2.03985 -0.817042 3.99298 80 110 105
-0.331323 -0.874991 4.29493 90 143 134
0.374736 -0.852005 4.19236 155 231 213
1.57012 -0.823496 4.04292 81 127 115
0.765548 -0.840006 4.1503 174 218 212
0.793597 -0.841033 4.14813 182 237 228
1.12481 -0.826526 4.08606 61 114 81
1.06698 -0.827123 4.10726 76 139 123
1.37695 -0.81855 4.06355 180 230 220
-0.686571 -0.876341 4.35732 129 157 174
1.11087 -0.822137 4.09634 53 123 93
1.34147 -0.812579 4.06354 88 110 108
1.53385 -0.808033 4.03942 144 199 174
2.0896 -0.798061 3.98874 99 155 144
0.308478 -0.837579 4.20663 159 221 209
1.41313 -0.807097 4.06081 190 231 223
1.51252 -0.807244 4.05118 162 233 190
1.27945 -0.80869 4.06787 134 167 146
0.0203093 -0.8397 4.25108 69 138 105
1.26189 -0.805567 4.07201 52 76 68
1.49489 -0.797755 4.05527 89 126 116
-2.49283 -0.90353 4.58931 135 202 181
1.27955 -0.800286 4.07168 62 83 80
1.92443 -0.784636 3.99791 84 108 96
-0.234066 -0.837973 4.281 94 159 143
1.04237 -0.806152 4.11871 67 128 114
1.43154 -0.792043 4.05071 97 126 117
-0.224054 -0.835814 4.29811 95 157 143
0.0302929 -0.827168 4.2599 163 235 205
0.21473 -0.820455 4.21391 92 156 137
0.690451 -0.807963 4.16294 91 150 135
-0.192815 -0.824985 4.27786 131 199 182
1.82081 -0.778688 4.03222 114 158 157
-1.92659 -0.874111 4.54374 114 163 171
0.743011 -0.800095 4.15167 88 150 136
1.42858 -0.780128 4.05038 153 194 186
0.159663 -0.812183 4.22 161 220 206
0.380983 -0.803643 4.19404 57 107 95
-2.48785 -0.884916 4.62432 198 246 247
1.39948 -0.775519 4.05968 81 129 123
1.58808 -0.771896 4.03587 73 115 98
2.3311 -0.756434 3.96113 83 124 103
1.05917 -0.785611 4.11739 82 148 137
1.6612 -0.768177 4.02558 93 131 119
0.405811 -0.795294 4.19961 72 151 138
1.50849 -0.769774 4.05841 98 141 126
1.65846 -0.767205 4.03766 98 132 125
-0.0277137 -0.80458 4.25493 72 137 111
0.985652 -0.779098 4.1176 92 149 141
1.34345 -0.767776 4.0618 146 174 155
-0.0392454 -0.796658 4.24133 86 164 133
1.26407 -0.768333 4.071 164 219 202
1.37665 -0.764518 4.05544 98 132 126
1.40735 -0.766659 4.06688 166 216 204
-0.641942 -0.817566 4.35035 145 220 204
1.42263 -0.761992 4.05319 97 131 125
0.921495 -0.772219 4.13032 72 151 130
1.36786 -0.761682 4.06668 95 126 119
1.38297 -0.763446 4.0739 94 134 129
-0.132326 -0.797668 4.26376 75 159 130
1.04486 -0.769182 4.11746 94 140 141
0.900097 -0.767002 4.13582 162 229 200
1.57553 -0.753736 4.04675 145 208 176
1.73033 -0.750393 4.03141 79 106 103
1.08457 -0.762585 4.10968 64 102 90
1.58249 -0.747295 4.04534 83 124 119
1.67741 -0.745817 4.04101 143 201 176
-0.0410734 -0.781425 4.24845 80 148 117
0.743749 -0.766406 4.16373 60 122 110
0.765195 -0.764132 4.15647 147 217 204
-0.15231 -0.781841 4.26986 131 214 176
0.967818 -0.753651 4.12036 165 233 210
1.06488 -0.753395 4.11569 80 135 126
1.37416 -0.745127 4.06685 85 126 118
0.783208 -0.756143 4.14646 182 233 229
0.793599 -0.755963 4.15605 99 131 130
1.71314 -0.735596 4.04383 143 201 190
-0.0334565 -0.770349 4.24698 144 214 184
0.794106 -0.755754 4.15961 101 135 135
1.59712 -0.731603 4.03322 98 153 120
1.77425 -0.730408 4.03454 95 143 131
-0.827682 -0.789426 4.37627 89 115 122
0.306041 -0.761372 4.20734 75 140 119
0.911024 -0.747452 4.13411 76 123 107
1.73012 -0.729026 4.04391 166 229 209
2.05294 -0.723705 4.01494 91 124 120
2.21501 -0.719304 3.9993 110 184 156
-2.30687 -0.81904 4.59612 134 181 185
0.868525 -0.74002 4.14485 67 129 117
1.16175 -0.731236 4.09625 92 143 139
1.17001 -0.732013 4.10361 84 123 121
1.3844 -0.727424 4.06184 81 119 107
1.40449 -0.725681 4.06576 113 142 127
1.50259 -0.725394 4.05418 89 133 120
1.5156 -0.723837 4.06099 91 128 124
1.62766 -0.723892 4.05346 173 240 208
1.72097 -0.721302 4.0339 100 158 147
1.97233 -0.717265 4.00888 64 90 84
-2.59908 -0.828671 4.65236 117 167 187
-0.0400575 -0.758468 4.24809 145 209 180
1.2091 -0.726132 4.08551 55 92 84
-0.0312712 -0.753522 4.23786 23 88 49
1.21278 -0.725232 4.08586 57 98 90
1.74533 -0.716179 4.04321 157 219 201
-0.213642 -0.754013 4.28574 59 113 78
1.25614 -0.720421 4.09436 50 100 88
1.27411 -0.723108 4.08944 65 116 96
-1.71926 -0.793202 4.51167 138 180 187
-0.0862595 -0.749993 4.26252 69 131 95
0.145822 -0.748675 4.24192 99 155 142
1.3777 -0.715314 4.06001 150 207 186
-2.50049 -0.812093 4.62993 99 158 137
-2.19088 -0.804437 4.59077 114 175 165
1.79863 -0.699747 3.99791 74 109 95
2.21895 -0.698971 3.99341 66 123 98
-2.7736 -0.817456 4.68529 196 227 242
-0.0914172 -0.744542 4.25769 130 209 170
0.177452 -0.739013 4.23361 73 138 122
0.95376 -0.721526 4.1322 66 106 88
1.82663 -0.700354 4.01361 172 215 182
0.942155 -0.716894 4.13341 76 106 93
1.0567 -0.713107 4.11324 154 215 201
1.55342 -0.704688 4.07156 170 212 189
1.63367 -0.699831 4.04645 165 217 200
-0.0686261 -0.734545 4.26061 55 110 83
0.851835 -0.714772 4.15006 65 129 117
-0.83968 -0.751516 4.38029 116 159 168
-0.0275521 -0.72902 4.25482 89 165 124
0.110534 -0.725765 4.24178 84 140 117
1.0841 -0.704368 4.11029 79 133 126
1.37739 -0.699179 4.07181 123 184 148
1.75984 -0.688536 4.02141 78 121 94
-2.88929 -0.801959 4.68124 159 236 222
-0.0775497 -0.726665 4.26359 148 223 177
0.238006 -0.721641 4.23234 57 133 109
1.0425 -0.705785 4.11959 86 151 130
1.1907 -0.699936 4.09908 83 143 132
0.238077 -0.718371 4.22631 61 140 119
1.11592 -0.695471 4.10607 100 156 145
1.15981 -0.693971 4.09675 157 219 205
1.75222 -0.683147 4.03429 104 147 110
-0.124974 -0.72006 4.27393 79 144 122
0.369815 -0.705323 4.19692 64 142 119
1.41554 -0.686496 4.07545 141 195 165
1.5277 -0.682785 4.05323 123 171 145
1.91262 -0.677386 4.00833 83 94 102
-0.384568 -0.723399 4.31601 92 132 130
1.08808 -0.690325 4.11465 98 155 140
1.7562 -0.676677 4.02773 43 74 45
0.370887 -0.704759 4.20493 75 153 136
0.970832 -0.689292 4.13405 80 141 115
1.23645 -0.681724 4.08538 132 191 171
1.35749 -0.681784 4.07531 144 208 173
1.45452 -0.679879 4.06533 69 105 89
1.62825 -0.67797 4.05007 84 130 108
2.09177 -0.67299 4.01281 163 212 198
-1.39491 -0.743679 4.47857 110 146 162
1.19937 -0.682185 4.08861 144 211 196
-0.727841 -0.724609 4.37201 244 255 255
0.0442771 -0.708011 4.24761 168 244 203
1.19218 -0.679451 4.09629 70 135 119
1.88393 -0.664031 4.01192 95 128 121
-0.0900604 -0.703349 4.26898 141 218 174
1.38709 -0.669876 4.06529 136 215 172
-2.49563 -0.760484 4.61275 99 164 143
-0.187341 -0.703964 4.28408 63 116 96
0.262931 -0.693207 4.21894 142 226 198
1.54532 -0.669561 4.06204 145 200 167
2.11118 -0.659336 3.99987 149 216 195
-0.168073 -0.698646 4.2741 152 219 188
0.0342648 -0.698664 4.2472 43 79 63
1.23419 -0.669985 4.09314 61 112 104
1.51459 -0.665 4.06028 148 212 176
1.87775 -0.659776 4.01037 93 122 119
-0.186763 -0.703551 4.29003 49 107 82
1.08273 -0.670033 4.10214 159 228 208
1.18391 -0.668799 4.09959 157 227 210
1.507 -0.661344 4.07299 72 118 95
-1.40877 -0.730108 4.49003 102 147 151
-0.373223 -0.699875 4.32211 83 152 137
-0.203267 -0.694189 4.29322 86 153 132
-0.170618 -0.687712 4.27629 71 115 86
-0.0857996 -0.687195 4.26619 47 108 74
0.965867 -0.666383 4.13912 52 68 50
1.46454 -0.657033 4.07435 88 139 125
-0.0618252 -0.682534 4.25673 103 153 123
0.98222 -0.664471 4.13987 124 198 164
0.442509 -0.672575 4.20714 62 130 119
1.14335 -0.660192 4.11527 87 145 134
1.2522 -0.655378 4.08669 101 157 146
1.8782 -0.641994 4.0105 123 177 160
0.0572432 -0.675115 4.24218 65 114 92
0.942753 -0.657472 4.13894 101 143 132
1.80317 -0.641961 4.02869 96 133 129
1.69632 -0.642988 4.04826 102 145 136
-0.376759 -0.681306 4.31812 92 150 139
1.42991 -0.64566 4.07657 170 225 208
1.50913 -0.645319 4.07977 65 106 85
1.72206 -0.640189 4.04462 156 208 191
1.75665 -0.635141 4.02043 152 201 185
1.71263 -0.631655 4.04379 113 147 123
0.968443 -0.645717 4.13901 102 168 133
1.70136 -0.632057 4.05126 160 214 197
0.944653 -0.642496 4.14551 71 111 93
-0.0601119 -0.660642 4.27598 159 219 188
0.0179886 -0.657533 4.25174 69 128 90
1.01617 -0.640049 4.13539 86 144 119
1.43044 -0.629896 4.08634 78 101 96
1.73274 -0.626729 4.05246 55 83 77
1.50466 -0.624796 4.06219 164 222 181
0.971625 -0.632077 4.13168 72 109 89
1.46725 -0.626929 4.08669 85 129 116
1.00417 -0.630591 4.13629 160 229 184
-0.00262819 -0.650893 4.26808 67 136 93
0.149602 -0.64434 4.24288 90 161 144
1.38641 -0.621716 4.09033 104 158 141
1.44401 -0.618972 4.08293 89 131 124
1.61458 -0.617764 4.04911 148 206 181
0.00394878 -0.645019 4.26338 140 210 169
1.23011 -0.619704 4.10164 78 135 126
1.28693 -0.618574 4.09527 149 192 181
1.46761 -0.614875 4.08224 91 137 118
0.986493 -0.622744 4.13304 52 94 76
1.44639 -0.612147 4.08502 88 138 128
1.60198 -0.607768 4.0469 133 208 180
0.997964 -0.615302 4.14082 145 214 181
1.31532 -0.609972 4.09359 59 77 70
0.203705 -0.627678 4.23898 142 207 186
0.279418 -0.627687 4.22945 137 209 187
0.506427 -0.622719 4.19535 154 225 209
1.68443 -0.600212 4.05391 74 118 101
0.178811 -0.627254 4.23348 79 136 121
-2.78453 -0.685966 4.69454 130 146 175
0.397169 -0.615686 4.2167 71 140 120
1.46206 -0.594999 4.07455 79 130 110
1.47174 -0.594519 4.06959 38 74 57
-2.50932 -0.674428 4.63971 86 135 119
0.401371 -0.615199 4.21521 75 141 122
1.40138 -0.591972 4.07844 91 150 130
1.46412 -0.594294 4.08167 104 157 137
2.24816 -0.581888 4.00171 122 180 155
-2.0366 -0.663451 4.58084 131 174 177
0.202623 -0.616581 4.23662 81 126 109
0.296921 -0.611106 4.2338 71 131 113
0.702233 -0.606364 4.18511 76 139 129
1.14297 -0.594196 4.12054 80 136 117
1.34413 -0.589303 4.09287 158 195 199
-0.0721874 -0.611511 4.26646 67 134 95
0.960794 -0.594329 4.15425 152 219 187
0.976147 -0.593056 4.15315 163 214 176
1.06557 -0.588389 4.12932 170 229 201
1.56294 -0.582006 4.0847 163 207 194
-0.12313 -0.606652 4.28292 158 238 209
0.499671 -0.594784 4.20494 81 134 125
0.23909 -0.596812 4.22841 56 120 101
1.50658 -0.573048 4.08118 137 186 166
1.52671 -0.574003 4.07465 148 206 181
-2.50905 -0.646336 4.65095 135 207 171
-0.330186 -0.60773 4.33339 92 154 136
0.890066 -0.580589 4.157 78 125 109
1.21118 -0.570832 4.10194 78 112 101
0.055891 -0.592502 4.26465 96 163 142
-2.87526 -0.650804 4.70319 85 139 126
-2.18295 -0.634466 4.60045 133 166 169
0.0396446 -0.590291 4.2729 58 98 80
0.275965 -0.585533 4.22818 71 138 111
1.03584 -0.572527 4.13363 162 224 200
-2.49525 -0.637203 4.64739 95 153 129
-0.0191575 -0.585191 4.26406 104 162 133
-2.88949 -0.643071 4.69471 126 182 171
0.00299709 -0.583713 4.27277 101 175 149
-1.27167 -0.611721 4.46709 127 176 184
-0.0335343 -0.581989 4.26476 64 115 95
0.760945 -0.568781 4.18118 65 135 128
0.0776345 -0.578735 4.26956 67 136 115
0.232137 -0.5759 4.23399 90 148 124
0.653419 -0.563909 4.20399 126 223 203
0.863615 -0.555569 4.15603 73 137 125
1.03626 -0.555381 4.13644 132 190 161
1.63105 -0.54687 4.06708 75 118 103
-2.5091 -0.623475 4.65009 161 228 207
-0.276108 -0.575919 4.30974 152 215 195
1.46917 -0.547554 4.09143 76 117 112
0.108121 -0.566403 4.26093 94 142 118
0.508018 -0.558331 4.20875 77 137 126
1.10737 -0.550854 4.13471 66 120 107
1.6394 -0.538042 4.06127 145 199 186
-0.150294 -0.565834 4.29632 56 108 85
0.962368 -0.549668 4.14691 159 235 194
0.529128 -0.555038 4.2075 162 218 207
-0.0666335 -0.562817 4.28416 138 197 176
0.119733 -0.558448 4.25983 152 231 190
-0.233707 -0.56188 4.30998 67 132 100
-0.199602 -0.558685 4.30573 156 228 198
0.978196 -0.538837 4.13318 66 100 83
0.998006 -0.540589 4.13422 47 104 73
-0.0257476 -0.55131 4.26763 160 233 195
0.0499204 -0.548433 4.26742 94 159 133
0.987375 -0.531136 4.14559 116 186 163
1.08053 -0.528837 4.13448 78 147 126
1.63451 -0.522466 4.06668 68 85 76
0.0198917 -0.543361 4.27251 71 125 95
-2.03142 -0.583032 4.57658 134 180 191
0.969894 -0.527694 4.15487 146 226 195
1.60935 -0.516385 4.06647 150 221 195
-1.72011 -0.5739 4.53297 233 254 255
1.40093 -0.518697 4.09814 51 108 87
1.0252 -0.521102 4.14638 155 230 192
-0.549584 -0.54429 4.35167 107 157 155
0.904415 -0.519543 4.16772 69 123 106
1.17712 -0.515627 4.11962 57 110 96
0.180809 -0.529251 4.23837 90 136 114
0.952138 -0.51691 4.15475 60 123 107
1.55923 -0.503239 4.08035 77 138 124
0.872492 -0.511271 4.16654 160 227 212
1.90898 -0.491303 3.98627 56 105 89
0.199592 -0.519314 4.2508 71 133 103
-0.138819 -0.525351 4.29491 75 146 120
-0.00944985 -0.520435 4.28016 133 201 184
1.37363 -0.497704 4.1042 94 128 121
1.77338 -0.492928 4.04739 164 228 199
-0.323857 -0.521313 4.32481 104 157 147
0.0642866 -0.515074 4.26776 59 110 90
0.34489 -0.511587 4.22619 58 123 101
1.1789 -0.498055 4.11163 71 133 109
-0.0619305 -0.514065 4.28651 83 138 121
0.013158 -0.517904 4.27732 74 125 105
1.34783 -0.492231 4.09106 47 74 64
0.00809379 -0.511212 4.2695 152 232 195
1.03171 -0.495593 4.12872 80 144 115
1.12164 -0.495301 4.13597 140 195 178
1.37752 -0.491664 4.09675 84 121 105
2.22197 -0.479321 4.02578 116 156 138
1.76272 -0.478933 4.04326 171 213 206
1.13433 -0.487325 4.12706 59 122 102
1.3297 -0.482779 4.10057 90 129 127
1.39121 -0.480963 4.08827 106 162 143
1.72784 -0.47613 4.04773 51 96 70
2.30867 -0.470893 3.99023 88 130 123
1.14733 -0.48633 4.13325 175 232 207
1.33958 -0.481684 4.1077 186 229 216
1.53225 -0.47722 4.07099 134 197 158
1.0616 -0.484305 4.1348 58 123 101
1.16141 -0.480342 4.11974 32 80 68
1.34867 -0.477213 4.09738 72 115 104
1.78128 -0.471173 4.03604 72 106 96
1.12435 -0.479121 4.13165 73 122 108
1.20887 -0.475183 4.11075 67 120 87
-0.172522 -0.49414 4.2987 56 113 88
0.118547 -0.48772 4.26194 45 104 66
0.0875613 -0.487252 4.2659 153 221 196
0.383134 -0.479834 4.23626 64 136 114
1.3753 -0.464808 4.0985 50 76 70
1.35944 -0.464038 4.10207 88 129 121
1.38461 -0.461769 4.09294 46 83 67
1.341 -0.463629 4.09809 71 108 92
0.129459 -0.475032 4.26236 71 108 92
1.06203 -0.463415 4.14959 62 120 102
1.72621 -0.451908 4.04893 129 173 160
0.408788 -0.467855 4.2225 87 162 146
2.20179 -0.448881 4.0313 66 120 107
0.278431 -0.46851 4.22682 57 129 93
0.724041 -0.463771 4.18292 70 131 121
1.19156 -0.456005 4.11368 78 132 109
0.640894 -0.461905 4.20088 63 124 114
-0.548475 -0.474065 4.36844 118 152 158
-0.171622 -0.469357 4.31131 61 113 89
1.76036 -0.442755 4.05928 128 165 157
1.86757 -0.435876 4.00151 60 99 74
0.455465 -0.45863 4.22768 86 133 124
0.785292 -0.452205 4.18881 83 149 130
1.47171 -0.44166 4.10376 84 136 99
1.51226 -0.44088 4.09252 37 67 54
1.05923 -0.445883 4.15056 52 119 92
-0.29842 -0.45922 4.32746 159 228 195
1.06294 -0.436972 4.14365 142 210 185
1.47575 -0.434673 4.11698 45 113 78
-0.196786 -0.45114 4.3138 47 120 88
0.109747 -0.446934 4.2661 104 143 122
-2.89372 -0.489549 4.71719 97 171 159
-0.0831252 -0.445291 4.284 73 132 104
-2.50284 -0.477547 4.64494 87 154 127
1.64839 -0.420851 4.06647 65 120 93
1.73314 -0.419878 4.05528 160 208 180
-0.326779 -0.444665 4.32572 91 149 124
-0.174594 -0.441582 4.29707 70 140 103
-0.148469 -0.442184 4.29856 85 130 114
1.00696 -0.42534 4.16103 61 116 101
-0.200033 -0.44018 4.31622 60 112 89
-0.258543 -0.437513 4.32024 156 232 200
0.760762 -0.424546 4.19282 69 144 123
1.19582 -0.418189 4.1289 70 94 86
-0.364899 -0.435812 4.334 63 121 96
0.0831659 -0.431525 4.28391 73 129 94
0.408185 -0.426665 4.23553 69 115 103
-0.340979 -0.431701 4.3195 156 235 196
-0.0708982 -0.428929 4.2968 85 142 121
0.31186 -0.423097 4.23573 57 107 75
1.55432 -0.407024 4.0887 118 192 150
2.28686 -0.402667 4.0156 134 195 181
1.74976 -0.403293 4.06228 48 79 58
-0.0265074 -0.421439 4.27985 80 141 113
1.37416 -0.403979 4.09824 66 98 87
1.47843 -0.404525 4.09953 139 195 172
0.161368 -0.413271 4.24916 59 122 102
1.18298 -0.400751 4.12092 154 207 187
1.21403 -0.397346 4.12016 151 201 171
1.50833 -0.39889 4.10002 138 191 171
0.647091 -0.402827 4.20706 93 135 128
1.54851 -0.39127 4.08756 154 217 178
1.57129 -0.389862 4.09316 70 107 91
1.53305 -0.387765 4.10155 118 156 144
-0.698799 -0.411931 4.3914 94 128 134
-0.372596 -0.402717 4.33314 82 111 102
1.62881 -0.382223 4.08867 79 125 113
1.70856 -0.379274 4.08548 174 225 211
-0.0658664 -0.397126 4.28335 138 218 175
0.719636 -0.389462 4.20271 159 224 208
1.21127 -0.380659 4.13416 118 172 155
-0.254876 -0.394877 4.32159 64 141 103
0.168335 -0.391313 4.25337 112 157 140
1.65757 -0.372738 4.09185 161 222 194
1.79654 -0.371712 4.08514 92 147 138
0.688134 -0.38028 4.21531 79 143 124
1.14014 -0.371584 4.13723 58 104 85
1.5808 -0.366009 4.08766 158 212 195
1.78809 -0.367881 4.07976 159 211 193
-0.0163332 -0.378945 4.2724 70 132 96
1.23353 -0.368257 4.11554 62 95 74
-1.66206 -0.403751 4.53912 217 255 249
-0.114682 -0.38286 4.29396 71 114 87
0.392806 -0.373863 4.22907 67 146 127
1.78457 -0.362093 4.08204 101 150 142
1.88348 -0.363082 4.09033 69 99 88
0.124752 -0.376652 4.27112 132 187 172
1.55269 -0.361896 4.0976 162 221 206
1.80533 -0.357147 4.08191 97 137 132
-0.0302501 -0.372308 4.28767 70 150 113
1.50891 -0.361288 4.10924 93 146 133
1.1221 -0.360549 4.14701 154 231 204
1.62399 -0.353454 4.09067 167 217 199
-0.532471 -0.378646 4.37405 110 162 155
-0.0473472 -0.370866 4.28103 166 243 205
0.847352 -0.358329 4.19349 63 125 111
1.39558 -0.355281 4.11482 93 140 131
1.53404 -0.352338 4.11164 103 150 141
-2.50602 -0.397136 4.66481 102 158 147
-0.338859 -0.368977 4.33334 44 134 88
1.87131 -0.350154 4.07297 135 185 175
0.675331 -0.358348 4.20842 70 128 117
1.5128 -0.348141 4.10234 87 123 109
-0.385928 -0.366872 4.34169 83 114 117
0.156359 -0.358207 4.26365 71 116 100
1.10514 -0.347338 4.14333 136 219 181
1.49583 -0.346998 4.1094 69 99 88
1.19059 -0.341114 4.12148 70 122 99
1.46042 -0.341485 4.10207 76 136 112
1.97717 -0.339805 4.05925 136 182 160
-0.326048 -0.356997 4.34915 60 145 107
0.381774 -0.350424 4.24118 141 211 180
1.63286 -0.338562 4.1022 139 188 174
-2.33133 -0.380209 4.64306 136 172 180
-0.183602 -0.352311 4.31615 60 123 103
0.949679 -0.341983 4.17389 81 151 128
-0.268872 -0.353561 4.32904 59 121 97
-0.243247 -0.350895 4.32505 123 185 167
0.124931 -0.347211 4.27634 67 124 99
0.392703 -0.346014 4.24407 83 155 132
0.0675304 -0.346422 4.27952 36 89 56
0.577265 -0.339251 4.22364 86 143 135
0.78489 -0.337994 4.19259 152 223 206
1.07987 -0.332913 4.15099 148 204 193
1.9639 -0.323745 4.05368 126 188 166
-0.0463454 -0.338995 4.30294 52 110 75
1.06801 -0.330789 4.15428 144 200 187
1.51866 -0.327127 4.11032 95 146 132
2.45965 -0.315242 3.93794 102 134 117
1.04717 -0.328456 4.16078 186 237 233
1.78098 -0.323629 4.08232 151 207 186
-0.192809 -0.337122 4.31901 161 230 209
0.484341 -0.331025 4.23559 67 144 130
0.761928 -0.324027 4.20774 96 140 127
1.07489 -0.322033 4.16548 82 111 108
1.41616 -0.320644 4.11553 66 113 104
1.50317 -0.317382 4.1037 73 125 108
1.56945 -0.317838 4.11504 102 144 133
1.57674 -0.318185 4.10936 90 129 121
0.943391 -0.321291 4.17809 45 91 78
0.901455 -0.318429 4.19182 172 240 223
1.15353 -0.317728 4.1391 64 104 86
1.54007 -0.311357 4.10792 152 211 190
2.47082 -0.300785 3.94383 109 152 119
-0.180495 -0.324979 4.31537 74 140 121
-0.0553881 -0.323012 4.30362 54 109 90
0.0796027 -0.321125 4.27349 51 102 74
0.722984 -0.318956 4.20911 86 138 128
-0.00588425 -0.320806 4.28617 78 125 93
0.316335 -0.315486 4.24553 56 113 88
0.891417 -0.315752 4.18282 58 116 98
1.08975 -0.309305 4.14756 88 134 128
1.18475 -0.309121 4.13724 95 146 138
1.4012 -0.307166 4.12027 166 223 208
1.55127 -0.30668 4.11568 45 91 68
1.90292 -0.305137 4.07879 105 149 136
0.633107 -0.310626 4.20386 173 228 219
1.8763 -0.302409 4.06484 158 216 188
0.3364 -0.310858 4.24424 68 128 98
1.52168 -0.303435 4.1191 99 145 132
1.76984 -0.300002 4.0662 134 187 160
0.741749 -0.304876 4.20796 85 146 132
0.909925 -0.306488 4.18765 194 247 227
0.95249 -0.306323 4.17424 90 138 114
-0.296809 -0.311819 4.32469 168 238 197
0.373987 -0.306128 4.24783 130 208 171
1.00967 -0.302443 4.17523 77 139 117
1.02667 -0.300934 4.16627 141 211 180
-0.162491 -0.30835 4.31051 159 222 196
0.83853 -0.297157 4.19362 90 152 140
1.1256 -0.297657 4.15461 61 107 95
1.89489 -0.291157 4.07975 67 110 95
-0.00250389 -0.302752 4.28119 157 223 204
0.0917468 -0.300422 4.25436 156 223 186
0.751076 -0.297962 4.21568 80 146 135
0.903579 -0.296054 4.19325 88 149 123
1.78453 -0.287494 4.06424 45 77 58
1.18821 -0.29127 4.157 76 129 116
0.0920146 -0.297253 4.27363 153 219 178
0.268911 -0.296004 4.25451 57 136 109
0.92563 -0.289875 4.18415 94 161 132
1.14424 -0.287965 4.15296 52 104 81
-0.371472 -0.300064 4.34951 158 208 196
0.927235 -0.289797 4.18457 80 152 122
-1.20395 -0.307106 4.48133 93 134 137
0.96952 -0.284368 4.18423 159 223 211
1.26851 -0.282408 4.15029 68 99 92
1.75313 -0.279232 4.08209 156 215 187
1.83322 -0.277571 4.08849 151 202 188
-0.225027 -0.291434 4.32338 70 130 106
0.820052 -0.284652 4.20031 55 138 106
1.71074 -0.275135 4.0775 49 94 68
1.839 -0.275866 4.09137 145 204 184
1.38405 -0.274753 4.13063 95 144 128
1.50896 -0.275597 4.12148 84 143 123
0.894159 -0.27736 4.19076 73 132 117
1.54283 -0.271996 4.12151 33 76 55
1.55785 -0.270548 4.10935 26 60 43
1.79075 -0.269543 4.06108 138 206 181
-2.19925 -0.302905 4.637 127 179 186
1.2202 -0.272168 4.14247 163 200 190
1.40187 -0.273376 4.1269 74 128 111
1.54616 -0.268483 4.10938 135 200 161
1.62166 -0.264935 4.09124 79 115 99
-0.171319 -0.277496 4.3155 78 156 119
1.05374 -0.268622 4.16292 152 200 182
1.33252 -0.26204 4.13923 77 108 99
-0.312458 -0.272716 4.33786 161 215 186
0.831869 -0.264311 4.20278 66 131 109
1.06148 -0.262315 4.16719 80 124 111
-0.349093 -0.271646 4.35797 89 156 125
0.451367 -0.263652 4.24491 85 150 135
1.62266 -0.256216 4.09898 130 185 160
0.466005 -0.259721 4.24529 167 223 212
0.236128 -0.259956 4.25555 61 123 87
0.964629 -0.254763 4.18456 90 138 126
1.28826 -0.252204 4.14127 84 128 111
-2.97095 -0.286818 4.7276 81 131 121
-2.94385 -0.286166 4.71908 91 166 144
-0.0060445 -0.259025 4.29857 100 169 132
-2.50716 -0.280873 4.67054 98 169 152
0.229584 -0.255511 4.25862 152 225 179
0.413095 -0.255353 4.259 81 154 138
1.15267 -0.247706 4.16371 166 215 217
1.58112 -0.243217 4.10508 135 172 162
-0.317882 -0.254795 4.34762 151 213 191
-0.108928 -0.256035 4.31561 78 129 102
0.0698433 -0.25167 4.28916 153 222 202
0.367756 -0.249415 4.25901 92 151 130
1.19927 -0.246139 4.13732 72 107 97
1.80468 -0.237526 4.07229 72 106 100
1.87419 -0.240848 4.07343 140 205 160
1.89273 -0.241397 4.07183 49 94 78
-1.50799 -0.257847 4.54335 208 252 246
-0.0387173 -0.244828 4.29966 74 129 104
0.237093 -0.242188 4.25683 55 130 84
0.301563 -0.24246 4.25968 70 124 101
1.82292 -0.232959 4.07477 149 204 185
-1.90647 -0.257825 4.59801 122 176 177
0.371973 -0.237896 4.2635 86 155 134
1.56179 -0.233669 4.12875 58 82 70
-0.0852212 -0.23899 4.30861 137 208 181
0.0257636 -0.240786 4.30127 128 212 177
1.00653 -0.231451 4.18845 94 147 137
1.51212 -0.230453 4.11895 52 85 70
1.52903 -0.228024 4.11424 72 108 96
2.49132 -0.222123 3.98891 123 153 128
-0.121276 -0.234982 4.32397 62 124 94
0.345864 -0.233444 4.255 81 159 122
0.202884 -0.23206 4.27437 145 215 185
1.4337 -0.22671 4.12626 162 228 199
1.48569 -0.225957 4.11284 91 118 108
1.40977 -0.221408 4.13263 52 95 84
-2.93615 -0.252405 4.75565 103 169 168
0.941221 -0.22165 4.19388 157 224 217
-0.18165 -0.227776 4.33262 68 104 87
0.488632 -0.221828 4.23928 79 136 111
0.236385 -0.221354 4.27606 35 82 60
1.9521 -0.209611 4.07556 82 117 107
-1.56898 -0.232794 4.54783 116 169 172
1.27116 -0.210886 4.15045 169 222 209
1.42953 -0.210511 4.13556 159 216 201
1.53582 -0.209995 4.13897 91 129 117
-1.76309 -0.229838 4.58515 119 157 162
0.934324 -0.213914 4.19266 83 135 128
1.3255 -0.208087 4.13916 87 137 135
1.47006 -0.210289 4.14302 91 120 117
-0.0519755 -0.211417 4.30665 131 188 149
1.04705 -0.209149 4.18435 181 242 228
-0.381543 -0.213589 4.36127 68 122 122
1.54949 -0.201644 4.11708 158 199 184
-0.275924 -0.21062 4.34245 148 237 198
-0.292607 -0.20407 4.33405 53 109 88
1.2253 -0.197035 4.16083 159 207 201
1.539 -0.197441 4.12772 158 206 188
0.343744 -0.198241 4.26078 64 139 123
1.61082 -0.1923 4.12109 155 206 179
1.93114 -0.191876 4.09327 173 209 203
-0.284899 -0.203357 4.35422 64 122 98
-0.240983 -0.203971 4.33722 79 148 128
1.46834 -0.191762 4.13102 109 153 140
0.296549 -0.197187 4.27137 88 145 130
0.594388 -0.193823 4.24425 83 144 134
0.603149 -0.194101 4.24453 157 217 207
1.21315 -0.188441 4.16516 177 227 223
1.43041 -0.18772 4.13875 91 143 133
1.45914 -0.189449 4.13467 90 130 118
1.54105 -0.189031 4.13707 125 156 141
0.880734 -0.189006 4.20121 143 198 189
1.62543 -0.18762 4.12485 92 121 112
1.62713 -0.187474 4.12555 92 119 110
-2.54586 -0.205355 4.67565 94 149 134
1.29068 -0.186458 4.15716 96 135 127
-0.202037 -0.186144 4.33568 58 132 98
1.26759 -0.179642 4.16761 115 149 149
1.53084 -0.177182 4.14056 89 133 127
0.741976 -0.178781 4.22898 65 122 114
0.863851 -0.175967 4.21033 168 225 217
1.17314 -0.178778 4.16804 70 114 108
-0.159633 -0.179062 4.33223 67 140 108
1.37597 -0.174517 4.15138 160 201 186
1.55134 -0.172415 4.13125 118 176 152
1.84056 -0.171779 4.10365 151 203 186
-0.21001 -0.17878 4.34138 139 235 194
0.0482246 -0.17552 4.30449 67 134 103
0.486008 -0.172294 4.25048 143 200 175
1.16918 -0.169205 4.17836 155 226 223
1.53505 -0.167744 4.1272 57 101 78
-0.544901 -0.172914 4.39526 218 244 251
0.0399651 -0.17141 4.308 90 165 133
0.853513 -0.164504 4.21487 84 145 125
1.16991 -0.163189 4.16877 168 237 227
1.42002 -0.159158 4.13028 111 164 150
-0.284445 -0.166245 4.34987 62 122 92
0.224536 -0.163195 4.27382 88 146 122
0.283314 -0.164445 4.27412 99 164 148
0.497739 -0.163461 4.25692 83 130 121
0.692609 -0.161942 4.23178 85 152 137
1.12042 -0.16004 4.19267 68 120 110
-0.862988 -0.169224 4.44745 103 146 143
0.330515 -0.164046 4.26678 64 137 115
-0.0148359 -0.161349 4.31227 76 143 116
0.489228 -0.159154 4.25988 170 229 214
1.36403 -0.151669 4.14634 169 211 200
0.473456 -0.157221 4.25271 154 213 199
0.210366 -0.152423 4.2909 145 220 182
0.369019 -0.155331 4.26312 85 156 139
1.16552 -0.147858 4.17096 161 209 211
1.61154 -0.145964 4.13394 122 164 147
-0.13557 -0.149335 4.31059 153 211 193
-2.19811 -0.156945 4.62937 128 169 178
0.0442367 -0.144332 4.31532 78 136 108
-0.0782035 -0.144212 4.3364 58 107 87
0.092858 -0.141883 4.30427 145 212 180
0.223593 -0.139247 4.2862 89 163 145
-0.705054 -0.14054 4.42745 105 143 155
1.24388 -0.127611 4.17652 93 118 120
-0.859353 -0.133759 4.45109 77 130 120
-0.0669485 -0.133423 4.34129 46 95 81
0.833621 -0.130687 4.2245 85 144 124
0.940328 -0.128893 4.20267 176 239 223
1.37831 -0.122546 4.12752 59 85 67
-0.281364 -0.127064 4.36175 150 226 202
0.817295 -0.122131 4.23493 68 150 128
1.17544 -0.120711 4.17283 180 231 227
0.141101 -0.122955 4.28639 47 86 60
0.504366 -0.12033 4.26187 63 127 108
0.935306 -0.120871 4.21029 75 131 120
1.36266 -0.11851 4.12417 148 193 166
2.25851 -0.116114 4.05894 138 191 158
0.703816 -0.117531 4.23779 159 219 209
0.744598 -0.118357 4.23191 59 115 110
0.854695 -0.119092 4.22257 153 217 205
1.15529 -0.116591 4.18447 91 151 145
1.33704 -0.116934 4.16542 186 225 217
1.6427 -0.112452 4.12606 134 200 171
-0.549825 -0.118575 4.4012 110 170 160
0.000783259 -0.115024 4.32589 96 163 142
0.475179 -0.114972 4.27894 70 128 117
1.26651 -0.110507 4.18381 67 94 84
-0.288406 -0.112923 4.36737 163 215 205
-0.241482 -0.114765 4.35385 148 236 196
0.797263 -0.111457 4.23173 89 139 137
0.900674 -0.108245 4.22587 79 105 89
0.992447 -0.110088 4.20704 75 142 135
1.27405 -0.107456 4.17491 144 192 180
2.56053 -0.103832 4.05662 119 180 166
1.14187 -0.102519 4.18487 85 142 139
1.46449 -0.10259 4.14182 169 203 196
1.32994 -0.0992591 4.14499 173 218 202
0.308798 -0.101043 4.28747 80 151 135
0.345863 -0.0982654 4.288 158 241 203
0.672853 -0.0989617 4.23816 76 123 114
1.21865 -0.0950717 4.18768 126 172 166
1.35615 -0.0950869 4.13304 157 209 172
0.249772 -0.0942884 4.29151 88 148 137
1.27273 -0.0953606 4.1762 64 87 82
0.139744 -0.0953464 4.29961 75 130 103
0.502601 -0.0923556 4.27192 78 137 123
0.814016 -0.0942575 4.23233 93 152 138
1.19059 -0.0920845 4.18762 74 124 114
1.26169 -0.0903591 4.17285 159 210 202
1.34556 -0.0920029 4.1459 52 70 57
0.576724 -0.0860235 4.25747 139 223 199
1.2731 -0.0835951 4.18446 56 93 83
0.090353 -0.0832956 4.30922 94 155 127
0.625386 -0.0797727 4.25972 87 152 143
1.32087 -0.0782503 4.15661 159 210 196
-0.39782 -0.0788518 4.38502 174 227 224
1.46161 -0.0727325 4.15183 107 138 131
1.84199 -0.0740737 4.10618 64 111 89
0.195413 -0.0739503 4.28784 71 153 134
1.0869 -0.0736747 4.19622 72 125 122
-0.260265 -0.0721272 4.3704 86 139 119
-0.0775573 -0.0728948 4.33452 70 145 117
1.66406 -0.0699474 4.13309 165 236 203
1.87341 -0.0679295 4.09576 138 202 173
2.44584 -0.0662384 4.07664 133 181 163
1.2562 -0.0638268 4.17694 163 216 203
1.32357 -0.0656584 4.14781 165 219 206
0.356175 -0.0625464 4.281 163 234 214
-0.191412 -0.0600316 4.36351 158 226 201
-0.158219 -0.0607836 4.35023 67 133 104
-0.060036 -0.0610879 4.33335 156 235 202
-0.0535677 -0.0606377 4.33419 65 137 107
0.268152 -0.0603266 4.29476 96 159 127
1.25487 -0.0583491 4.18463 82 130 118
1.8005 -0.0519985 4.08914 133 191 156
-0.345303 -0.0542309 4.37647 148 217 197
1.28216 -0.05309 4.16829 158 201 190
1.784 -0.0520655 4.099 52 87 67
0.49512 -0.051545 4.27042 87 151 132
0.94065 -0.0511461 4.22447 153 235 213
1.80295 -0.0510558 4.09318 143 204 168
-0.39126 -0.0521254 4.4105 103 149 156
0.895455 -0.0489511 4.22535 91 143 125
2.48961 -0.0454658 4.05953 140 182 164
0.16987 -0.0446124 4.31306 76 142 113
0.0144628 -0.0440148 4.33372 77 149 129
0.181179 -0.0403197 4.29527 46 109 77
0.215547 -0.042806 4.29673 66 157 132
-0.371314 -0.0382621 4.38666 77 147 130
0.427819 -0.0409317 4.28626 57 135 111
0.631607 -0.0396438 4.26983 84 135 131
0.420176 -0.0364449 4.29076 114 199 167
0.834376 -0.0373366 4.23969 84 155 139
0.993753 -0.0359081 4.21314 73 144 134
0.769557 -0.0334349 4.24858 129 195 183
1.7845 -0.0325925 4.11539 117 169 139
0.173175 -0.0309431 4.3002 44 112 81
0.660961 -0.0291789 4.27095 151 226 210
0.967384 -0.0293696 4.22366 70 140 123
1.7529 -0.0305127 4.12557 47 86 71
0.0457734 -0.0264492 4.33444 91 156 131
0.190918 -0.0283444 4.302 77 142 126
0.933082 -0.0282257 4.22763 69 138 118
1.77036 -0.0270848 4.1154 78 154 113
0.070751 -0.0271398 4.32963 38 96 72
1.02141 -0.0274332 4.2114 79 152 142
1.30819 -0.0248729 4.17386 72 102 97
-0.176433 -0.0209842 4.36957 70 135 119
0.656428 -0.0191077 4.25649 78 125 123
0.917864 -0.0199184 4.22962 83 140 119
1.29419 -0.021126 4.16264 168 211 202
1.31553 -0.0198866 4.16822 180 217 209
-0.0666781 -0.0153731 4.34308 70 112 89
0.0567011 -0.0189942 4.32934 84 144 120
0.464243 -0.0160287 4.27996 74 136 122
0.199123 -0.0137749 4.29289 144 234 181
-0.13433 -0.0104937 4.3436 62 144 115
-0.0729947 -0.0117396 4.34978 61 111 93
0.223904 -0.0113763 4.30014 82 149 112
1.01651 -0.0112 4.22354 45 108 99
-0.311671 -0.00884868 4.37468 68 142 114
0.248864 -0.00625999 4.29858 65 138 106
1.7107 -0.00778389 4.13446 139 184 181
0.0854532 -0.00622593 4.32439 93 161 126
0.162157 -0.00562284 4.31587 58 114 91
1.77179 -0.00165539 4.1216 141 199 171
0.15447 -0.000923743 4.31995 139 208 181
0.822832 0.00180417 4.24777 61 113 103
2.47845 -0.00161003 4.08222 85 141 128
-0.7091 0.00203173 4.44738 105 151 158
-1.59798 0.00704388 4.58766 105 153 154
-0.371912 0.00583853 4.401 92 159 144
-0.199866 0.00688068 4.35735 91 151 133
1.03227 0.00928947 4.22093 96 146 144
1.29947 0.00825744 4.18496 178 228 218
-0.650373 0.0109985 4.44526 115 178 168
-0.200217 0.0099813 4.37076 68 133 112
0.855811 0.00959308 4.24138 142 212 195
0.275155 0.0127642 4.30396 51 126 88
0.75471 0.013888 4.25738 80 141 131
1.33952 0.0127337 4.17559 154 193 185
-2.54406 0.0194565 4.71026 112 174 144
0.634543 0.0151975 4.2715 150 216 204
1.16212 0.0176306 4.20188 101 150 148
1.30274 0.015865 4.17646 83 123 112
0.247178 0.0192683 4.29834 58 116 91
0.43518 0.0202086 4.29091 88 160 147
-0.299403 0.0221842 4.38837 77 150 128
0.151507 0.0229023 4.31345 70 124 94
1.35749 0.0229327 4.16068 156 222 193
0.0340271 0.0239097 4.33482 64 109 90
1.10589 0.0245868 4.2131 94 136 125
0.982305 0.0286249 4.23088 71 134 118
1.52966 0.0270009 4.14304 62 84 72
0.351868 0.0301845 4.30119 67 133 114
0.704568 0.0301797 4.26277 61 99 99
0.804441 0.0311302 4.25524 64 126 114
0.143155 0.0324181 4.33222 72 145 123
0.168525 0.0333052 4.32555 45 116 90
0.265376 0.0344919 4.30082 138 232 198
0.319 0.035237 4.29124 172 238 209
-0.241499 0.0425277 4.38435 79 146 131
1.14624 0.0395046 4.2073 155 212 203
1.16931 0.0420314 4.20691 93 154 140
1.22003 0.0438645 4.18085 82 99 96
1.22768 0.0498906 4.20498 79 100 92
1.96654 0.0495823 4.12871 125 163 167
0.814339 0.0509364 4.25288 85 153 142
0.0134026 0.0572349 4.34791 45 126 93
0.136751 0.0546825 4.31918 60 133 101
0.19838 0.0551191 4.30808 151 238 205
-2.6119 0.0647165 4.75748 85 122 118
-0.0931628 0.0647599 4.35642 149 241 198
0.226575 0.0652179 4.3214 146 225 192
0.302303 0.0656662 4.31331 93 149 130
0.910339 0.0640396 4.24522 80 133 123
1.11818 0.0620369 4.20945 51 115 103
1.35999 0.0611886 4.17 154 200 187
2.39359 0.0698222 4.08529 145 204 183
0.105741 0.0785746 4.33573 88 146 128
0.306035 0.079273 4.32215 137 206 179
0.83908 0.0780703 4.25929 93 157 145
0.0643132 0.083433 4.33964 83 160 132
0.407103 0.081904 4.31002 74 144 121
0.561157 0.0836835 4.29268 170 230 224
1.24228 0.0801801 4.19939 66 97 88
1.27996 0.0823408 4.18373 153 235 212
0.0526818 0.0920452 4.34727 74 158 124
0.740879 0.0909605 4.26038 102 149 140
2.24915 0.0844018 4.09864 84 154 123
0.286797 0.0921545 4.33502 88 151 125
0.29324 0.092151 4.31734 145 199 176
0.882294 0.0894002 4.25549 119 163 156
-0.556359 0.102316 4.44814 103 155 148
1.38979 0.0923158 4.17602 72 105 84
0.0406741 0.106193 4.34728 88 153 137
0.842669 0.105109 4.2486 153 216 206
-0.159631 0.108681 4.37757 63 146 121
0.620517 0.104263 4.28546 81 148 133
1.41139 0.103921 4.17743 147 204 171
1.54374 0.10282 4.14181 126 155 140
0.294111 0.109666 4.31863 114 161 145
2.27288 0.105564 4.10033 86 142 121
-0.256012 0.117299 4.39407 92 166 138
-0.110364 0.113407 4.36855 75 145 115
0.234624 0.116161 4.3213 38 99 71
1.18097 0.110511 4.22358 85 122 114
1.29399 0.107633 4.19975 71 112 97
-0.354789 0.117771 4.40781 62 132 115
-0.335906 0.121195 4.41662 88 150 134
-0.00401761 0.117771 4.3559 75 141 112
0.168599 0.116207 4.33256 68 146 123
1.42413 0.114989 4.17852 33 50 41
1.40563 0.11968 4.18113 65 86 84
0.540252 0.127878 4.3003 155 223 216
0.0960224 0.128478 4.33918 39 99 81
0.433096 0.128619 4.31003 83 138 119
-0.137763 0.136407 4.36238 51 124 98
-0.11139 0.134226 4.37113 66 124 99
0.16387 0.136346 4.32204 69 138 117
0.740539 0.132926 4.2794 76 133 124
1.17162 0.128994 4.21695 83 124 126
0.230452 0.138296 4.32692 153 233 196
1.59983 0.130451 4.12826 198 236 218
-1.59811 0.146063 4.61019 130 164 177
-0.379423 0.145202 4.41133 124 170 157
0.164767 0.142126 4.34403 59 128 107
0.746927 0.139764 4.27805 161 225 206
0.433394 0.139414 4.30035 72 150 127
0.882015 0.139502 4.24043 101 149 137
1.25624 0.140009 4.21006 89 135 129
2.15851 0.134385 4.10533 138 188 156
0.0941877 0.148088 4.35897 97 153 142
0.940032 0.142844 4.26062 169 226 211
1.35307 0.140353 4.18643 81 115 108
1.41822 0.141087 4.18924 131 190 162
0.860422 0.146604 4.26438 87 158 142
1.14027 0.143671 4.20847 134 181 173
0.00995708 0.154074 4.35512 56 127 101
0.260124 0.15128 4.33525 56 117 89
0.428543 0.15047 4.31229 91 160 145
1.42329 0.150439 4.19825 66 98 87
1.4993 0.148366 4.14845 58 85 76
1.5278 0.147241 4.16232 41 63 44
1.14644 0.153987 4.21559 93 127 117
1.35467 0.151044 4.1952 174 214 213
2.19541 0.153242 4.11255 129 168 143
1.60936 0.156892 4.14101 72 103 94
0.846477 0.165331 4.26164 85 140 131
1.15166 0.162694 4.22532 89 120 113
1.24517 0.164568 4.21309 93 122 127
1.36746 0.16099 4.18195 57 77 78
1.43011 0.16225 4.19349 45 63 56
0.464306 0.167495 4.31027 94 150 139
0.94499 0.167344 4.26811 68 118 108
1.30299 0.166779 4.20684 143 191 179
0.8131 0.171024 4.28025 154 216 202
1.27843 0.166528 4.21078 125 166 159
1.16429 0.170676 4.21869 96 131 121
0.958309 0.176859 4.25952 157 228 212
1.17996 0.174413 4.21723 109 147 135
1.18427 0.174405 4.2126 99 145 126
0.748042 0.179257 4.28244 70 136 124
1.32968 0.177938 4.20417 78 114 114
2.57712 0.1724 4.07969 146 192 169
0.712704 0.181017 4.28697 82 152 135
0.941728 0.183203 4.25692 71 115 102
1.38015 0.18168 4.18686 94 130 118
-0.36811 0.194388 4.40844 70 140 127
1.54277 0.184534 4.18901 108 154 135
0.360498 0.190793 4.33629 53 127 103
1.00615 0.188739 4.24386 151 213 199
1.09558 0.187512 4.24081 133 189 160
1.41122 0.185967 4.20133 87 137 113
2.19639 0.180853 4.10627 131 196 164
1.44142 0.187322 4.20238 134 170 156
0.18482 0.197495 4.33536 145 223 206
1.46692 0.193554 4.1896 156 201 192
2.22247 0.190782 4.10939 146 209 189
1.07033 0.198504 4.23948 144 221 184
1.01991 0.202531 4.24101 68 124 113
1.07009 0.20622 4.24409 73 134 106
1.49313 0.205133 4.18674 50 72 60
-0.355638 0.220567 4.42587 156 229 183
0.288821 0.216695 4.32556 57 132 94
0.473569 0.218204 4.32788 73 126 116
1.14544 0.211626 4.2255 87 120 116
1.33124 0.21106 4.19632 143 178 174
1.47441 0.209509 4.20023 27 55 49
1.52179 0.209852 4.18561 131 169 169
2.28661 0.207608 4.12833 91 152 132
1.48696 0.213566 4.19098 134 176 151
2.22182 0.208737 4.12749 135 200 178
2.48966 0.207599 4.08861 138 214 183
1.54774 0.215318 4.18899 164 212 206
0.122592 0.224371 4.35335 62 121 107
1.51287 0.216425 4.18879 59 73 72
-2.53716 0.249317 4.75247 128 185 170
-0.0837424 0.231307 4.37634 58 130 100
0.82528 0.224245 4.27785 165 242 198
-0.143075 0.231746 4.39396 63 124 104
0.370016 0.232789 4.33613 53 118 92
0.916296 0.231151 4.26853 160 225 209
1.31475 0.229555 4.21843 148 195 163
1.49538 0.227119 4.19209 126 171 162
1.35447 0.229024 4.19676 175 225 215
0.805938 0.23784 4.28546 70 120 102
1.15146 0.233711 4.22508 59 95 83
1.2967 0.233513 4.21801 79 127 121
0.259008 0.243355 4.33305 41 119 78
0.854058 0.238412 4.27955 172 230 206
1.31723 0.23693 4.21594 43 83 71
-0.3695 0.251378 4.43475 89 153 141
0.504222 0.246711 4.32858 163 228 226
0.559914 0.245282 4.32377 83 137 137
0.934676 0.24424 4.26422 102 136 126
1.18452 0.238893 4.22866 118 154 140
-0.0142701 0.252231 4.37358 54 115 95
0.471847 0.248945 4.32604 85 139 126
1.46182 0.241085 4.20336 117 154 150
2.04903 0.236423 4.14267 97 148 111
2.26748 0.238065 4.13415 59 122 102
2.48741 0.236941 4.10222 75 131 110
0.00226372 0.252497 4.38243 79 145 126
0.0943322 0.252539 4.35831 102 157 142
0.334895 0.249432 4.33463 84 156 134
0.84598 0.249056 4.28295 148 214 185
1.56968 0.243902 4.1957 94 135 128
1.60887 0.242612 4.18884 149 201 184
1.76415 0.241829 4.16774 48 60 48
0.0109123 0.259151 4.37864 86 148 136
0.320395 0.253709 4.33895 57 138 111
0.835491 0.248499 4.27055 64 122 98
0.940814 0.249226 4.28127 68 102 92
0.948125 0.251119 4.26384 169 207 195
1.09187 0.249866 4.25525 74 121 113
1.19436 0.247389 4.21923 46 65 44
1.93766 0.243949 4.15791 155 201 179
2.10001 0.243397 4.1442 126 173 151
0.609863 0.257189 4.31381 74 117 106
1.32485 0.25034 4.20712 54 93 85
1.4773 0.250841 4.20921 98 142 129
-0.327736 0.26229 4.41529 120 180 162
0.725567 0.259328 4.29364 92 151 136
1.92036 0.249885 4.16022 123 192 159
-0.172485 0.266248 4.40633 54 117 97
0.0117179 0.264715 4.37306 103 159 148
0.653266 0.261216 4.30647 80 154 136
0.958955 0.258329 4.26014 73 120 104
1.77542 0.252263 4.17615 26 47 32
-0.321192 0.273301 4.43202 101 150 134
0.275566 0.269385 4.34646 152 229 191
-0.720239 0.278709 4.48451 219 241 252
0.222574 0.27016 4.34987 138 243 206
1.17381 0.260914 4.22462 147 217 187
0.613518 0.267312 4.31183 70 122 112
1.93277 0.26149 4.17711 62 118 99
0.110602 0.279444 4.37218 81 130 114
1.50096 0.265188 4.2003 77 111 100
2.18447 0.261574 4.15003 79 137 113
-0.29595 0.28345 4.42357 85 135 125
0.174884 0.277717 4.36533 60 148 118
0.593037 0.275913 4.32292 83 143 133
-2.08603 0.304327 4.69426 121 172 165
-0.355898 0.287315 4.44113 90 151 137
-0.0669896 0.283834 4.37809 43 117 89
-0.00504 0.285756 4.38724 57 97 85
-0.00504 0.285756 4.38724 57 97 85
0.110929 0.282168 4.38148 65 116 102
1.01288 0.275681 4.2621 81 142 122
1.75913 0.272231 4.18476 48 64 53
1.80526 0.268714 4.17123 62 94 93
0.878937 0.279291 4.28207 72 124 107
0.886738 0.278501 4.27997 157 230 204
1.09405 0.280571 4.25665 174 219 203
1.74027 0.272497 4.1867 53 88 74
1.75063 0.271099 4.17747 55 78 63
-0.0525663 0.291333 4.38667 105 164 143
0.679977 0.28864 4.31554 90 149 135
1.07641 0.284924 4.26303 150 225 203
1.51181 0.282053 4.19667 136 198 180
1.6597 0.27941 4.18295 143 199 180
0.0600175 0.297838 4.38369 77 149 127
0.0870662 0.294315 4.37673 99 181 146
1.9488 0.279016 4.16084 117 181 152
2.3121 0.27699 4.13345 83 134 120
-1.60751 0.313478 4.62166 101 153 153
1.19879 0.286764 4.22984 146 191 172
1.22293 0.289787 4.2312 154 186 181
1.77196 0.282844 4.18507 115 148 134
-0.319288 0.306577 4.4404 169 221 204
-0.218667 0.302531 4.4191 82 134 116
-0.0254046 0.303199 4.3938 77 139 121
0.826531 0.294472 4.2898 149 204 189
0.887424 0.293085 4.27638 72 131 111
1.11099 0.290377 4.24587 153 205 195
2.11113 0.285544 4.15773 162 224 194
0.771382 0.29771 4.29868 90 145 136
1.61523 0.290779 4.18801 38 78 66
-0.215562 0.307622 4.41001 83 133 121
0.171941 0.304084 4.34904 52 132 97
1.20269 0.295472 4.23651 86 114 114
1.74048 0.294837 4.20515 68 109 94
2.0156 0.293104 4.18668 148 208 197
2.21436 0.288578 4.14509 96 151 134
0.948546 0.300299 4.2732 88 131 122
2.11856 0.290549 4.15482 73 126 99
-2.56132 0.339382 4.77641 121 180 160
1.12913 0.301785 4.24653 73 115 104
1.53638 0.300059 4.19608 93 146 136
2.04988 0.296824 4.15456 134 196 172
1.02766 0.307894 4.26713 70 105 95
1.15854 0.304719 4.2405 179 222 211
2.08787 0.296285 4.15097 28 66 44
1.63684 0.305489 4.18205 55 93 87
1.96164 0.303104 4.16927 124 173 159
-3.0278 0.353368 4.84647 102 175 173
-0.712635 0.325786 4.4892 127 166 175
0.51952 0.315831 4.32043 158 220 208
1.03489 0.312275 4.27648 88 130 112
1.12696 0.30913 4.23634 163 210 194
2.16108 0.302362 4.14579 45 100 83
-0.206609 0.327436 4.42506 77 130 121
