ply
format ascii 1.0
element vertex 363
property float x
property float y
property float z
property uchar blue
property uchar green
property uchar red
end_header
-0.24068 -3.67922 5.41557 120 170 158
0.451839 -0.908807 2.13408 144 196 178
0.423855 -0.891318 2.77079 129 203 173
0.370578 -0.780624 3.62471 107 137 118
0.376142 -0.715336 3.34592 46 79 75
0.137574 -1.611 1.69975 99 176 138
0.443382 -1.00375 1.85641 74 122 96
0.445703 -0.998715 1.85864 148 224 190
-0.24068 -3.67922 5.41557 120 170 158
0.38925 -1.22047 2.9 98 152 145
0.383961 -0.796269 3.41782 53 81 62
0.218133 -0.639592 5.86924 150 219 204
0.20976 -0.534175 5.87795 80 107 98
0.100818 -0.500402 7.5983 49 85 68
0.401642 -1.09599 1.34569 124 185 159
0.137783 -1.61153 1.70085 99 176 138
0.406788 -1.10625 1.51197 105 189 161
0.446379 -0.994343 1.45647 150 222 180
0.448729 -0.986939 1.52445 143 202 171
0.0158858 -1.99788 2.22076 229 247 246
0.179198 -1.69914 2.10815 229 255 249
0.451814 -0.983687 1.5983 63 90 70
0.400807 -1.15977 1.81051 102 160 136
0.0831336 -2.02786 2.60582 143 158 161
0.233354 -1.70663 2.49484 87 170 132
-0.146068 -2.8783 3.7304 113 139 133
0.454689 -0.96833 1.70582 41 53 53
-0.0248447 -2.68238 3.87932 106 120 148
0.100459 -2.25139 3.3819 157 178 210
0.357567 -1.35082 2.30144 255 255 255
0.187255 -1.96975 3.08236 245 253 243
-0.175318 -3.26967 4.66862 161 167 178
0.448246 -0.983836 1.84837 53 99 76
-0.0664781 -2.95298 4.45068 149 163 191
0.446663 -0.986973 1.86503 80 130 100
0.204466 -1.96472 3.29652 115 177 165
0.449948 -0.968827 1.88665 75 114 92
-0.320953 -4.29103 6.68528 230 243 245
0.415748 -1.11992 2.15672 97 162 123
0.451549 -0.956509 1.97432 151 230 191
0.443052 -0.97281 2.16855 255 255 255
0.440924 -0.97525 2.27155 188 237 221
0.444848 -0.931321 2.28752 49 107 78
0.329235 -1.53869 3.74921 82 151 118
0.438141 -0.90853 2.44594 140 204 169
0.420445 -0.878495 2.83934 69 122 95
0.278831 -1.58225 5.1445 83 143 155
0.412258 -0.858311 2.9739 121 170 150
0.413328 -0.854704 2.97689 62 94 75
0.397319 -0.8425 3.2169 126 196 166
0.399962 -0.813241 3.14558 123 161 125
0.400785 -0.806022 3.11044 54 64 51
0.375252 -0.917355 3.62738 166 228 212
0.390296 -0.807266 3.309 61 104 89
0.387716 -0.811919 3.39432 69 115 102
0.914751 1.7615 -7.26404 214 242 242
0.37679 -0.799572 3.51668 180 204 180
0.374195 -0.781256 3.49633 99 134 114
0.375721 -0.780487 3.50859 112 139 113
0.372998 -0.782079 3.54 36 71 44
0.35229 -0.756461 3.87422 116 183 151
0.354234 -0.75588 3.88313 109 171 141
0.351418 -0.751455 3.89028 51 92 64
0.334452 -0.700476 4.03948 76 101 81
0.305943 -0.66036 4.46616 92 140 116
0.255407 -0.64931 5.32045 85 128 101
0.22644 -0.640553 5.71301 142 198 185
0.20407 -0.560193 6.01091 103 163 145
0.0853233 -0.487361 7.88283 95 169 139
0 0 0 96 149 170
0.630395 -0.0141702 -1.72048 64 109 100
0.0613948 -0.120635 6.83826 64 119 86
1.20418 0.121258 -10.4033 178 232 225
1.20551 0.116944 -10.3638 187 235 229
0 0 0 81 133 139
1.2476 -0.0740434 -11.0226 81 157 139
0.265914 -0.012185 3.87669 142 127 124
-0.122759 0.165362 10.7004 116 165 151
0.634253 -0.0626527 -1.64617 159 215 210
0 0 0 223 239 228
-0.190688 0.369973 11.9049 88 98 92
0.755705 -0.109466 -3.0746 212 238 225
0.232565 0.134287 4.2847 163 154 150
0 0 0 82 142 134
0.742479 -0.320844 -2.71464 176 231 206
0 0 0 57 95 89
0.649618 -0.234972 -1.39909 216 243 233
0.786377 -0.773494 -3.95764 55 118 98
0.995604 -2.18158 -9.76954 56 97 70
0.981447 -2.20851 -9.56621 68 112 95
0.766013 -1.06245 -4.34108 97 153 132
0.725067 -0.790493 -3.10481 67 104 88
0.719181 -0.784032 -2.97176 76 130 117
0.706629 -0.940058 -3.26403 99 144 127
0.703961 -0.802686 -2.83242 63 105 94
0.696588 -1.64963 -5.22863 51 119 84
0.696218 -0.945189 -3.18056 84 133 125
0.691226 -0.550806 -2.01645 57 106 114
0.412469 -1.07969 1.37298 59 104 87
0.112728 -1.67524 1.78064 119 152 145
0.113765 -1.70625 1.85246 94 129 119
0.447749 -0.989474 1.45412 73 120 94
0.100403 -1.73662 1.88165 112 163 155
0.151137 -1.70804 1.9935 119 111 148
0.0693632 -1.82452 2.00517 112 171 150
0.17868 -1.69752 2.08602 125 178 165
0.447508 -0.995877 1.54354 53 107 78
0.223438 -1.61211 2.06114 85 166 141
0.0153264 -2.04305 2.34231 228 255 242
0.00320519 -2.09627 2.41767 219 235 228
0.423613 -1.0796 1.7307 95 165 134
0.399537 -1.16931 1.8633 88 160 118
0.139007 -1.92361 2.58168 130 141 155
0.0622908 -2.13126 2.78188 133 147 166
0.349465 -1.34529 2.09165 76 155 128
-0.415724 -3.50668 4.11838 98 172 144
0.0646388 -2.26913 3.20892 136 168 157
0.194225 -1.88686 2.82778 255 255 255
0.452864 -0.948376 1.71979 115 148 133
0.374233 -1.29032 2.18472 103 180 146
0.447006 -0.99495 1.80074 220 246 230
0.114484 -2.18307 3.24475 196 200 205
0.439318 -1.02657 1.85496 102 181 154
0.452977 -0.948588 1.73942 53 79 61
0.357463 -1.35064 2.30016 255 255 255
0.443363 -1.00899 1.85634 97 154 133
0.448037 -0.968693 1.88238 79 121 96
0.448752 -0.971415 1.89564 65 102 76
-0.384939 -4.64924 7.32858 135 151 180
0.430029 -1.05791 2.10694 97 173 141
0.436741 -1.02826 2.06887 111 179 162
0.450518 -0.961662 1.95919 143 233 190
0.237424 -1.90528 3.52081 150 221 194
0.280662 -1.73599 3.31618 94 170 146
0.420635 -1.0863 2.2475 89 154 139
0.230798 -1.97993 3.83435 169 236 207
0.423815 -1.07745 2.28926 207 240 219
0.44047 -0.992954 2.14285 98 165 136
0.44733 -0.958672 2.09664 76 141 116
0.445308 -0.965293 2.11503 84 145 117
0.451575 -0.916548 2.10138 69 90 81
0.27265 -1.84959 4.37368 90 160 130
0.386874 -1.10717 3.32298 195 235 224
0.426643 -0.885693 2.70177 105 159 130
0.40995 -0.844082 2.9924 213 225 205
0.409014 -0.813182 2.91803 107 146 125
1.22195 3.67708 -12.5453 79 136 161
0.454676 -0.513065 1.89899 187 217 234
0.390071 -0.807399 3.33991 122 172 160
0.386537 -0.800017 3.34773 38 75 59
0.920481 1.76257 -7.26758 208 239 238
0.387756 -0.769152 3.26577 82 119 87
0.38347 -0.793786 3.40209 52 71 54
0.426274 -0.51769 2.368 143 135 136
0.423441 -0.51627 2.39595 188 191 195
0.418486 -0.540582 2.54277 181 181 181
0.423272 -0.508967 2.39674 116 94 83
0.306462 -0.948852 4.6855 95 124 108
0.417053 -0.520267 2.52907 187 190 195
0.418641 -0.497097 2.42018 150 152 153
0.413572 -0.511373 2.5157 146 141 143
0.33617 -0.644889 3.93427 84 138 121
0.313586 -0.677641 4.37521 40 68 45
0.599638 0.0673328 -1.67229 90 132 107
0.119591 -0.499156 7.31898 110 164 141
0.0989901 -0.493155 7.60955 40 66 50
-0.308789 -0.478233 14.192 83 157 129
0.0696661 -0.157855 6.72603 129 183 148
0.629612 -0.0385494 -1.66104 133 175 174
1.53151 -0.15465 -15.5965 187 230 219
-0.117328 0.163852 10.6837 111 147 133
0.2688 0.00635202 3.73635 140 132 125
-0.184563 0.243808 11.7208 87 123 106
0.246547 0.0317355 4.1459 113 100 92
0.233513 0.118109 4.29242 113 97 90
0.752051 -0.336292 -2.87681 92 159 138
0.716432 -0.324713 -2.26636 88 141 128
1.67159 -3.63132 -20.7135 42 84 53
2.28523 -6.03532 -29.9074 93 139 120
1.01052 -2.09516 -9.65393 45 95 83
0.989003 -2.20045 -9.66833 112 174 150
0.808598 -1.34928 -5.59274 252 254 254
0.725617 -0.793207 -3.10665 84 127 112
0.694158 -1.64777 -5.21681 47 117 81
0.400528 -1.09786 1.34696 125 193 168
0.404448 -1.09161 1.3553 250 255 241
0.406172 -1.09221 1.37218 65 101 79
0.400359 -1.10462 1.38688 81 112 97
0.40831 -1.09085 1.39089 82 157 143
0.413133 -1.07596 1.38299 58 120 96
0.404783 -1.09995 1.41174 98 158 147
0.39453 -1.13222 1.47862 91 177 147
0.424388 -1.06462 1.51556 85 159 133
0.161925 -1.70411 2.01795 166 158 175
0.445386 -0.99631 1.51659 83 131 102
0.449713 -0.975325 1.50126 129 182 169
0.178914 -1.69824 2.08782 125 178 165
0.118733 -1.81038 2.15223 128 125 141
0.444435 -0.999971 1.55027 150 223 191
0.0457196 -1.94877 2.2285 122 170 142
0.418584 -1.09799 1.68954 84 167 135
0.00893462 -2.08346 2.42411 113 129 128
0.418708 -1.09138 1.72564 104 155 128
0.445037 -1.00134 1.64577 77 118 90
0.140512 -1.92856 2.59312 139 153 171
0.0626242 -2.13299 2.78543 132 143 163
0.355794 -1.32745 2.06067 255 255 255
0.446363 -0.996917 1.68842 94 152 123
-0.00814751 -2.33823 3.02638 224 242 243
0.349098 -1.35346 2.11997 90 157 128
0.0145858 -2.41325 3.34828 103 112 121
0.19479 -1.88827 2.83153 255 255 255
-0.0850782 -2.80372 3.85418 227 246 253
0.452627 -0.948355 1.71939 115 148 133
0.0383848 -2.43459 3.55573 255 255 255
0.439817 -1.02666 1.85601 102 181 154
-0.0234085 -2.66667 3.8545 114 126 154
0.0984238 -2.24509 3.36761 161 170 207
0.447506 -0.999266 1.84366 156 216 185
0.455954 -0.932461 1.75349 169 203 196
-0.0577045 -2.85543 4.21789 157 174 200
0.0325043 -2.55213 3.91504 100 97 129
0.447211 -0.987046 1.86594 75 129 99
-0.268828 -3.91353 5.96176 241 250 253
0.451454 -0.965358 1.88745 139 214 182
-0.266321 -3.95865 6.14203 79 78 112
0.423941 -1.08059 2.10874 83 141 113
0.447411 -0.979482 1.94654 224 243 240
0.339868 -1.46326 2.72166 206 239 232
0.446905 -0.972297 1.95755 51 100 78
0.125636 -2.42972 4.391 98 170 148
0.444177 -0.971079 2.16332 255 255 255
0.446099 -0.955856 2.15466 84 141 116
0.45048 -0.910973 2.13117 106 160 147
0.26006 -1.90612 4.50154 101 163 133
0.433886 -0.910566 2.54776 150 206 185
0.426667 -0.885798 2.69974 97 146 118
0.41974 -0.889747 2.83812 87 153 128
0.424055 -0.863241 2.79187 69 107 79
0.418441 -0.870664 2.88338 120 182 160
0.41589 -0.873029 2.92584 59 100 73
0.415819 -0.81694 2.76297 33 50 41
0.416536 -0.802913 2.73403 74 128 115
0.414225 -0.797046 2.78975 86 140 135
0.404478 -0.815401 2.98703 56 72 54
0.403012 -0.827243 3.11568 118 176 152
0.401489 -0.8273 3.16554 153 199 176
0.404377 -0.798962 3.0668 122 154 135
0.395277 -0.794855 3.16863 119 185 156
0.388218 -0.800093 3.3465 46 80 63
0.374588 -0.782514 3.50883 88 126 108
0.364192 -0.8448 3.85 76 138 114
0.421932 -0.545188 2.47815 135 130 129
0.358314 -0.824262 3.84638 116 194 171
0.425937 -0.51812 2.36584 155 147 148
0.423673 -0.51605 2.39703 188 191 195
0.421815 -0.523967 2.44565 198 202 203
0.42265 -0.50908 2.39647 112 88 76
0.416324 -0.520611 2.52746 182 185 190
0.411515 -0.52691 2.62366 144 139 141
0.343368 -0.749305 4.03601 109 176 155
0.325926 -0.731045 4.33402 107 171 152
0.33964 -0.647829 3.82122 32 56 46
0.33395 -0.63973 3.90735 84 138 121
0.263656 -0.66137 5.22981 87 131 114
0.231391 -0.699256 5.72717 87 139 115
1.08003 1.02096 -9.14314 85 162 125
0.218857 -0.660449 5.87112 72 127 110
0.173801 -0.58028 6.50562 98 163 137
0.148723 -0.569252 6.80387 51 94 67
0.065631 -0.47946 8.09197 111 190 157
0.0440555 -0.456099 8.39274 66 109 94
0.744953 0.124333 -3.25231 98 153 136
0.616844 0.0191236 -1.71067 89 121 132
0 0 0 96 149 170
0.630426 -0.045875 -1.6485 62 102 91
0.271945 -0.0248759 3.77885 193 198 196
-0.128303 0.163369 10.8759 114 163 147
-0.178306 0.246554 11.7445 70 103 89
0.246734 0.0339132 4.15552 108 96 90
0.243661 0.0682185 4.1154 198 212 211
0.682234 -0.090256 -2.10538 252 254 254
0.756342 -0.118301 -3.06958 255 254 255
0.234806 0.119709 4.29833 114 97 88
0.217626 0.174679 4.54115 123 112 104
0.693128 -0.152563 -2.11721 175 224 222
0 0 0 104 160 149
1.10165 -2.31801 -11.2162 60 96 79
1.00783 -2.09287 -9.63575 49 95 89
0.884048 -2.12997 -8.13934 94 189 155
0.404988 -1.09161 1.37171 69 107 89
0.496718 -0.80264 1.13204 93 86 107
0.499991 -0.76841 1.17657 160 201 246
0.501065 -0.763856 1.18477 120 124 172
0.446458 -0.998083 1.52498 104 153 121
0.0578058 -1.95943 2.31162 120 141 149
0.451705 -0.98389 1.59044 146 197 183
0.450251 -0.983636 1.61058 59 97 75
0.356927 -1.31004 1.99952 255 255 255
0.348472 -1.35322 2.11994 104 170 145
0.0856549 -2.13966 2.94611 120 176 155
0.0435651 -2.29198 3.14473 97 100 108
0.44715 -0.993052 1.77131 85 145 111
0.44965 -0.978213 1.77131 76 122 100
0.441734 -1.00674 1.85915 101 165 135
-0.191713 -3.36603 4.86605 255 255 255
0.0323328 -2.55335 3.91799 100 97 129
-0.083811 -3.03135 4.60793 253 255 255
0.353811 -1.39319 2.55393 254 254 254
-0.11339 -3.34508 5.36174 253 255 255
0.424171 -1.08064 2.10856 91 149 121
0.450853 -0.951191 1.96792 120 183 151
0.2444 -1.87544 3.4619 83 152 125
0.419909 -1.08795 2.25099 89 155 143
0.451117 -0.939871 2.05456 40 76 64
0.444797 -0.959697 2.09853 81 149 126
0.4406 -0.888565 2.19984 43 61 48
0.43971 -0.900902 2.30466 59 78 59
0.440759 -0.914801 2.36298 139 212 174
0.447681 -0.855686 2.2932 100 167 164
0.420145 -0.879578 2.77738 126 197 171
0.406529 -0.848578 3.00191 110 172 148
0.405553 -0.835919 3.06048 49 62 46
0.452803 -0.527185 1.90866 121 166 177
0.396181 -0.830494 3.24396 50 72 54
0.344049 -1.00539 4.06637 120 182 168
0.35847 -0.96416 3.95483 113 172 152
0.387026 -0.812064 3.31365 135 195 177
0.35652 -0.964247 3.94274 120 181 161
0.361419 -0.938707 3.8655 83 122 107
0.338588 -1.01029 4.27052 79 95 77
0.362583 -0.845589 3.83042 68 124 95
0.361514 -0.831613 3.89536 94 157 141
0.37509 -0.727116 3.38547 44 55 52
0.426575 -0.517824 2.38151 159 155 154
0.419973 -0.508864 2.39814 109 89 78
0.415251 -0.539757 2.58629 112 96 83
0.273664 -1.06056 5.26044 89 145 122
0.413169 -0.521934 2.55513 191 195 200
0.417694 -0.49963 2.41525 153 151 151
0.409989 -0.527705 2.61964 156 151 153
0.352221 -0.680106 3.61414 37 53 42
0.322781 -0.732204 4.31602 107 164 143
0.339391 -0.651211 3.84241 34 51 48
0.333887 -0.639766 3.90697 84 138 121
0.401288 -0.42943 2.49511 129 120 117
0.219897 -0.946878 6.00561 93 153 142
0.234097 -0.912886 5.86071 61 75 57
0.241163 -0.877961 5.84877 112 167 164
0.233514 -0.698079 5.72949 105 157 133
0.217042 -0.664741 5.89887 89 144 127
0.196599 -0.589095 6.12186 61 88 72
0.0639652 -0.491431 8.19608 105 182 161
0.612569 0.0438472 -1.71549 116 179 169
0.616658 0.0348232 -1.72021 72 114 97
0.618814 0.0202535 -1.71333 102 131 140
0.617738 -0.00292059 -1.6474 57 105 77
0.633811 -0.0548013 -1.65918 84 120 114
0.265384 -0.00610954 3.87677 113 96 87
0.262625 0.0152626 3.89314 112 91 76
0 0 0 78 120 113
0 0 0 111 175 163
0.87169 -2.18341 -8.13965 111 184 152
