ply
format ascii 1.0
element vertex 177
property float x
property float y
property float z
property uchar blue
property uchar green
property uchar red
end_header
-0.126382 1.08338 5.89207 82 159 121
2.54218 -2.91733 -5.15014 170 227 189
0 0 0 196 249 229
-0.0540042 -0.253528 2.05964 140 199 184
-0.36528 -0.405508 3.79818 90 130 112
-1.70627 0.224013 3.51057 161 242 193
-0.441941 0.480684 3.77929 173 226 216
-0.906434 0.489299 3.75566 155 223 182
-0.487887 -0.798458 3.90166 180 207 174
-0.283054 -0.812459 3.99317 105 122 101
-0.366014 -0.404263 3.80616 93 126 111
-0.497879 0.0547094 3.75187 123 158 131
-0.145035 0.15354 3.86636 84 137 117
-0.888671 0.188763 3.71594 84 109 81
-0.841456 0.195802 3.72453 82 113 86
-0.145834 0.231211 3.84644 183 255 251
-0.498868 0.256636 3.75447 87 138 100
-0.870943 0.286214 3.707 108 149 134
-0.381067 0.329532 3.77895 70 97 64
-0.747829 0.45286 3.81756 76 86 70
-0.40726 0.44944 3.798 222 255 251
-1.67734 0.423374 3.43071 181 233 193
-0.442441 0.480236 3.77809 184 237 228
0.452632 0.737194 3.73416 75 99 81
0.0855617 0.819624 3.95466 99 137 89
0 0 0 147 207 183
-0.471219 0.924759 3.8163 131 193 157
-0.0542416 -0.705977 4.10923 207 248 240
-0.365117 -0.405022 3.80137 83 116 101
-0.901989 -0.205574 3.65171 102 152 122
-0.190263 -0.15688 3.80376 58 85 65
-0.376337 -0.158168 3.7411 82 97 89
-0.395152 -0.103157 3.69852 91 120 105
-0.851375 -0.0479587 3.66043 125 152 118
-0.444756 -0.0109081 3.73576 110 157 118
-0.642643 0.00872039 3.72359 241 239 239
-0.722852 0.0258618 3.72771 84 110 74
-0.268269 0.0544052 3.78079 54 84 59
-0.0461578 0.0576374 3.93533 36 68 49
-0.222082 0.0616695 3.80987 190 243 210
-0.729154 0.0686715 3.74105 154 205 161
-0.548308 0.0851509 3.73865 132 170 140
-1.6368 0.11969 3.5384 53 84 51
-0.652094 0.162411 3.76043 48 59 39
-0.929909 0.170348 3.7083 82 101 80
-1.68637 0.189278 3.55569 94 101 88
-1.69954 0.205016 3.53177 188 255 222
-0.402763 0.216921 3.77894 101 144 111
-0.219096 0.233891 3.80917 169 233 191
-0.784798 0.244468 3.78076 74 105 68
-0.481399 0.254234 3.74245 62 103 82
-0.120218 0.266955 3.85863 165 214 186
-0.12182 0.278743 3.82479 57 88 49
-0.0369449 0.329963 3.83286 156 221 182
-0.725076 0.396931 3.81552 73 95 83
-0.5415 0.405421 3.74693 139 208 181
-1.91719 0.396267 3.36434 81 94 78
-0.747965 0.453836 3.82016 66 77 61
-0.578583 0.446397 3.7361 72 69 48
-0.279498 0.460823 3.81826 92 153 117
-0.450955 0.471168 3.77852 75 124 104
-0.499829 0.48187 3.75737 108 160 137
-1.76069 0.448351 3.42728 174 228 185
-0.620567 0.492699 3.77959 51 64 48
-0.620502 0.497573 3.79212 55 83 64
-0.297834 0.544817 3.87391 114 177 137
0.000552114 0.624002 3.86673 151 230 186
0.303631 0.629204 3.89296 125 167 136
-0.467447 0.636022 3.81278 79 115 79
-0.371275 0.718299 3.79386 99 161 125
-0.433973 0.763501 3.77303 142 200 176
-0.650994 0.772612 3.71313 70 95 85
-0.39349 0.792272 3.76495 179 234 215
-0.514582 0.925399 3.81386 128 180 156
-0.460986 1.13018 3.80942 180 221 194
-0.539271 1.31462 3.79094 100 112 82
-0.403754 1.35225 3.87754 129 162 125
-0.499226 -0.802239 3.90722 166 212 189
-0.410089 -0.808184 3.94433 112 132 119
-0.270909 -0.825567 4.0479 132 159 143
-0.763083 -0.478295 3.62511 110 156 113
-0.303995 -0.418614 3.79573 73 108 81
-0.314419 -0.370213 3.78369 102 153 119
-0.797342 -0.354453 3.65715 87 141 111
-0.208804 -0.224032 3.80458 181 226 209
-0.840837 -0.195811 3.65086 93 141 115
-0.164187 -0.17559 3.79389 184 251 220
-0.37401 -0.162266 3.72293 65 80 72
-0.895721 -0.144477 3.64756 88 104 81
-0.333683 -0.124086 3.75538 199 237 231
-0.986171 -0.00928087 3.62891 209 255 233
-0.45579 0.0222255 3.74773 159 214 195
-0.419724 0.0259136 3.72874 94 102 72
-0.573167 0.0322915 3.71465 62 77 49
-0.172993 0.0439782 3.88386 160 226 191
-1.64005 0.121168 3.54295 64 90 60
-0.321752 0.129966 3.76549 38 59 34
-0.13287 0.129744 3.88264 163 225 201
-0.770534 0.144242 3.77521 81 95 71
-0.871224 0.168169 3.76053 114 148 124
-0.814013 0.160212 3.69093 167 231 195
-0.290264 0.165718 3.8026 76 129 86
-0.927285 0.170131 3.70786 86 115 89
-0.486615 0.170559 3.78375 73 97 62
-0.828322 0.179994 3.75392 158 238 201
-0.57121 0.178446 3.7387 68 68 44
-0.20989 0.194392 3.82211 146 216 180
-0.340259 0.211831 3.7849 168 231 191
-0.210629 0.217919 3.83131 56 80 46
-0.370193 0.221219 3.7704 68 81 57
-0.802989 0.251709 3.78502 60 73 57
-0.0655021 0.261547 3.85242 117 162 129
-0.814075 0.271471 3.75821 105 126 124
-1.79808 0.268593 3.44568 40 55 34
-0.0349483 0.328451 3.83492 172 234 198
-0.559788 0.330032 3.75459 58 92 62
-0.473541 0.340672 3.73687 80 92 56
-0.25365 0.348334 3.79344 104 125 92
0.591198 0.376875 4.02023 60 86 50
-0.475511 0.349881 3.76269 76 85 58
-0.639392 0.372094 3.74719 199 255 214
-0.419296 0.390297 3.76236 94 130 108
-0.379551 0.409262 3.78149 115 161 132
-1.77424 0.390086 3.45075 55 74 47
-0.605137 0.423156 3.78426 64 78 54
0.244656 0.438004 3.92494 108 203 142
-0.930449 0.424908 3.74136 82 106 88
-0.547231 0.42423 3.73762 106 144 122
-1.81889 0.408672 3.40001 174 231 186
-0.837214 0.455516 3.75117 154 219 180
-0.420406 0.450721 3.77238 59 72 64
-1.79523 0.418467 3.40533 57 65 35
-0.811633 0.489618 3.76208 216 255 234
0.0211212 0.493815 3.83153 154 213 182
0.0981325 0.495054 3.83479 197 255 224
-1.7636 0.449356 3.4295 127 174 135
-0.893855 0.491532 3.73584 68 99 68
-0.62215 0.513482 3.75734 114 185 142
0.173928 0.536531 3.90528 59 77 46
-1.69066 0.488286 3.4389 68 70 48
-0.434455 0.544459 3.7803 159 203 190
-0.454391 0.545749 3.77075 163 196 175
-0.564571 0.553802 3.75693 120 181 143
-0.00804349 0.563792 3.81024 72 106 76
0.0172807 0.564114 3.84128 177 241 212
-0.910248 0.569091 3.76334 160 235 203
0.622337 0.596043 3.80027 166 200 170
-0.902408 0.586844 3.7339 165 208 171
-0.909513 0.599476 3.76368 72 109 89
-0.361788 0.610063 3.82382 224 255 245
-0.556042 0.617306 3.77501 92 127 101
-0.424583 0.612677 3.80089 204 255 232
-0.39036 0.623199 3.8331 43 62 43
0.0101206 0.634354 3.82491 35 73 45
0.176993 0.645534 3.90701 70 85 58
-0.895137 0.622449 3.74502 150 217 186
-0.467412 0.625164 3.78534 128 185 140
-0.413727 0.653224 3.79959 39 49 32
0.532734 0.654701 3.73107 82 91 78
0.637706 0.681566 3.7521 80 103 81
-0.611798 0.693516 3.65932 99 113 107
-0.849543 0.721153 3.69804 103 131 111
-0.661864 0.790079 3.74735 70 111 90
-0.463244 0.785404 3.77266 162 221 206
-0.909147 0.899276 3.72844 68 96 83
-0.202557 1.01753 3.88866 142 170 134
-0.696155 0.997482 3.77172 68 84 66
-0.240103 1.01662 3.84528 70 82 46
-0.425223 1.10079 3.83266 73 82 55
-0.489896 1.11606 3.82434 186 238 220
0.00134889 1.16207 3.97963 134 213 170
-0.541868 1.15061 3.82277 176 237 217
-0.348857 1.15195 3.83598 107 143 107
-0.399271 1.18766 3.82556 170 227 188
-0.580376 1.20011 3.81734 155 186 171
-0.488269 1.2602 3.84124 184 227 200
-0.525165 1.27333 3.78882 141 167 143
