ply
format ascii 1.0
element vertex 319
property float x
property float y
property float z
property uchar blue
property uchar green
property uchar red
end_header
0.599958 -0.544207 1.8067 140 201 191
0.184707 -0.495201 1.85801 107 160 163
1.06248 -0.132264 1.80971 136 169 154
-0.106251 -0.792569 1.85828 149 215 203
0.501496 -0.741541 1.79882 135 200 184
0.733068 -0.527976 1.79942 130 209 188
0.238952 -0.509885 1.8472 52 117 85
0.802883 -0.267449 1.82111 164 205 200
0.428916 -0.234156 1.84876 81 133 116
0.716454 -0.220901 1.82909 71 137 126
0.496333 -0.193228 1.84701 93 123 118
-0.0746557 -0.194236 1.89613 155 219 200
0.810986 -0.154193 1.82277 52 97 94
1.03452 -0.109922 1.8128 65 91 78
0.343058 -0.810344 1.8104 99 165 153
-0.0627353 -0.824405 1.84942 91 138 129
0.236829 -0.807569 1.82315 86 146 140
0.779573 -0.781793 1.7672 103 126 122
-0.249155 -0.806991 1.87266 178 221 218
-0.0728673 -0.783151 1.85351 68 119 105
0.641267 -0.732246 1.77992 60 95 81
0.489354 -0.737277 1.80278 95 132 136
0.577615 -0.731777 1.79218 89 128 120
0.144428 -0.735911 1.83611 113 163 153
-0.47707 -0.74916 1.90331 98 146 158
-0.0619314 -0.717292 1.86046 61 129 112
-0.0968516 -0.695464 1.86622 87 144 135
0.220539 -0.654172 1.84009 131 203 183
0.217805 -0.65088 1.83805 96 156 145
-0.192624 -0.659606 1.87605 114 137 159
-0.294891 -0.656627 1.89106 121 172 174
0.0806902 -0.638094 1.85028 86 140 133
-0.183383 -0.646162 1.88055 116 160 161
-0.0989376 -0.6406 1.87302 92 153 143
-1.04874 -0.653421 1.98006 111 158 162
0.513493 -0.567595 1.81985 166 226 216
0.240272 -0.570083 1.84504 78 143 134
0.451749 -0.559731 1.82745 89 143 143
0.791506 -0.546443 1.79688 69 131 117
1.04422 -0.53613 1.77788 49 84 70
0.708896 -0.512066 1.80546 112 164 140
0.707709 -0.507692 1.80466 50 99 79
0.0885961 -0.519307 1.85968 77 125 131
0.120499 -0.503645 1.85907 89 144 125
-0.0254341 -0.504896 1.87166 68 120 113
0.633534 -0.481932 1.81193 67 139 126
0.0903835 -0.490195 1.86187 89 146 138
0.655253 -0.470264 1.81016 150 210 199
0.818856 -0.46671 1.7944 79 119 107
0.892196 -0.463506 1.79482 71 127 114
0.631221 -0.458723 1.81502 72 144 138
0.510153 -0.45354 1.82269 139 197 186
-0.0441807 -0.466213 1.87569 87 138 124
0.134825 -0.460038 1.86034 80 140 129
0.108856 -0.459256 1.86223 72 115 106
0.658463 -0.443967 1.80879 147 209 197
0.48136 -0.444361 1.82891 83 140 125
0.729716 -0.431578 1.80803 98 151 142
0.136231 -0.436028 1.86601 65 134 119
0.631133 -0.411947 1.81489 73 129 116
0.0291829 -0.408669 1.87216 123 192 172
0.619435 -0.395535 1.81591 84 143 129
0.570567 -0.391884 1.82131 68 115 107
0.101312 -0.39697 1.86589 78 126 114
0.71613 -0.368709 1.81638 149 212 203
-0.901765 -0.376413 1.97038 118 141 149
0.763465 -0.337651 1.81636 67 116 114
0.117698 -0.338921 1.87006 94 159 143
-0.0418799 -0.33618 1.88378 79 140 136
0.619091 -0.322234 1.82411 46 125 111
0.0372305 -0.328091 1.87957 72 132 114
0.429614 -0.321967 1.84396 73 123 113
-0.133085 -0.324059 1.89655 97 157 151
0.592537 -0.310744 1.82589 95 147 137
0.0734445 -0.315537 1.87447 91 168 147
0.338484 -0.312481 1.8541 90 136 137
0.15942 -0.311556 1.86877 82 143 129
0.835223 -0.303764 1.81484 81 143 137
0.5144 -0.284101 1.83909 155 201 195
1.08314 -0.278832 1.79576 124 183 162
0.43891 -0.284418 1.84916 77 129 119
0.401335 -0.276181 1.84965 141 214 192
0.539187 -0.270996 1.83496 66 113 104
0.194379 -0.273362 1.86925 69 132 122
0.525788 -0.263258 1.8361 67 114 106
0.761747 -0.249015 1.82331 96 139 136
0.883516 -0.241794 1.81352 104 150 151
0.421355 -0.241767 1.85238 79 141 125
0.943279 -0.22971 1.81453 75 137 131
0.80458 -0.228265 1.82483 89 146 138
0.731628 -0.20753 1.82665 79 110 107
0.42037 -0.191085 1.85517 54 107 97
0.574731 -0.185858 1.83678 83 118 122
0.596879 -0.185019 1.83489 168 221 212
0.771127 -0.184947 1.82629 88 147 139
0.46588 -0.179704 1.85262 100 130 135
0.49911 -0.175103 1.84232 82 115 101
0.30697 -0.172102 1.86367 85 142 133
0.12869 -0.172229 1.87868 79 149 126
0.767093 -0.164498 1.82773 92 125 121
0.238893 -0.167331 1.86971 92 165 133
0.869379 -0.157548 1.82209 128 203 182
0.00333722 -0.146586 1.89251 85 155 138
0.807696 -0.141602 1.82884 59 108 110
0.679404 -0.138155 1.83274 87 118 111
0.362603 -0.132029 1.86481 88 141 131
0.492615 -0.127181 1.85166 143 208 187
0.658287 -0.12501 1.83457 145 201 188
1.03043 -0.121433 1.81749 70 101 98
0.405632 -0.115592 1.86181 131 196 171
0.923425 -0.112752 1.81983 83 120 116
1.03566 -0.109594 1.81308 58 82 72
0.653114 -0.100416 1.84345 40 120 107
0.0656997 -0.100434 1.8921 92 142 130
0.558398 -0.092367 1.84919 177 215 209
0.232005 -0.090811 1.87665 105 162 137
0.493146 -0.0806296 1.85356 124 174 164
1.01582 -0.0780577 1.81702 60 90 79
0.563069 -0.0782263 1.84872 85 133 137
-0.146104 -0.0769542 1.9125 112 148 158
0.433412 -0.0522172 1.86353 135 198 188
0.293963 -0.0514765 1.87516 86 141 132
0.00661794 -0.0468888 1.89747 79 161 143
0.495255 -0.0449727 1.85648 74 119 110
0.154875 -0.0249967 1.89119 96 152 139
0.654137 -0.787153 1.77058 135 180 163
-0.0794657 -0.817292 1.85169 159 224 215
0.713489 -0.784217 1.77605 84 130 118
0.534698 -0.780949 1.79444 98 151 142
0.762405 -0.769454 1.77276 163 219 198
-0.956291 -0.846771 1.95706 131 175 182
-0.249535 -0.806966 1.87302 185 228 225
0.848631 -0.759775 1.76132 133 192 171
0.0774921 -0.788362 1.83673 142 212 199
0.584582 -0.761222 1.77896 154 203 189
-0.260933 -0.79846 1.87394 182 229 221
-0.630317 -0.814068 1.91961 114 155 157
0.47151 -0.742008 1.80453 87 139 132
0.641257 -0.732256 1.77984 60 95 81
0.489342 -0.737283 1.80274 95 132 136
0.458962 -0.734402 1.80641 107 151 150
0.0126196 -0.732713 1.84986 81 133 123
0.550777 -0.707759 1.79716 85 131 125
-0.0253119 -0.692626 1.85723 141 206 185
0.759513 -0.655623 1.78181 137 189 179
0.131394 -0.674444 1.84272 95 140 124
0.0280445 -0.676755 1.85202 77 135 124
-0.0581069 -0.669039 1.86314 83 136 123
-1.02392 -0.705951 1.97097 105 167 153
0.0223199 -0.660403 1.85488 67 105 105
0.329621 -0.636347 1.83146 89 136 128
-0.923482 -0.677585 1.96678 228 251 253
0.269632 -0.627506 1.83901 144 206 194
-0.19225 -0.636511 1.8814 125 159 172
0.00540103 -0.627836 1.85718 138 216 193
0.767044 -0.577962 1.79442 41 102 98
0.777933 -0.568093 1.79719 64 98 91
0.953199 -0.56477 1.77824 79 134 131
0.780048 -0.550947 1.79468 85 138 125
0.804272 -0.550788 1.79531 99 150 142
-0.12192 -0.537885 1.8801 194 229 232
-0.0622335 -0.528349 1.87558 87 142 123
0.669289 -0.494603 1.81044 70 116 110
0.8175 -0.488851 1.7962 137 202 186
0.421377 -0.484056 1.8336 166 222 211
0.694907 -0.476127 1.80744 96 132 126
0.653197 -0.456821 1.81304 139 200 190
0.811483 -0.4531 1.80045 152 214 200
0.530268 -0.436286 1.8257 57 97 86
0.5885 -0.430245 1.8177 57 110 100
0.213814 -0.435543 1.85703 78 148 135
0.633123 -0.416863 1.81421 127 199 179
0.848127 -0.414503 1.803 72 124 114
0.463805 -0.414648 1.83296 85 140 131
0.510002 -0.408435 1.82912 109 158 150
0.566841 -0.399201 1.82349 72 122 112
0.119507 -0.401002 1.86559 132 205 189
0.302636 -0.400562 1.85401 95 148 139
0.57039 -0.39202 1.82091 65 114 106
0.886954 -0.387766 1.79793 90 142 135
0.0792037 -0.346605 1.87187 77 145 122
0.397494 -0.322985 1.84627 75 125 115
-0.591269 -0.335537 1.94177 207 238 241
0.390904 -0.314256 1.84931 148 220 207
0.509135 -0.290541 1.83866 68 76 76
0.52134 -0.288842 1.83643 161 226 201
1.03674 -0.280811 1.80256 76 105 102
1.08345 -0.278435 1.79678 123 182 162
0.401193 -0.28192 1.85161 60 109 93
1.08229 -0.272887 1.79861 85 123 117
0.402443 -0.276083 1.85101 149 221 201
0.879034 -0.268937 1.81335 152 207 198
0.496299 -0.269506 1.83984 69 78 75
0.539395 -0.271066 1.83475 69 116 107
0.525885 -0.263229 1.83616 67 114 106
0.463709 -0.261106 1.83924 85 124 116
0.438408 -0.255247 1.84636 84 122 110
0.942604 -0.230085 1.81366 69 132 123
0.493892 -0.223675 1.84448 126 157 150
1.03416 -0.187836 1.80766 104 129 125
0.0732445 -0.190006 1.88189 80 125 116
0.397284 -0.179003 1.85956 83 132 124
0.550386 -0.175502 1.83739 98 132 126
0.649919 -0.167224 1.83303 75 144 124
0.679153 -0.138484 1.83204 94 125 118
1.04825 -0.132479 1.81687 96 127 124
1.03366 -0.129879 1.81431 96 128 123
0.521713 -0.128015 1.83941 107 142 138
0.66326 -0.129264 1.83379 68 106 100
0.950397 -0.122075 1.82133 84 105 106
0.71294 -0.120676 1.83335 137 183 171
1.03334 -0.0946347 1.81601 142 176 166
0.845918 -0.0886035 1.82864 166 222 209
0.273859 -0.0774374 1.87643 86 142 129
0.896511 -0.762147 1.76003 82 120 108
-0.318173 -0.810417 1.88064 185 223 223
0.602311 -0.767159 1.77955 83 111 105
0.553337 -0.765618 1.7923 96 130 124
-0.0741822 -0.783286 1.85246 80 129 115
0.749129 -0.746463 1.7705 104 123 126
-0.0533975 -0.774627 1.85337 73 147 129
-0.62396 -0.781246 1.92181 201 232 235
0.537624 -0.729346 1.79537 81 123 116
0.148709 -0.737478 1.83417 94 148 131
0.0129752 -0.732769 1.84938 66 111 102
-0.101327 -0.730867 1.86373 84 146 124
-0.0775387 -0.706476 1.86114 89 143 130
0.722775 -0.678764 1.78034 149 201 183
0.72059 -0.670484 1.7883 133 183 165
0.785702 -0.59767 1.78817 63 118 101
-0.1958 -0.623872 1.88233 118 151 160
0.59103 -0.574457 1.80333 66 130 124
0.751494 -0.573992 1.79942 68 137 126
0.778154 -0.568019 1.79749 66 97 90
1.04853 -0.55112 1.77458 48 97 83
0.804648 -0.550656 1.79581 103 156 146
0.108062 -0.552671 1.85861 97 162 147
0.053361 -0.546313 1.85978 102 154 144
-1.04536 -0.574839 1.98323 116 162 149
-0.766953 -0.553936 1.94969 220 249 253
0.640073 -0.493136 1.80991 54 116 110
0.57245 -0.472292 1.81669 151 209 204
0.106858 -0.460407 1.86251 79 124 115
0.109428 -0.447025 1.86295 92 139 136
0.645372 -0.433496 1.8095 79 132 119
0.856881 -0.431026 1.79925 52 108 103
0.588951 -0.429857 1.81894 64 120 109
1.06822 -0.416641 1.78807 65 121 110
0.84807 -0.414506 1.803 72 124 114
-0.0949592 -0.419199 1.8826 79 143 131
0.302305 -0.401117 1.85067 108 162 155
0.547926 -0.395036 1.8244 75 115 110
0.887479 -0.387521 1.79863 96 147 140
0.832784 -0.361509 1.80658 69 120 116
-0.126721 -0.363783 1.89208 210 233 241
0.579412 -0.339664 1.82642 80 123 112
0.0794077 -0.346775 1.87136 75 145 122
0.404942 -0.341959 1.84643 72 138 127
0.450928 -0.340494 1.84263 171 230 215
0.653659 -0.334181 1.8218 40 98 87
0.529872 -0.309515 1.82923 144 205 185
0.460452 -0.308402 1.841 148 194 188
0.473767 -0.307452 1.84106 173 219 220
0.934083 -0.288639 1.80655 88 140 133
0.509134 -0.290679 1.83796 68 72 73
1.08182 -0.272204 1.79707 89 123 117
0.402763 -0.275821 1.85167 148 220 197
0.503513 -0.27337 1.83515 101 133 122
0.399643 -0.270519 1.8523 68 124 101
0.729118 -0.234756 1.82872 81 128 119
0.715587 -0.222032 1.83006 61 126 117
0.816221 -0.209383 1.82393 64 127 118
1.03486 -0.187232 1.80901 98 125 121
0.983764 -0.18585 1.81291 97 145 139
0.574246 -0.185805 1.83502 88 123 127
1.04746 -0.184054 1.80865 71 82 86
0.789508 -0.178717 1.82405 67 114 105
1.03091 -0.179997 1.80715 183 222 214
0.582915 -0.176888 1.83673 95 146 138
0.24018 -0.161034 1.86656 73 117 94
1.004 -0.155085 1.81283 179 232 212
1.00191 -0.151084 1.81977 86 122 116
0.531182 -0.148169 1.84178 106 147 140
0.257921 -0.137256 1.87186 112 156 143
1.00732 -0.136812 1.81646 86 142 131
1.02657 -0.1349 1.81136 153 215 191
0.426964 -0.135707 1.85271 155 208 194
0.580219 -0.127644 1.84028 99 142 145
0.505354 -0.117955 1.84472 69 98 89
0.152472 -0.107463 1.88315 73 126 112
0.465843 -0.0815176 1.85582 66 100 83
0.453829 -0.0746508 1.85772 78 132 115
0.860512 -0.750105 1.76428 81 124 103
0.875509 -0.747229 1.76332 53 97 80
0.889915 -0.741979 1.76306 144 199 172
0.00451273 -0.773692 1.8476 89 137 111
0.733252 -0.597235 1.79633 49 100 96
0.708254 -0.592045 1.79831 80 130 126
0.569288 -0.57471 1.80789 78 131 122
0.775971 -0.530498 1.79684 79 116 108
0.945604 -0.527848 1.78728 75 154 141
0.272919 -0.505859 1.84937 86 141 144
0.592761 -0.475656 1.81492 135 212 198
0.989803 -0.36121 1.79788 157 210 201
0.641989 -0.323989 1.82231 136 215 202
0.862665 -0.299445 1.80505 86 113 109
0.86793 -0.288634 1.81218 59 77 70
1.04062 -0.280001 1.80229 72 98 92
0.436543 -0.256239 1.84743 104 133 124
0.676175 -0.23935 1.82878 75 140 124
1.04984 -0.193142 1.80613 90 113 105
1.02209 -0.19045 1.80897 158 203 184
1.0386 -0.145924 1.80346 84 100 99
1.07815 -0.146192 1.8099 190 222 221
0.538534 -0.138109 1.84341 83 111 105
1.03482 -0.102607 1.81671 66 78 72
0.183392 -0.105443 1.88051 79 141 117
0.412091 -0.0934459 1.8693 64 116 98
-1.07119 -0.066477 2.00855 255 255 255
