ply
format ascii 1.0
element vertex 1271
property float x
property float y
property float z
property uchar blue
property uchar green
property uchar red
end_header
-0.563486 0.647621 3.77222 140 195 178
-0.151708 0.658355 3.83403 42 85 72
-0.804394 0.644669 3.74673 163 213 201
-0.154384 0.658472 3.82829 67 110 99
0.168243 0.668102 3.88256 148 201 191
-0.565752 0.651498 3.77446 69 119 107
-0.354078 0.655485 3.80378 161 218 209
0.0352733 0.664658 3.86226 67 144 123
-0.993189 0.642546 3.72422 86 156 139
-0.836431 0.646093 3.73743 103 157 144
-0.14147 0.663041 3.83419 172 228 215
0.0909493 0.669947 3.87088 86 159 143
-1.96684 0.630754 3.64167 171 233 217
-0.721375 0.649415 3.74964 168 228 217
0.312837 0.675217 3.90234 121 172 168
-0.707787 0.651736 3.75557 84 147 121
-0.583402 0.653856 3.77048 69 117 105
0.514582 0.681168 3.9334 150 220 207
0.528598 0.682575 3.93467 95 157 145
-0.87669 0.649088 3.73492 86 156 143
-0.589342 0.653169 3.76586 146 197 183
-0.0585558 0.669267 3.84936 170 232 216
1.0062 0.694523 3.99932 148 203 188
-1.04348 0.646729 3.71718 80 148 131
-0.534214 0.657617 3.783 188 244 233
-0.226333 0.66563 3.82651 97 134 130
0.0154569 0.673064 3.86102 79 141 129
-0.64801 0.656371 3.76268 167 244 216
-0.301004 0.66555 3.81712 181 229 223
-0.145714 0.668681 3.83149 71 129 111
-1.09365 0.649102 3.71408 57 123 111
-0.217796 0.669619 3.82792 175 227 210
-0.155868 0.66977 3.83201 163 223 199
-0.596735 0.658508 3.76524 93 142 126
-0.481157 0.663614 3.7932 150 207 182
0.158274 0.678967 3.87674 166 237 221
-0.83465 0.65526 3.73673 165 222 213
-0.6072 0.660386 3.76583 71 132 112
-0.450433 0.666106 3.79419 175 235 224
-0.180207 0.672761 3.83235 105 158 149
1.00762 0.70159 3.99655 168 222 205
-0.798901 0.658129 3.74986 186 245 225
-0.266551 0.671653 3.82384 111 170 162
0.756613 0.686635 3.90692 128 181 167
-0.824091 0.657925 3.74341 152 217 201
-0.158322 0.673384 3.83005 103 172 145
0.123021 0.681915 3.87262 89 150 136
0.12713 0.681864 3.8762 135 197 183
0.423614 0.689734 3.92173 93 149 150
-0.830267 0.659884 3.74083 173 226 212
-0.182685 0.676638 3.83355 168 224 213
-0.050341 0.679537 3.85005 84 133 131
1.04458 0.706743 4.00871 114 176 170
-1.60656 0.648215 3.66733 108 168 158
-0.838758 0.66186 3.745 176 232 221
-0.633099 0.664994 3.76471 111 176 151
-0.65182 0.666205 3.76108 84 142 124
0.136091 0.686527 3.87945 176 240 228
0.166461 0.687558 3.88363 94 163 150
-0.338472 0.676191 3.8113 77 140 124
-0.205243 0.68024 3.83183 80 140 129
0.0277509 0.685024 3.86 170 229 209
-0.583176 0.669597 3.77013 174 217 206
-0.453498 0.67436 3.79752 68 129 119
-0.171834 0.681001 3.83288 165 221 200
-1.94121 0.64869 3.64628 158 217 203
-0.252724 0.68261 3.83389 175 235 225
0.558582 0.700751 3.94253 106 168 162
0.669161 0.702531 3.94457 101 134 130
-0.472012 0.676048 3.78981 172 220 208
0.0426234 0.689947 3.86625 98 160 146
-0.827087 0.669659 3.74351 155 201 189
-0.583036 0.673985 3.77087 78 121 112
1.02465 0.716204 4.00331 85 138 128
-1.05498 0.668594 3.72285 154 219 204
-0.25291 0.686292 3.827 105 162 153
-1.93776 0.655188 3.64527 168 236 211
-0.700132 0.675256 3.75955 163 228 207
0.993524 0.719481 3.9947 140 197 182
1.01758 0.719938 4.00196 72 116 103
0.0171374 0.696451 3.85993 89 154 145
-0.568738 0.682649 3.77895 157 199 188
-0.242228 0.690893 3.82813 118 171 162
0.13298 0.700796 3.88128 105 170 168
-1.04644 0.673598 3.72493 175 244 224
-0.904492 0.676727 3.73714 99 166 151
0.836304 0.703386 3.88781 167 236 209
1.01465 0.724572 4.00544 95 138 129
-0.185775 0.694851 3.82958 157 198 170
0.216133 0.706179 3.89482 92 161 148
0.17402 0.707202 3.88932 158 213 204
-0.696333 0.684436 3.76058 94 146 136
0.0623999 0.703745 3.87005 88 148 138
-0.75492 0.686414 3.76037 75 120 104
-0.569153 0.691538 3.78175 173 232 224
-0.190447 0.700104 3.83195 72 136 107
-0.136293 0.70228 3.84063 160 214 191
-0.715087 0.688423 3.75781 90 134 127
-0.696985 0.68736 3.75871 182 231 223
0.0752571 0.709141 3.87216 170 227 224
-0.60981 0.691022 3.76741 101 153 143
-0.569998 0.69536 3.79028 170 226 215
-0.145322 0.703801 3.83738 43 82 67
-0.887613 0.686716 3.73854 163 226 217
-0.707407 0.691629 3.7627 175 219 213
-0.882781 0.689348 3.74016 74 133 143
-0.857707 0.689836 3.7426 173 226 217
-1.29101 0.68409 3.70294 91 166 152
-0.751854 0.692429 3.75305 70 136 117
-0.579153 0.697602 3.77967 84 122 124
-0.458545 0.701044 3.79846 166 224 213
-0.232729 0.707667 3.8324 80 139 131
-0.0978929 0.71124 3.85218 152 207 198
0.141521 0.718275 3.88888 77 146 135
-0.474128 0.70246 3.79501 102 164 150
-0.141852 0.709841 3.83826 84 150 125
0.650129 0.731613 3.95803 99 151 144
1.61188 0.75971 4.10261 139 193 180
-1.01092 0.691852 3.73284 110 167 158
-0.804282 0.696899 3.75485 94 147 137
-0.591024 0.700151 3.77759 185 240 225
-0.173349 0.710721 3.83362 96 156 126
-0.153853 0.711114 3.84338 132 226 185
-0.729316 0.698701 3.76105 93 143 133
0.109255 0.720001 3.88239 100 152 145
0.280466 0.725247 3.90632 95 159 153
1.37465 0.755271 4.0645 111 169 164
-1.0607 0.693388 3.72602 76 154 130
-0.761749 0.698872 3.75591 78 135 120
-0.579796 0.700754 3.77394 93 134 129
-0.212362 0.71233 3.83207 94 151 130
-0.16971 0.713326 3.83612 96 161 129
-1.04775 0.694582 3.72989 90 150 139
-0.1653 0.716354 3.8368 175 243 212
-0.57523 0.707092 3.78421 176 236 225
-0.178042 0.716367 3.83292 168 228 198
-0.127188 0.718271 3.84656 75 130 111
0.378682 0.734365 3.92314 88 143 134
0.442173 0.735004 3.93261 87 160 152
-0.974961 0.699373 3.73382 167 230 214
-0.840593 0.702409 3.75054 107 162 153
1.03059 0.751175 4.0108 108 177 167
1.49224 0.765628 4.08818 123 168 171
-1.22685 0.699655 3.7082 152 223 203
-1.10755 0.702705 3.7239 116 182 171
-1.2652 0.701351 3.70819 68 138 121
-0.483714 0.718245 3.80168 92 139 130
-0.478799 0.717653 3.79759 162 211 197
-0.128918 0.725985 3.84378 170 227 202
-1.61937 0.695128 3.67542 63 132 121
-0.829211 0.709849 3.7505 89 146 137
-0.605348 0.715079 3.77644 84 145 135
1.165 0.761755 4.02164 175 226 218
1.59505 0.775244 4.09993 101 144 133
1.54388 0.776784 4.09128 81 132 125
-0.213739 0.727784 3.83352 95 153 135
1.01867 0.76297 4.0117 77 145 138
1.02717 0.761407 4.01002 162 230 219
1.59384 0.779432 4.10714 82 124 113
-1.16957 0.708692 3.71888 179 241 225
0.428387 0.748877 3.93151 98 155 146
1.58362 0.781215 4.0984 162 218 207
-1.66816 0.701332 3.67488 92 145 136
-0.80502 0.716991 3.7538 99 172 156
0.3323 0.746009 3.90939 102 156 151
-0.148442 0.734498 3.8418 100 167 152
1.53622 0.783255 4.09724 154 206 196
-0.101583 0.738552 3.85217 157 215 190
0.688285 0.758902 3.96408 108 177 166
1.52795 0.784345 4.09257 92 143 135
-0.836176 0.720283 3.7515 94 148 141
-0.79994 0.721082 3.75793 87 151 139
-0.602052 0.725858 3.78226 84 147 137
-0.261466 0.735271 3.83242 103 154 146
-0.0859866 0.741284 3.85723 87 144 129
0.0178218 0.743291 3.87349 94 151 143
-0.986736 0.720149 3.73753 180 240 229
-0.531126 0.731183 3.79518 126 176 166
-0.0864483 0.741123 3.85482 75 132 117
0.66019 0.764324 3.96625 172 232 224
-1.29647 0.7161 3.70777 73 148 132
-0.573602 0.730408 3.78835 83 147 128
-1.13807 0.71944 3.72361 161 227 216
1.56371 0.790567 4.08835 81 126 117
-1.30433 0.717178 3.7063 80 161 146
-0.730317 0.729027 3.76466 83 134 127
-0.260493 0.742166 3.83287 182 228 215
-0.11545 0.744774 3.85012 122 163 158
-0.550729 0.736119 3.7962 96 152 139
0.329857 0.75887 3.91576 114 165 161
-0.722881 0.731798 3.76369 87 148 134
-0.505561 0.737642 3.79854 184 229 220
-0.214012 0.744145 3.83027 186 242 219
1.56257 0.795328 4.09555 158 194 182
-1.08176 0.725939 3.72816 162 224 218
-0.600126 0.736384 3.78597 163 220 211
0.313039 0.763077 3.91754 132 183 179
0.412423 0.765437 3.93229 119 167 169
-0.728698 0.734493 3.76544 183 236 222
1.54614 0.796171 4.08629 80 123 114
0.465615 0.770991 3.94206 94 148 148
1.45847 0.798199 4.08181 160 219 205
-0.460978 0.744981 3.80166 165 227 215
-1.55796 0.723685 3.68613 104 166 166
-0.24217 0.75406 3.83944 158 218 208
-0.20713 0.753213 3.83952 87 148 134
-0.137814 0.754714 3.84464 166 233 212
1.23736 0.79279 4.0415 103 164 154
-1.09339 0.733869 3.73292 80 151 141
-0.97288 0.736869 3.74352 83 137 130
-0.368247 0.752349 3.81896 83 149 138
-0.0976216 0.759393 3.85515 161 223 207
-0.985391 0.737796 3.7408 94 160 148
-0.116027 0.760015 3.85372 72 131 110
-0.814411 0.742746 3.75733 151 223 210
-0.644047 0.746472 3.77774 182 238 227
-0.643286 0.74643 3.77763 175 225 213
-0.97832 0.740629 3.73955 173 244 224
-0.121821 0.761459 3.85157 157 196 180
-1.10142 0.740914 3.73526 71 140 127
-0.170633 0.760642 3.84288 85 135 123
-0.752695 0.747667 3.76248 86 155 144
-0.600098 0.751246 3.78414 170 230 219
0.645101 0.786557 3.96345 93 165 152
-0.150132 0.765031 3.84732 86 140 123
0.0651725 0.771106 3.87993 115 171 166
1.33163 0.809244 4.06534 100 172 159
0.978107 0.799801 4.00868 99 168 153
-2.07832 0.726075 3.63893 201 255 242
-0.546002 0.760773 3.7971 152 210 199
0.373698 0.785405 3.92681 77 150 140
-0.888525 0.75338 3.75512 70 142 130
-0.0403727 0.776451 3.86922 92 154 142
-1.9438 0.735996 3.65826 66 130 111
-0.595179 0.761626 3.7819 172 228 217
-0.106733 0.776158 3.85921 66 132 113
-0.530949 0.763536 3.79493 157 225 214
-0.109782 0.77743 3.85911 70 136 117
0.990244 0.80861 4.01211 148 217 204
-1.59563 0.744045 3.68377 138 219 200
-1.21362 0.751786 3.72256 72 143 127
-1.13105 0.75389 3.73159 110 169 155
-0.292153 0.773194 3.83073 105 170 155
-0.147407 0.777018 3.85286 173 227 210
1.41749 0.822996 4.08025 99 157 152
-0.468323 0.768914 3.80463 73 148 127
-0.467206 0.77032 3.80761 57 128 108
0.419229 0.796957 3.94277 178 231 222
0.436903 0.795942 3.93746 90 149 141
0.485641 0.799749 3.95066 94 153 145
1.78921 0.837064 4.13438 114 167 153
-0.151516 0.778514 3.84821 87 134 126
-1.12656 0.756099 3.72685 173 229 210
-0.121122 0.780972 3.85084 165 230 205
-0.103259 0.783201 3.85983 85 148 132
-0.0428771 0.785716 3.86881 108 169 159
-1.13791 0.758228 3.72787 113 178 163
0.598646 0.807353 3.96392 176 230 223
0.606801 0.807505 3.96381 92 158 146
-1.12074 0.761296 3.72605 180 227 218
-1.12791 0.762702 3.72908 135 181 168
-0.17428 0.785664 3.84472 113 173 155
0.97205 0.818893 4.00658 109 172 162
1.10684 0.822975 4.02216 93 153 143
-1.10005 0.76625 3.73529 164 229 214
-0.94341 0.7686 3.75 159 221 207
-0.24271 0.788139 3.84281 110 164 151
0.326371 0.805366 3.92047 167 222 219
0.37658 0.807651 3.92894 85 143 132
-0.792415 0.775579 3.76783 79 139 129
0.408698 0.809418 3.93524 82 133 125
1.06184 0.826702 4.01822 88 144 133
-0.842629 0.775485 3.76166 97 150 140
-0.634945 0.779899 3.78615 110 170 159
-0.525941 0.784378 3.80403 97 162 147
-0.323225 0.79032 3.83154 104 164 154
-1.1262 0.771492 3.734 107 163 150
-1.11527 0.770977 3.735 85 145 137
-0.611549 0.782308 3.78837 167 229 213
-0.591151 0.782459 3.78598 106 161 146
-0.995063 0.774666 3.74801 99 163 151
1.05407 0.83083 4.01785 106 167 153
1.77645 0.853281 4.1286 93 127 117
-0.822839 0.779171 3.7603 98 162 150
-0.234836 0.796049 3.84368 172 229 220
1.11602 0.832568 4.02453 168 225 217
-1.27653 0.771115 3.71493 78 147 132
-1.21177 0.772279 3.72427 150 219 199
-0.862139 0.779895 3.76113 165 223 205
-0.849096 0.780922 3.76422 70 117 109
-0.590474 0.786432 3.78739 158 211 197
-0.583031 0.787282 3.79188 166 215 201
-0.723079 0.783796 3.77113 107 169 155
-0.553578 0.789679 3.79975 157 219 207
0.40383 0.816409 3.93238 165 226 216
0.627017 0.827435 3.9712 94 154 143
0.953874 0.834972 4.00692 112 179 164
-0.648799 0.787855 3.78075 159 223 211
-0.89307 0.785584 3.76074 106 166 155
-0.586566 0.790986 3.79124 60 113 100
-0.537663 0.794965 3.80297 109 172 162
0.403868 0.821855 3.93422 95 167 154
0.630379 0.829255 3.9742 77 134 125
-0.23679 0.80355 3.84368 84 138 131
-0.794396 0.789508 3.76934 97 154 145
-0.563128 0.794848 3.79406 75 131 120
-0.109747 0.808966 3.86457 166 221 212
-1.27211 0.781438 3.72111 78 148 135
-1.08007 0.784014 3.74013 112 182 165
-0.151633 0.809755 3.85725 90 150 139
-0.0394437 0.812696 3.87337 84 156 144
0.401084 0.824792 3.93386 189 249 239
1.0485 0.84338 4.02257 171 240 227
-1.07615 0.785646 3.73781 152 222 192
0.41076 0.829131 3.9377 92 154 148
-1.62266 0.775589 3.6851 75 157 128
1.47518 0.861263 4.08135 153 204 190
-0.179005 0.813016 3.8505 79 118 110
1.44294 0.862656 4.08372 107 151 150
-1.20131 0.789738 3.73002 85 161 143
-1.11888 0.791011 3.73691 131 204 188
-0.730949 0.798988 3.77133 167 219 209
0.28313 0.829456 3.91873 206 243 241
1.46543 0.865493 4.08249 163 210 201
-0.186103 0.817562 3.84977 69 137 114
-1.20631 0.794536 3.73239 157 217 206
-1.11792 0.795843 3.73555 57 119 107
1.76086 0.880523 4.14059 137 203 178
-0.706491 0.805236 3.77631 180 231 217
0.19024 0.834074 3.91052 93 155 149
0.445873 0.840362 3.94206 81 150 139
0.482196 0.842277 3.95179 80 146 141
1.46388 0.869077 4.07512 77 108 107
-0.71535 0.805745 3.77565 85 139 126
-0.509931 0.812331 3.8028 85 148 132
1.23458 0.866276 4.05792 94 155 141
-0.86993 0.80449 3.76576 170 226 205
-0.671509 0.80759 3.78188 74 136 124
-0.592211 0.810707 3.79293 84 137 127
-0.703745 0.810309 3.7834 91 138 129
-0.0298537 0.82999 3.87415 173 232 224
0.702211 0.851816 3.98285 102 165 155
-0.888918 0.80729 3.76036 84 137 123
-0.873328 0.807284 3.76476 88 143 126
-0.859688 0.806536 3.76067 84 145 131
-0.159918 0.825658 3.85452 166 197 188
0.393068 0.844249 3.93519 109 168 160
-1.85566 0.78814 3.66795 67 130 110
-0.261777 0.824589 3.84071 87 153 142
-0.248836 0.826502 3.84611 97 152 143
-0.11058 0.83077 3.86749 113 173 167
1.11516 0.866394 4.03149 88 144 139
1.17453 0.867715 4.03743 90 150 139
-0.802142 0.810621 3.76816 96 160 148
-0.716839 0.811782 3.77729 95 157 145
-0.51058 0.819962 3.80669 159 224 209
1.44999 0.878502 4.07624 179 231 224
-0.892047 0.812233 3.76129 156 211 196
-0.187032 0.833034 3.85699 109 150 142
0.38059 0.849072 3.938 89 149 139
-1.51516 0.800455 3.70199 89 157 150
-0.869057 0.813593 3.76194 77 128 114
-0.552599 0.822018 3.80007 73 152 131
-0.54756 0.823533 3.80371 169 231 213
-1.06812 0.813124 3.74911 141 200 186
-0.721852 0.820072 3.78149 100 158 147
0.380256 0.85318 3.93401 166 225 217
-0.862546 0.820644 3.76315 107 147 136
-0.194205 0.840093 3.8492 104 173 160
0.223207 0.855863 3.92076 101 161 153
0.371935 0.857594 3.93454 149 202 192
1.43779 0.891985 4.08793 102 138 132
-0.854077 0.820832 3.76447 96 136 134
-0.497992 0.831974 3.81273 76 141 126
-0.888076 0.822887 3.76319 170 226 207
-0.546093 0.831893 3.80188 106 158 134
-0.857345 0.826185 3.76815 148 205 190
-1.34803 0.817646 3.7196 64 135 132
-1.14771 0.823336 3.74438 63 127 115
-0.859465 0.827743 3.76469 86 148 132
1.42124 0.897653 4.08344 157 227 214
1.81743 0.913861 4.14998 90 147 138
-0.593602 0.837532 3.7989 76 146 133
0.99518 0.88598 4.01882 75 142 127
-0.601532 0.837508 3.79463 94 156 150
-0.859989 0.833795 3.76935 154 216 192
0.285422 0.868502 3.92751 92 150 145
-0.880549 0.833852 3.76151 152 217 185
-0.832597 0.834856 3.76613 82 161 140
-0.877343 0.836249 3.76648 85 144 113
-0.788559 0.838829 3.77651 85 152 137
-0.116614 0.858515 3.86509 181 235 230
-0.959702 0.836785 3.76459 80 136 125
0.394019 0.876223 3.94228 159 210 203
1.45819 0.908943 4.08814 169 230 220
-0.76044 0.841966 3.7781 177 228 214
0.298533 0.874866 3.92777 116 164 166
0.385888 0.877342 3.93855 72 123 116
-0.852642 0.841078 3.76933 153 208 199
-0.752228 0.843138 3.7789 177 228 214
-0.386536 0.853411 3.82877 105 165 157
-0.909223 0.842567 3.76901 172 235 209
-0.937462 0.843371 3.76376 153 223 206
-0.0630412 0.868986 3.87846 102 154 147
1.43628 0.91731 4.08657 161 215 210
-0.898044 0.846955 3.77142 101 157 144
-0.408811 0.860549 3.82944 97 149 139
0.341624 0.884301 3.93131 77 134 126
-1.02685 0.846883 3.75964 73 149 131
-0.975429 0.846173 3.75555 58 129 109
-0.37368 0.862862 3.83123 178 234 223
-0.171071 0.870946 3.86337 112 178 167
0.374007 0.883353 3.92407 168 220 220
0.445654 0.890568 3.94907 101 148 145
1.41333 0.923985 4.09013 128 181 168
-1.00159 0.848775 3.75923 139 220 195
-0.714189 0.85589 3.78455 165 228 218
-0.578929 0.859096 3.80095 180 237 222
-0.00400237 0.878182 3.88441 156 226 213
-0.573762 0.860444 3.80484 95 153 142
1.0579 0.912566 4.02898 97 152 137
1.37318 0.923824 4.08472 158 224 212
-0.616758 0.859132 3.79152 165 230 215
-0.33603 0.870238 3.84052 169 240 214
-1.63067 0.839921 3.70182 70 139 128
-0.990498 0.852651 3.75815 153 216 196
-0.585271 0.863001 3.8008 177 235 217
1.07897 0.915858 4.03251 103 156 143
-0.625233 0.862158 3.79577 95 151 140
-0.934431 0.857696 3.76559 83 149 137
-0.717434 0.862513 3.78475 96 151 142
-0.946401 0.860345 3.76519 83 159 141
0.993754 0.918481 4.02303 167 233 221
1.20915 0.929578 4.0544 185 241 218
-1.21061 0.858752 3.73199 171 246 230
-0.90981 0.868053 3.76589 117 158 150
0.489584 0.911103 3.95855 92 159 152
-1.18188 0.862305 3.73644 152 234 212
-0.501542 0.881791 3.81665 101 163 149
-1.06226 0.867865 3.75306 166 228 216
0.00352205 0.901529 3.89256 96 156 145
-1.41787 0.863925 3.71952 158 232 214
-0.983607 0.875759 3.76244 79 140 114
0.954676 0.936266 4.02343 99 166 151
-1.5104 0.864592 3.7126 80 149 138
-0.984488 0.87745 3.76583 79 140 114
-0.973861 0.877469 3.76276 143 201 172
1.19392 0.943671 4.04751 117 155 149
-0.251392 0.901768 3.85883 165 227 215
0.469275 0.925205 3.95817 101 170 160
0.936058 0.93956 4.01799 84 156 143
-1.2465 0.874132 3.7347 91 160 150
-1.11056 0.876375 3.75064 166 230 218
0.580051 0.929921 3.97122 65 146 131
-0.250813 0.903228 3.85113 91 147 136
-0.966927 0.883322 3.76065 147 214 185
-0.6599 0.891531 3.79515 163 222 202
-0.253381 0.905674 3.85317 79 134 125
1.35351 0.959682 4.08421 169 222 209
0.575037 0.935917 3.97897 80 175 154
-1.37142 0.879081 3.72633 138 206 199
-0.911185 0.891598 3.77652 72 113 105
-1.46203 0.879873 3.719 70 131 117
-0.699421 0.89828 3.79294 117 177 167
-0.245397 0.91191 3.85645 177 237 227
-1.46637 0.881575 3.71969 71 139 122
0.771208 0.948702 4.00443 103 152 154
-1.24709 0.885938 3.7359 59 139 126
1.30197 0.969307 4.08531 100 156 113
-1.28224 0.887446 3.73415 68 140 134
-1.13224 0.890083 3.75008 87 151 139
-0.4826 0.908138 3.82417 67 138 128
-0.966778 0.895837 3.76678 79 157 126
-0.254312 0.915909 3.85123 157 228 211
1.28936 0.97264 4.08345 61 108 76
-0.799761 0.902434 3.78466 78 150 138
-0.267969 0.919473 3.85271 98 162 150
0.0716235 0.930867 3.90372 94 166 154
-0.832236 0.90405 3.77972 169 235 224
-0.588161 0.910386 3.80907 80 140 130
-1.26829 0.895316 3.73649 169 241 219
1.07941 0.964051 4.02479 102 158 147
-1.23383 0.896531 3.73409 79 146 119
-1.17406 0.900549 3.74708 157 228 212
-0.597698 0.913937 3.8046 80 149 136
-1.12484 0.903182 3.75383 169 233 214
-0.713096 0.912916 3.79275 95 155 147
-0.641813 0.916459 3.80603 169 241 218
-0.239663 0.93014 3.85773 161 221 211
0.0962945 0.939767 3.90146 157 227 210
-0.981713 0.908545 3.76884 173 229 208
0.262179 0.948574 3.93208 154 212 201
1.25914 0.982746 4.07332 71 113 95
0.0719107 0.942459 3.90151 93 154 140
-0.693944 0.917427 3.79338 74 143 130
1.33035 0.991492 4.08795 122 181 153
-0.9818 0.914898 3.7661 159 216 201
-0.660597 0.921378 3.79037 146 208 192
1.09371 0.984602 4.04289 84 142 137
-1.91352 0.898376 3.68501 98 157 149
0.342097 0.961824 3.94422 155 217 201
-0.985963 0.921537 3.774 153 223 200
0.0712037 0.955104 3.90162 152 228 210
1.33955 1.00025 4.09093 171 233 209
0.587196 0.975985 3.98204 101 180 167
-0.899774 0.929106 3.78051 103 152 144
-0.594157 0.936739 3.81366 79 130 122
-0.178752 0.951696 3.87289 97 151 146
-0.978868 0.930122 3.77606 148 218 201
0.0523236 0.961589 3.89931 94 163 148
-1.91101 0.911743 3.68661 69 121 128
-0.80174 0.937485 3.79056 161 230 217
0.596439 0.984536 3.98284 153 228 212
-0.609506 0.941924 3.8082 104 177 161
-0.305548 0.95328 3.85086 157 225 214
0.0957487 0.966339 3.90741 84 150 139
0.375965 0.978262 3.94568 118 174 169
1.22459 1.00866 4.06801 194 228 221
1.25344 1.00501 4.05019 134 171 155
1.2583 1.00413 4.05418 64 103 88
-1.25818 0.928164 3.73875 218 249 240
0.113076 0.974224 3.91912 73 138 136
1.2493 1.00821 4.0527 104 142 136
-1.14362 0.936337 3.75515 94 161 146
-0.400372 0.957676 3.84073 105 157 147
0.0708771 0.973653 3.90656 117 174 165
0.524843 0.992463 3.97667 74 144 137
0.0734916 0.976515 3.90696 98 164 153
1.33027 1.02386 4.09351 156 231 210
-1.2003 0.939747 3.74419 69 143 125
-0.421598 0.963055 3.8353 115 162 154
0.196388 0.986417 3.92874 173 234 224
-0.232564 0.96997 3.86089 141 210 199
0.676224 1.0056 4.0009 223 255 252
-0.396472 0.96597 3.83953 174 227 217
0.20411 0.988443 3.9267 174 236 220
-1.27282 0.942999 3.73896 72 144 131
-0.624087 0.962626 3.812 106 157 149
-0.671236 0.959963 3.79738 160 225 210
-0.613463 0.9644 3.80759 106 162 149
-0.867836 0.961602 3.79042 79 143 131
-0.629449 0.966697 3.80901 174 227 213
0.385255 1.00294 3.95492 113 173 167
0.772544 1.01966 4.01219 103 165 153
-0.660572 0.967686 3.80471 70 132 120
-0.384534 0.977664 3.84461 96 152 139
-1.37061 0.952814 3.7365 165 242 215
-0.774336 0.968551 3.7951 78 149 133
-0.265206 0.98397 3.85673 78 139 125
0.0557819 0.998426 3.90733 113 164 157
1.08225 1.0349 4.04863 79 132 122
-0.613062 0.976768 3.817 167 223 210
-0.562787 0.979128 3.81715 148 213 198
-1.12019 0.965606 3.75901 151 227 195
-0.814713 0.975569 3.79301 69 125 114
-0.643534 0.979386 3.80725 109 161 151
0.571981 1.02442 3.98114 79 130 122
-1.16655 0.966032 3.75331 180 237 216
-1.01514 0.97193 3.77682 179 236 221
-0.722154 0.979526 3.80423 96 162 150
-0.522896 0.9868 3.82916 93 144 136
-1.0037 0.975031 3.77819 88 146 135
-0.857636 0.98118 3.7947 108 163 154
0.607628 1.03022 3.98959 129 193 171
-1.00698 0.976847 3.77485 174 231 216
0.0425103 1.01032 3.90464 98 149 151
0.11649 1.01389 3.91848 107 157 147
-0.179436 1.00449 3.87602 156 215 207
0.618026 1.03517 3.99664 130 186 167
-0.873342 0.985385 3.79588 64 119 110
0.402093 1.02794 3.96201 102 165 156
-0.504835 0.99465 3.83067 63 115 105
-0.459654 0.995548 3.83554 99 161 149
-0.21287 1.00561 3.8729 83 143 135
-0.336095 1.00387 3.85738 60 134 116
-0.628557 0.994461 3.81579 84 149 140
-1.15065 0.981043 3.7608 141 200 185
0.589841 1.04012 3.98963 90 159 146
0.618982 1.04077 3.98943 163 240 219
-0.421297 1.00386 3.84383 179 230 222
-0.414881 1.00281 3.84186 176 229 219
-0.0565493 1.01712 3.89535 113 172 164
-0.367044 1.00599 3.84903 78 140 128
0.729983 1.05074 4.00951 113 173 165
-0.809717 0.99577 3.79578 93 151 140
-0.115305 1.02058 3.88748 102 151 143
-0.00951546 1.02368 3.90391 87 145 140
-0.231266 1.01723 3.87051 96 160 148
-0.556986 1.00613 3.82598 95 160 158
-0.361961 1.01302 3.85331 78 138 127
-1.17557 0.988787 3.75605 173 235 219
-0.862225 0.998831 3.79404 188 235 227
-1.1614 0.991047 3.75338 110 168 157
0.438606 1.04851 3.97139 177 232 235
-1.22196 0.99154 3.75258 82 152 139
-0.843034 1.00309 3.79448 110 162 155
0.0832461 1.03316 3.91031 94 155 145
-0.30464 1.02022 3.85811 170 237 222
-0.0860026 1.03159 3.89018 154 229 213
-1.10245 1.00121 3.77062 80 144 132
-0.362076 1.02436 3.85373 79 139 121
0.317851 1.0487 3.95126 96 176 177
-0.334046 1.02692 3.86209 76 134 123
-0.882789 1.0104 3.79302 89 149 138
-0.823904 1.01292 3.79691 131 193 181
-0.0415304 1.03983 3.89457 91 135 128
0.0246391 1.04438 3.91012 172 225 211
-0.719979 1.018 3.80645 98 156 145
-0.835641 1.01986 3.80293 84 124 113
-0.824844 1.0187 3.80026 179 239 221
-0.356134 1.03233 3.8499 159 224 203
0.573938 1.07081 3.99335 102 165 145
0.00986861 1.04706 3.90328 157 206 190
0.0312522 1.05019 3.90984 150 215 199
0.104455 1.0551 3.92067 101 166 150
-1.26446 1.01032 3.75101 100 160 149
-0.882814 1.02219 3.79307 75 125 115
-0.821964 1.02381 3.80181 107 160 146
-0.712845 1.02539 3.80948 66 118 108
-0.681888 1.02654 3.81368 75 148 132
0.0166547 1.05187 3.90563 143 206 186
0.0793475 1.0546 3.91256 77 139 125
-0.0741536 1.04993 3.89449 172 236 224
-0.838236 1.0276 3.79576 139 204 188
-0.500021 1.04081 3.84441 111 164 154
-0.354034 1.04163 3.85361 89 144 129
-0.184004 1.05069 3.87875 93 153 143
0.361116 1.07839 3.96554 183 246 237
-0.808105 1.03484 3.80005 163 225 203
-0.361675 1.04952 3.85362 163 219 206
-0.343077 1.05213 3.85806 158 219 199
-0.236698 1.05674 3.87443 91 158 143
-0.689961 1.04151 3.81796 83 154 137
-1.11601 1.03054 3.76971 166 231 215
-0.775649 1.04004 3.80437 162 225 205
0.582191 1.09276 3.99642 93 153 142
0.257204 1.08212 3.95108 104 162 157
-0.818725 1.04214 3.80152 165 211 182
-1.02134 1.03861 3.78247 96 158 146
-0.788747 1.04412 3.80098 154 215 195
0.302072 1.08517 3.95232 170 230 220
-0.0791965 1.07169 3.8932 172 241 226
0.0348507 1.07786 3.91601 81 147 135
0.288586 1.08839 3.95388 76 148 135
-1.11176 1.03972 3.7728 168 230 218
-0.834459 1.04823 3.7997 97 156 142
-0.740907 1.05388 3.81265 75 141 122
-0.405051 1.06461 3.85242 184 235 228
-0.282947 1.07184 3.8733 75 136 122
-1.04642 1.04641 3.78113 84 151 136
0.246175 1.09296 3.94512 101 161 151
-0.755576 1.05612 3.80946 190 240 230
-0.810386 1.05649 3.80371 86 146 116
-0.665503 1.06063 3.8225 160 203 192
1.00034 1.12356 4.05107 174 231 222
-0.76033 1.05858 3.81119 105 164 149
-0.602247 1.06548 3.83356 173 225 218
-0.455016 1.06959 3.84689 164 218 211
0.105654 1.09491 3.92728 171 223 206
0.643095 1.1178 4.00566 83 143 132
-0.72103 1.06346 3.81318 143 215 195
-0.707122 1.06711 3.82069 85 147 133
0.392849 1.11241 3.9709 168 230 224
0.632066 1.12281 4.00753 101 154 145
-0.740699 1.0698 3.81509 62 96 89
0.416837 1.11551 3.97698 77 158 155
0.179126 1.10665 3.9382 98 160 148
0.669192 1.12743 4.01457 104 149 140
-0.140587 1.09582 3.89883 76 155 141
-0.0205231 1.09881 3.90628 91 161 144
-0.32093 1.08851 3.86894 57 127 110
0.069158 1.10564 3.9261 110 173 171
-0.162832 1.10137 3.89169 89 164 148
0.14063 1.11198 3.93264 90 145 126
0.205007 1.11514 3.94375 98 154 143
-0.145936 1.1018 3.89066 159 231 218
1.01047 1.14931 4.05527 87 129 128
0.26186 1.12152 3.95069 75 135 124
0.638869 1.14115 4.0105 91 139 127
0.111108 1.12116 3.93045 107 170 160
0.366845 1.13315 3.9684 101 156 159
0.321345 1.13406 3.96679 140 202 190
0.0610433 1.12151 3.92189 181 239 228
0.0130666 1.12328 3.91363 155 212 197
0.904339 1.16397 4.04652 90 156 144
0.404425 1.14636 3.97714 98 148 146
1.02389 1.17038 4.05872 90 153 144
0.18105 1.13889 3.93988 153 239 209
1.03026 1.174 4.05784 174 239 223
1.01985 1.18299 4.06014 91 167 155
1.80417 1.25491 4.17895 113 172 158
-0.821508 -1.46904 3.39973 182 242 218
-0.410716 -1.48486 3.44313 81 127 108
1.09187 -1.54534 3.58971 95 180 135
-0.820456 -1.46282 3.40131 106 160 147
0.839977 -1.50057 3.48761 160 230 199
0.26352 -1.51544 3.52677 121 175 162
-0.394508 -1.47883 3.44532 112 182 165
0.551425 -1.52446 3.55651 123 165 158
-0.461147 -1.46955 3.43105 159 215 196
-1.5415 -1.41993 3.32147 107 151 144
0.351312 -1.50989 3.53277 158 241 202
1.28688 -1.54493 3.61522 137 219 184
0.466175 -1.51213 3.54433 79 111 100
-1.85739 -1.3978 3.28745 166 219 209
-0.829054 -1.44544 3.40056 95 152 127
0.255925 -1.50001 3.52477 113 167 150
-0.26917 -1.46891 3.45927 178 231 218
-0.370676 -1.45984 3.44912 118 176 152
-1.32877 -1.4165 3.35366 110 177 156
-0.315596 -1.46211 3.45977 107 170 160
-0.710783 -1.44152 3.41721 89 158 145
-0.130521 -1.46462 3.47999 102 158 139
0.0837122 -1.4778 3.50941 129 182 169
0.308903 -1.48608 3.53148 120 192 162
-1.37095 -1.40939 3.35337 110 174 145
0.944027 -1.48892 3.54143 137 194 155
-0.347564 -1.44862 3.45034 158 229 209
-0.310124 -1.4507 3.46102 93 146 136
-1.36072 -1.40177 3.35454 87 151 132
-0.422202 -1.44021 3.4483 91 135 129
0.253618 -1.46988 3.53035 186 243 212
-1.38673 -1.39329 3.34944 76 144 121
-1.32778 -1.39342 3.35921 104 150 137
-0.531757 -1.42389 3.43545 106 165 144
0.229704 -1.46018 3.52877 122 203 176
0.375684 -1.46997 3.5492 130 169 161
-1.75336 -1.37035 3.31184 149 217 192
-1.83031 -1.36228 3.30388 73 148 132
0.148807 -1.45321 3.52382 123 175 168
-0.796549 -1.40603 3.41562 125 172 163
0.791021 -1.45418 3.53863 62 104 79
1.41349 -1.49367 3.62823 93 151 123
-0.879246 -1.39903 3.40559 108 182 164
-1.74625 -1.36075 3.32194 78 142 123
-0.271937 -1.42428 3.4738 90 156 145
1.31778 -1.49187 3.63747 76 130 107
-1.32254 -1.36823 3.36337 100 138 138
-0.784345 -1.39077 3.41365 111 176 155
-0.374603 -1.40743 3.45904 79 125 113
1.27137 -1.47135 3.61798 160 221 187
0.185887 -1.43396 3.52941 161 218 193
1.2822 -1.46975 3.61776 96 145 117
-0.364149 -1.40496 3.46014 115 170 153
0.990738 -1.44436 3.56253 162 232 172
-1.38546 -1.3579 3.35772 91 131 119
-0.788841 -1.38039 3.41563 64 116 99
1.27819 -1.46299 3.61767 115 154 132
1.52022 -1.48533 3.6742 112 164 147
-0.797592 -1.37799 3.41586 182 243 223
-1.757 -1.33662 3.31841 84 152 135
0.558656 -1.43932 3.57086 134 186 176
0.194483 -1.42069 3.53682 169 236 215
-0.397676 -1.38862 3.46213 69 123 106
0.956332 -1.4199 3.54234 149 213 178
-1.32777 -1.34943 3.37467 75 129 112
-1.65228 -1.33192 3.33393 62 116 109
0.151126 -1.41002 3.53109 135 191 180
1.35144 -1.45039 3.63354 67 131 96
1.2057 -1.44068 3.61631 156 224 199
-0.837421 -1.35563 3.41603 98 175 161
-0.818085 -1.35694 3.4166 165 239 227
-0.166587 -1.38705 3.49636 112 176 157
-1.39072 -1.33058 3.36302 75 140 124
-0.744662 -1.35427 3.42665 89 148 128
0.36179 -1.40733 3.56199 114 176 164
-0.342449 -1.37143 3.47391 116 143 139
-0.255588 -1.3772 3.48644 102 140 140
0.162658 -1.39762 3.5395 103 162 147
-0.667863 -1.3536 3.43565 167 239 217
-0.637441 -1.35479 3.43781 90 145 126
-0.585464 -1.35495 3.44111 101 160 146
-1.68863 -1.31082 3.33638 95 154 139
-0.789205 -1.34864 3.42593 84 151 124
-0.140953 -1.37476 3.49851 144 211 182
-0.196888 -1.37168 3.49395 86 151 136
0.9097 -1.39028 3.5423 179 248 215
0.108845 -1.38685 3.53669 87 168 153
1.41466 -1.43403 3.65652 108 150 132
-0.354764 -1.35821 3.47161 185 244 230
-0.339523 -1.36204 3.47824 166 218 201
-0.744061 -1.34274 3.43407 124 174 164
-0.153814 -1.36628 3.4971 86 155 140
-0.789418 -1.33663 3.42665 90 164 152
-0.124836 -1.3685 3.50448 85 142 127
0.069203 -1.37594 3.53135 117 164 155
0.180467 -1.38187 3.54956 67 146 127
-0.561931 -1.3424 3.45142 108 175 160
-0.619106 -1.33661 3.44441 183 241 223
-0.125404 -1.36013 3.50473 175 235 224
1.19092 -1.40592 3.62224 166 247 202
1.19995 -1.40884 3.62785 104 189 151
-0.197398 -1.35454 3.50003 183 240 231
1.18131 -1.40111 3.62109 147 227 192
0.919879 -1.36923 3.54392 107 168 148
-0.695872 -1.32537 3.43792 102 157 138
-0.319545 -1.34285 3.48469 76 135 121
1.05393 -1.3921 3.61109 99 151 121
0.21882 -1.36392 3.55424 114 183 162
0.90947 -1.35998 3.54704 117 165 147
-1.62844 -1.2801 3.34678 82 157 141
-0.143312 -1.34186 3.50834 84 144 134
-0.0659953 -1.34535 3.51981 117 182 160
0.18614 -1.35735 3.55158 95 152 143
-1.73461 -1.27081 3.33406 81 118 108
0.279768 -1.35844 3.55938 109 178 158
-0.153001 -1.33666 3.50793 94 158 136
0.124617 -1.35002 3.54261 173 238 223
-0.385386 -1.32162 3.47501 115 159 146
0.312469 -1.35849 3.56569 107 166 145
-1.62162 -1.27482 3.35723 144 219 191
0.0163724 -1.33959 3.5311 86 146 135
0.237779 -1.34958 3.5602 101 172 155
0.915143 -1.34361 3.54901 102 162 138
0.428866 -1.35504 3.58408 119 181 167
1.09926 -1.3657 3.61676 38 110 80
-1.57652 -1.26358 3.35158 60 138 127
1.09059 -1.36242 3.61142 159 248 199
-1.62645 -1.26054 3.34941 146 226 209
-0.176617 -1.32008 3.50599 130 185 166
0.400333 -1.34513 3.57891 102 160 142
0.453123 -1.34668 3.5851 135 188 179
0.954277 -1.33291 3.54844 97 143 121
1.06027 -1.3579 3.61312 68 117 97
1.0978 -1.35819 3.61307 129 243 189
-1.71389 -1.25062 3.33723 146 220 194
-0.301993 -1.30946 3.49336 127 171 164
0.115331 -1.33234 3.54846 100 187 167
0.123472 -1.33261 3.55485 108 178 165
1.5381 -1.38284 3.69142 92 141 127
-1.52138 -1.25383 3.36207 114 170 159
-1.41476 -1.25807 3.37238 102 164 150
1.05397 -1.34202 3.61007 56 106 74
1.11891 -1.34771 3.62357 57 121 92
0.167014 -1.31889 3.5515 165 234 213
0.417587 -1.33266 3.58883 114 174 156
0.970363 -1.31609 3.54447 185 251 210
-0.361051 -1.29106 3.48501 117 172 155
-0.223267 -1.29411 3.49827 108 151 142
0.710127 -1.27908 3.45938 148 213 192
-0.335355 -1.28887 3.48669 109 147 141
-0.162042 -1.30182 3.51726 92 145 131
-0.793758 -1.26973 3.43886 89 145 132
-0.129637 -1.29824 3.52284 101 159 141
0.439959 -1.3219 3.58314 200 255 242
1.05875 -1.32999 3.60879 60 105 86
-1.56157 -1.23711 3.3613 80 145 123
-0.26202 -1.28662 3.49204 177 232 215
-0.147741 -1.29316 3.51477 103 157 140
1.05164 -1.32889 3.61246 123 164 132
-0.793908 -1.26384 3.44554 90 153 144
0.959638 -1.29665 3.53536 86 118 101
1.10006 -1.33364 3.63484 74 169 119
-1.76371 -1.21851 3.33405 147 227 192
0.381231 -1.31076 3.58499 118 170 160
-0.828839 -1.25183 3.44196 110 170 170
0.0522669 -1.2898 3.54494 159 220 206
1.05478 -1.31703 3.62081 27 46 25
-0.926142 -1.2476 3.43283 74 145 135
-0.638553 -1.25827 3.46421 92 157 135
0.511534 -1.30712 3.60032 69 110 103
-0.1842 -1.27593 3.51704 116 164 152
-0.301236 -1.26708 3.49795 74 118 111
0.886814 -1.29518 3.57615 139 215 184
1.10034 -1.31821 3.63872 145 182 148
-0.529483 -1.25592 3.4705 177 235 217
-1.43426 -1.22153 3.38336 74 138 126
-0.417564 -1.25943 3.48867 94 158 129
-0.370261 -1.25994 3.48811 97 153 132
1.07211 -1.30717 3.61624 160 224 172
-1.56276 -1.21359 3.36614 153 229 198
-0.261627 -1.26417 3.50352 114 173 158
-1.5051 -1.21322 3.3726 97 151 138
1.0671 -1.30533 3.6221 58 79 47
1.3105 -1.30738 3.62906 99 146 114
-1.33927 -1.21877 3.38992 92 139 130
-1.49088 -1.21249 3.3767 107 157 147
0.119655 -1.27927 3.56065 155 212 197
-0.423044 -1.24848 3.48292 92 155 129
-1.54272 -1.20651 3.36663 77 153 135
0.069073 -1.27429 3.55565 167 220 211
-1.70049 -1.20015 3.3537 87 143 130
-1.51943 -1.20317 3.36531 64 125 115
-0.468177 -1.24539 3.48284 158 220 202
-0.318526 -1.25236 3.50041 102 149 133
-1.54054 -1.2022 3.36914 159 238 217
-1.50313 -1.2045 3.37506 72 127 112
1.11413 -1.30439 3.6517 61 91 78
-0.498905 -1.23825 3.47756 175 235 204
0.0773835 -1.26821 3.55557 117 157 145
0.139514 -1.2691 3.56154 137 198 172
0.963602 -1.2596 3.54027 183 244 206
-0.432631 -1.23913 3.48657 87 161 127
0.127078 -1.26552 3.56651 152 194 171
-0.303983 -1.24342 3.50755 177 233 222
-0.494775 -1.23176 3.47982 55 112 97
-0.460862 -1.23372 3.48464 171 218 210
0.48585 -1.2705 3.59396 185 227 220
1.13002 -1.2907 3.64936 103 183 146
0.0943501 -1.25631 3.56007 71 92 77
-0.392524 -1.22654 3.49317 168 231 215
-0.939232 -1.20512 3.43533 107 170 160
-0.491238 -1.22141 3.48488 184 230 224
1.17732 -1.28061 3.65463 95 179 151
1.19593 -1.27399 3.64108 108 171 132
-1.43854 -1.18315 3.38701 106 161 146
-1.40907 -1.18172 3.37946 94 159 143
-0.70866 -1.20882 3.46078 111 167 154
-0.387368 -1.22191 3.49507 100 153 139
-1.35126 -1.18535 3.40188 99 166 159
-0.805977 -1.20427 3.45403 102 157 148
-1.75914 -1.16409 3.34444 66 137 110
-1.68961 -1.17075 3.35935 155 229 195
-1.55255 -1.17558 3.37562 106 165 144
-0.211214 -1.22601 3.5242 92 141 133
0.595529 -1.24046 3.57086 59 85 67
-1.00769 -1.18871 3.43505 106 162 149
-0.42908 -1.21081 3.49203 74 140 115
-1.58024 -1.1615 3.36923 107 159 142
-0.843283 -1.18972 3.45183 90 144 151
-0.41447 -1.20386 3.49196 104 158 141
-1.56841 -1.1579 3.36926 179 236 205
-0.458251 -1.20254 3.49905 54 117 97
1.0343 -1.23686 3.59652 172 239 200
1.05432 -1.23788 3.59823 163 211 163
-0.444103 -1.20006 3.49447 100 184 159
-0.36114 -1.20131 3.50025 186 236 226
-0.140294 -1.21105 3.53027 77 121 104
1.12465 -1.25373 3.64822 142 226 184
-1.75466 -1.14727 3.34846 73 120 98
-1.63006 -1.15385 3.36607 101 165 146
-1.48981 -1.16018 3.38584 152 225 199
-0.403537 -1.19774 3.49637 116 175 160
0.82412 -1.21417 3.54152 82 106 96
1.05061 -1.2331 3.59621 109 156 118
0.21326 -1.22756 3.5843 123 176 166
-1.61446 -1.15081 3.37252 104 163 148
-0.339041 -1.1964 3.50769 106 178 156
0.825186 -1.21239 3.54569 88 109 100
-1.56164 -1.15196 3.37848 162 232 215
-0.142174 -1.20695 3.53895 73 142 121
0.379768 -1.22844 3.60278 87 152 136
-0.988511 -1.17009 3.43912 116 171 156
-0.575346 -1.18753 3.48463 93 153 142
-0.550876 -1.18648 3.48165 103 153 135
0.287548 -1.21523 3.59876 79 144 129
-1.75167 -1.13097 3.35289 124 195 169
-0.202985 -1.191 3.52964 111 177 166
-1.44115 -1.13965 3.38904 173 240 201
-0.334568 -1.18166 3.50865 95 160 144
-0.161445 -1.18918 3.5358 107 169 151
-1.03948 -1.15162 3.43593 96 145 131
-1.44529 -1.13666 3.39868 106 165 144
-1.28956 -1.13911 3.41299 108 176 165
-0.423813 -1.16685 3.49961 69 122 109
-1.4117 -1.13182 3.40222 90 149 128
1.30424 -1.20884 3.62998 98 162 127
-0.431966 -1.1648 3.49933 169 235 210
-1.43761 -1.12803 3.40062 94 133 125
-0.98269 -1.13972 3.44621 97 158 144
-0.397828 -1.15611 3.49626 87 140 130
-1.28436 -1.12809 3.41293 84 150 138
0.4303 -1.18906 3.60034 128 174 168
-0.543924 -1.14993 3.4927 107 156 140
-0.380848 -1.15265 3.49834 114 145 136
-0.276561 -1.16058 3.52143 176 236 226
1.4113 -1.21102 3.67677 88 112 88
-0.174407 -1.16555 3.53841 74 126 108
1.39183 -1.20639 3.66646 88 138 104
-0.13274 -1.1646 3.54179 98 153 136
-1.42691 -1.1152 3.40067 89 145 132
-1.14386 -1.12489 3.43034 110 170 160
-0.574873 -1.14559 3.49147 93 152 137
-0.361541 -1.15154 3.51114 155 213 202
0.293286 -1.18071 3.60193 124 175 167
-1.59106 -1.10669 3.38262 60 121 111
-0.37266 -1.1463 3.5027 181 213 202
-0.273679 -1.15181 3.52166 173 233 222
-2.017 -1.09001 3.3336 176 235 221
-0.997127 -1.1258 3.44561 95 150 133
-1.06436 -1.12241 3.44044 89 160 140
-1.62667 -1.10128 3.37685 104 162 144
1.15355 -1.19959 3.67703 80 133 113
0.453589 -1.17515 3.60807 88 122 116
-1.74416 -1.09339 3.36609 91 150 129
1.6583 -1.22776 3.77159 120 157 155
-1.74949 -1.09065 3.3664 160 213 186
-1.13727 -1.11379 3.42882 98 148 136
1.18302 -1.198 3.69314 101 188 144
-0.324851 -1.13998 3.51635 109 171 159
-1.91251 -1.08204 3.34833 92 152 141
-1.41412 -1.09978 3.40501 107 169 155
-1.13262 -1.10932 3.43334 162 224 212
-0.399631 -1.13388 3.51261 168 212 206
-1.15156 -1.10785 3.43701 77 100 78
-1.1841 -1.10426 3.42891 90 151 141
0.71695 -1.16104 3.60754 101 154 140
-1.53862 -1.09043 3.39018 87 149 137
1.65452 -1.21515 3.78114 152 184 179
-1.6613 -1.08217 3.3733 159 215 202
-1.03504 -1.10428 3.44552 89 153 134
-0.401304 -1.12566 3.51243 112 156 155
0.522599 -1.16399 3.63122 155 211 182
-1.676 -1.08083 3.37532 157 215 191
-0.428967 -1.12188 3.50682 69 129 105
1.65401 -1.20977 3.78141 112 149 147
1.45351 -1.18256 3.69712 78 104 104
-0.643801 -1.11127 3.49285 85 135 123
-0.508604 -1.11404 3.5012 100 156 133
1.1746 -1.17246 3.68788 43 105 81
-1.51503 -1.07843 3.39901 76 132 111
-1.32398 -1.0829 3.41553 107 156 148
-0.379904 -1.11501 3.50896 169 222 209
-1.519 -1.07599 3.39393 159 235 211
-1.47955 -1.07882 3.40716 61 109 91
1.00645 -1.13978 3.60511 104 194 151
-0.54907 -1.1073 3.50273 116 175 161
-0.500609 -1.10887 3.50545 185 245 221
-1.52374 -1.07103 3.40044 102 164 148
0.471614 -1.13928 3.62012 89 176 143
-1.35503 -1.07289 3.41635 126 179 169
0.702982 -1.1333 3.60884 57 105 81
-1.13516 -1.07873 3.44014 130 185 176
-1.54944 -1.06207 3.39363 102 161 147
0.335513 -1.13234 3.615 122 187 171
1.15907 -1.15104 3.6771 69 138 111
-1.13645 -1.07478 3.44044 60 113 104
-1.58662 -1.05467 3.38389 99 140 125
-1.26899 -1.06927 3.42574 95 162 153
0.7122 -1.12844 3.61374 69 108 92
-0.967074 -1.07834 3.46233 83 141 123
-1.56601 -1.05269 3.38949 174 243 222
-1.23201 -1.06481 3.43015 106 153 151
0.344264 -1.12343 3.62308 186 232 219
-1.71816 -1.04384 3.37413 65 134 97
-1.34552 -1.05821 3.41683 77 133 122
-1.32986 -1.05857 3.42144 87 152 143
-0.551959 -1.08304 3.50723 155 220 199
0.463209 -1.11991 3.62949 106 148 141
-1.19517 -1.05909 3.4378 101 158 150
0.0180495 -1.10112 3.57496 181 234 225
-1.72709 -1.0347 3.37386 148 230 195
0.212525 -1.10616 3.6033 102 157 142
1.01255 -1.1124 3.63514 128 216 170
-1.00043 -1.05597 3.45999 68 142 124
0.212724 -1.09883 3.60028 167 232 217
1.13887 -1.12274 3.67944 146 218 175
-1.62099 -1.03287 3.38851 92 140 134
-0.368028 -1.07377 3.52212 73 138 122
0.272266 -1.09809 3.61082 105 172 157
-0.533391 -1.0647 3.51076 97 151 138
-0.989704 -1.04995 3.4654 102 158 147
-0.922374 -1.05325 3.47255 74 151 143
0.382171 -1.09866 3.62468 175 228 218
1.68026 -1.15185 3.7991 169 220 206
-2.00763 -1.01459 3.35124 147 204 189
1.66577 -1.15077 3.80274 117 137 124
-1.74409 -1.01877 3.37765 86 162 138
1.37236 -1.09233 3.62153 165 240 196
-1.68487 -1.01698 3.3821 99 170 150
-0.516278 -1.05709 3.51244 164 207 186
-0.386452 -1.0613 3.52962 172 224 214
1.35299 -1.08727 3.61844 176 223 185
-1.83691 -1.01078 3.37137 161 239 208
1.68729 -1.13727 3.79102 141 178 174
-1.64092 -1.01381 3.39036 93 160 145
0.403857 -1.08671 3.63288 179 232 222
-0.535076 -1.04486 3.50728 64 132 101
-1.52553 -1.01367 3.41169 106 159 145
-1.39223 -1.01549 3.42138 171 228 213
-1.69133 -1.00321 3.38468 103 150 141
-0.730459 -1.03532 3.49325 165 242 215
-1.41948 -1.01023 3.41931 166 226 202
-0.274153 -1.04708 3.54035 116 176 165
0.730135 -1.06823 3.61556 144 178 167
1.10063 -1.07835 3.65051 146 209 183
-1.46669 -1.00712 3.41855 78 137 116
-0.382464 -1.04102 3.53039 169 240 220
-0.589346 -1.03432 3.51111 106 176 153
-1.60739 -0.997696 3.39865 95 146 138
-0.568974 -1.03323 3.51329 163 233 203
-0.223357 -1.0431 3.55052 125 177 167
0.994444 -1.07389 3.65536 72 142 111
-0.293391 -1.03794 3.54212 101 161 150
-1.44068 -0.997282 3.42361 148 219 179
1.19749 -1.05904 3.63668 237 255 251
1.19052 -1.05948 3.64111 148 203 178
0.67878 -1.0408 3.58824 166 220 197
-1.64461 -0.979893 3.39468 100 156 145
-0.557281 -1.01391 3.51042 99 170 130
0.702825 -1.03901 3.59834 69 100 71
-0.526535 -1.01523 3.5198 52 93 78
-1.24431 -0.987529 3.43949 168 223 208
-1.52735 -0.980427 3.41478 93 152 137
-1.46132 -0.98276 3.42386 87 144 123
1.63336 -1.08972 3.79927 112 152 151
-0.514621 -1.00733 3.51682 172 252 215
-1.52306 -0.975963 3.42072 165 230 204
-1.38764 -0.979297 3.43126 105 162 137
-0.521905 -0.998317 3.52807 76 134 110
-1.46464 -0.966079 3.42374 149 225 177
-0.686241 -0.989396 3.50882 108 178 165
-0.416708 -0.995697 3.5335 148 225 191
-0.410281 -0.993546 3.53066 72 130 101
-0.356424 -0.995442 3.54106 107 160 147
-1.49623 -0.959384 3.4201 153 234 195
-0.449904 -0.989726 3.52942 110 183 151
-0.426713 -0.9898 3.52582 122 170 144
-0.0664011 -1.00536 3.58217 90 146 127
-1.66089 -0.95091 3.39993 104 160 147
-0.0757257 -0.999488 3.58228 135 179 166
-0.575869 -0.980882 3.51883 97 162 141
-0.406086 -0.987531 3.53563 74 122 98
0.132205 -1.00707 3.61024 103 159 148
-1.46669 -0.953825 3.42471 69 127 103
-1.86219 -0.934656 3.38567 96 152 139
-1.50913 -0.945826 3.42443 86 135 113
-1.11206 -0.956689 3.46675 105 170 155
-1.51205 -0.940498 3.42564 75 137 121
-1.6128 -0.935241 3.40998 95 143 131
-0.597951 -0.966375 3.52172 111 167 154
-1.24455 -0.944167 3.44911 173 231 220
-0.249519 -0.976328 3.56122 74 122 110
-1.46664 -0.936423 3.4316 179 246 209
-1.61756 -0.927971 3.40692 90 154 142
-0.256117 -0.96921 3.55748 97 152 133
-1.48965 -0.932867 3.4305 80 149 122
-1.27224 -0.937328 3.44817 100 149 133
0.454863 -0.99275 3.6478 99 153 140
-0.260883 -0.966546 3.56048 172 243 216
0.465618 -0.991205 3.64925 117 167 149
0.519823 -0.994163 3.6626 114 171 156
-0.269993 -0.962736 3.5546 118 176 165
-0.0878517 -0.971515 3.58498 162 224 208
-0.0645803 -0.972785 3.59023 101 157 146
0.242869 -0.982544 3.6243 92 158 146
-0.209713 -0.966023 3.56996 71 124 114
-0.0936561 -0.971849 3.58775 69 112 97
-1.30467 -0.928247 3.44516 93 149 136
-0.423039 -0.953083 3.53533 86 120 89
-0.0526188 -0.967924 3.59375 108 167 152
0.274956 -0.980124 3.6371 96 163 148
0.459114 -0.983213 3.64975 173 209 203
0.536045 -0.98775 3.6602 63 114 86
1.27434 -0.986372 3.66203 127 200 168
-0.226015 -0.956513 3.56876 83 151 128
-1.84608 -0.907176 3.39141 157 231 195
-0.930021 -0.934375 3.49281 70 146 134
0.201781 -0.971043 3.62947 101 172 155
-0.407512 -0.946078 3.54249 60 101 70
-2.02705 -0.897677 3.37255 157 216 201
-1.89738 -0.902386 3.38904 74 134 124
-1.42741 -0.916766 3.43763 81 153 123
-0.3594 -0.946065 3.55228 80 136 107
-0.274905 -0.946772 3.55652 110 173 163
-0.259424 -0.946613 3.56222 90 144 127
0.993192 -0.976257 3.67777 146 220 172
-0.489856 -0.936403 3.53463 94 141 125
0.345487 -0.964548 3.64672 137 195 184
-1.24079 -0.910956 3.45181 89 156 127
-0.91591 -0.921102 3.49378 73 135 117
-0.431293 -0.933554 3.53692 93 161 136
-1.26888 -0.909062 3.45478 140 207 180
-1.53956 -0.902193 3.42968 68 125 100
-1.53062 -0.901785 3.42342 78 133 106
-1.23229 -0.90893 3.45021 97 154 133
-1.10694 -0.911585 3.47558 95 155 144
-1.29355 -0.900743 3.44992 132 211 178
-0.431959 -0.925939 3.54003 105 170 148
-0.423119 -0.925887 3.54454 104 171 142
0.381265 -0.954011 3.65445 85 155 154
-1.29454 -0.900612 3.45426 140 217 183
1.06425 -0.9627 3.69093 60 100 88
-0.538415 -0.918356 3.5322 108 163 146
-0.0480003 -0.936805 3.5995 82 140 129
0.132754 -0.944093 3.6234 102 156 143
-0.206838 -0.930683 3.58196 109 160 152
0.820481 -0.949061 3.65294 154 221 200
-0.529172 -0.91585 3.53537 82 149 134
-0.457681 -0.91739 3.5366 84 130 117
-0.372861 -0.920995 3.55419 87 151 129
0.289325 -0.944078 3.64061 180 239 225
-1.84806 -0.877578 3.39616 169 242 216
-1.66351 -0.882043 3.40921 125 180 165
-0.437555 -0.91676 3.54459 82 137 118
0.176083 -0.937124 3.6263 91 162 145
-1.35643 -0.888665 3.44572 171 238 207
-0.657408 -0.90891 3.52567 74 138 119
-0.361766 -0.915579 3.55429 190 243 230
0.362075 -0.942225 3.65721 92 147 138
0.655976 -0.948868 3.68311 81 135 112
-1.24558 -0.887713 3.45471 87 149 131
-1.23088 -0.887104 3.4569 159 214 189
-0.44858 -0.909404 3.54141 180 250 210
0.3257 -0.938518 3.65212 89 167 150
-0.993784 -0.894522 3.49211 93 164 148
-1.28525 -0.881408 3.45376 79 134 115
-1.25269 -0.882775 3.45775 65 126 106
-0.407394 -0.90662 3.5503 107 169 139
-0.324669 -0.908158 3.55951 116 175 167
-1.08037 -0.886477 3.48107 102 155 145
-1.03521 -0.888187 3.48906 93 164 148
-0.521186 -0.901645 3.53981 96 145 123
0.381039 -0.931172 3.65878 92 152 146
-0.528251 -0.898162 3.53535 179 247 224
0.17684 -0.922311 3.63085 77 133 122
0.944843 -0.935527 3.68254 104 132 103
-1.81023 -0.861673 3.40129 168 240 210
-1.72197 -0.863463 3.40983 88 153 132
-0.161325 -0.910624 3.58888 85 144 129
-1.25504 -0.873437 3.45523 103 170 138
1.30933 -0.933776 3.69124 100 130 111
-1.15896 -0.876955 3.47279 108 163 148
-1.34595 -0.870532 3.4531 76 148 126
0.941887 -0.930248 3.68389 22 37 16
1.21468 -0.938046 3.71239 64 99 73
-0.431336 -0.892536 3.549 61 108 86
-0.242317 -0.898267 3.57397 88 135 119
0.28728 -0.917228 3.64594 123 182 162
0.343417 -0.919071 3.65503 84 155 139
-1.64884 -0.85787 3.42024 154 227 205
-0.423781 -0.892586 3.55258 161 210 182
-0.285569 -0.89499 3.56366 98 156 145
0.181406 -0.910607 3.63344 94 146 128
-1.20047 -0.865861 3.46943 91 145 132
-1.20083 -0.865822 3.47043 96 149 136
-1.07286 -0.870319 3.48891 78 142 113
-0.445687 -0.885554 3.54968 166 243 209
-1.44265 -0.858332 3.44429 103 161 137
-1.21228 -0.8618 3.46409 139 198 177
-0.311143 -0.88768 3.56586 116 176 166
0.193097 -0.908552 3.63914 92 155 139
-0.371115 -0.88493 3.56339 188 239 225
-1.10683 -0.860381 3.48345 61 130 97
-0.89976 -0.866409 3.5058 102 173 163
-0.432238 -0.877184 3.55452 93 158 126
-0.248513 -0.882403 3.57698 191 240 226
-0.239068 -0.884647 3.58052 166 222 209
0.0819405 -0.894846 3.62079 175 234 219
0.569124 -0.909286 3.68342 96 132 126
-0.116498 -0.888042 3.59812 129 165 149
1.20936 -0.917788 3.72092 174 215 184
-0.819381 -0.865604 3.51592 95 171 160
-0.536697 -0.873284 3.5439 98 157 136
-0.427288 -0.874017 3.54911 172 225 192
-0.103048 -0.885963 3.59924 185 235 223
-1.61843 -0.842334 3.43247 86 145 125
-1.84041 -0.832863 3.40474 155 234 201
-1.73805 -0.835468 3.41298 71 136 115
-0.410717 -0.869958 3.55544 174 230 207
0.93127 -0.895765 3.66741 117 197 154
-1.76262 -0.832777 3.41503 167 240 208
-0.569653 -0.865525 3.54221 105 174 154
-0.373422 -0.870009 3.56082 59 99 81
0.549048 -0.898341 3.67746 183 244 218
-1.07591 -0.848981 3.48582 169 239 202
-0.283412 -0.870247 3.57491 80 136 123
0.388916 -0.893585 3.6679 119 173 166
-1.74293 -0.82987 3.41009 161 235 205
0.933029 -0.895514 3.67659 142 227 182
-1.52388 -0.831972 3.44078 108 157 137
-1.06116 -0.842931 3.48797 150 230 199
0.0744891 -0.878219 3.62555 188 241 232
-0.781459 -0.851453 3.52249 73 147 135
-0.518006 -0.857467 3.55018 111 161 149
0.311996 -0.88189 3.65879 89 155 143
-0.983126 -0.842312 3.49757 96 159 149
-1.1124 -0.836747 3.48636 73 124 104
0.55875 -0.88835 3.69626 75 109 102
-1.65839 -0.821389 3.42506 58 136 95
-0.115018 -0.862392 3.59651 94 160 135
