ply
format ascii 1.0
element vertex 1254
property float x
property float y
property float z
property uchar blue
property uchar green
property uchar red
end_header
0.470243 -1.02682 2.30587 87 150 134
0.196531 -1.03926 2.3358 84 142 118
0.701825 -1.01185 2.276 91 148 139
-0.0365042 -1.01358 2.36103 80 133 100
-0.0492291 -1.00543 2.36324 68 108 80
-0.00555915 -1.00119 2.35924 162 225 186
-0.0500861 -0.99792 2.36599 68 110 92
-0.0526997 -0.993379 2.36811 186 238 214
-0.123153 -0.990711 2.37319 64 119 92
-0.0399949 -0.986383 2.36646 75 119 102
0.00624403 -0.984525 2.36339 77 144 117
-0.80002 -1.01838 2.46719 68 123 108
0.44478 -0.943552 2.30137 90 154 142
-0.303116 -0.977778 2.39338 80 118 106
-0.0755305 -0.965526 2.37006 67 137 124
-0.239524 -0.968527 2.38527 82 144 128
0.393744 -0.935483 2.30494 142 212 165
-0.00342199 -0.956632 2.36269 100 156 143
-0.245842 -0.960071 2.39068 159 204 188
0.601099 -0.909019 2.28296 83 161 137
-0.385904 -0.959067 2.40797 79 132 119
0.642054 -0.903868 2.2794 84 148 119
0.606632 -0.905013 2.28172 183 239 204
-0.418499 -0.949404 2.41242 166 234 211
0.339486 -0.90466 2.31131 178 243 221
-0.394498 -0.941895 2.41036 44 87 72
-0.498809 -0.937235 2.42136 64 115 101
-0.301437 -0.927961 2.40157 110 169 154
0.31501 -0.8925 2.31031 150 225 209
0.321145 -0.883868 2.30992 113 149 173
0.767581 -0.865506 2.26635 76 150 102
0.584975 -0.869764 2.28154 50 119 99
-0.293333 -0.911372 2.39608 76 130 117
-0.47063 -0.917108 2.42169 71 112 85
-0.436502 -0.910317 2.42019 96 139 126
0.61738 -0.85511 2.27592 138 224 184
0.606025 -0.855847 2.27977 73 154 127
-0.309048 -0.898674 2.39799 89 158 143
0.259007 -0.868696 2.32382 94 162 139
-0.663195 -0.907398 2.44511 89 150 130
0.471129 -0.852158 2.29691 102 173 147
0.434873 -0.837956 2.30289 199 246 224
-0.695227 -0.889152 2.45134 62 123 95
0.744852 -0.823576 2.26985 141 205 183
-0.528234 -0.878398 2.43378 80 133 143
0.600006 -0.809847 2.28084 93 153 142
0.630846 -0.80627 2.27336 114 172 154
0.300546 -0.818751 2.31547 85 154 134
0.347896 -0.816218 2.31174 150 228 204
0.0758684 -0.82364 2.34797 73 142 122
0.574922 -0.798976 2.28375 82 148 129
0.746698 -0.793046 2.26895 50 93 56
0.460678 -0.797004 2.2963 184 246 216
0.402381 -0.799209 2.30355 207 249 232
0.551212 -0.792317 2.28411 69 111 93
0.792514 -0.771287 2.26841 88 150 128
0.727216 -0.767585 2.27193 106 165 151
0.562662 -0.768102 2.28494 64 126 104
0.51147 -0.755782 2.29244 80 146 121
0.498922 -0.754321 2.29334 79 146 114
0.587085 -0.741165 2.27634 84 136 99
0.667654 -0.731493 2.26991 85 130 113
-0.988191 -0.802727 2.49868 93 145 128
-0.979067 -0.801882 2.496 161 230 193
0.359687 -0.739678 2.30817 64 139 118
0.40423 -0.736494 2.30463 83 150 129
-0.444868 -0.769859 2.41837 177 241 222
0.448084 -0.732226 2.30054 108 176 145
-0.543504 -0.771002 2.42831 248 255 252
0.346553 -0.733917 2.31238 86 156 139
0.353257 -0.733132 2.31121 68 139 122
-0.467162 -0.766279 2.41927 91 152 116
0.533219 -0.72383 2.28716 156 226 185
-0.459382 -0.757174 2.41943 86 154 137
-0.306738 -0.740553 2.39056 85 152 131
0.486007 -0.704214 2.29598 90 155 123
0.529635 -0.703342 2.29087 65 132 95
-0.981391 -0.763631 2.49371 102 181 138
-1.03683 -0.756865 2.48803 78 134 91
0.0415534 -0.71004 2.35176 77 154 140
-0.779276 -0.742511 2.46101 166 227 213
-0.615028 -0.729252 2.43822 72 136 117
0.73681 -0.679222 2.27246 218 241 236
0.625449 -0.68044 2.2803 248 251 235
-0.263246 -0.710107 2.38471 53 111 87
0.503667 -0.681556 2.2948 82 144 120
0.718413 -0.670952 2.27262 138 223 195
0.262055 -0.682347 2.31864 79 150 124
0.747668 -0.668873 2.27167 61 108 92
0.580476 -0.670557 2.286 233 250 241
-0.787879 -0.721862 2.46252 96 165 132
-0.407672 -0.701645 2.40752 52 118 99
-0.315684 -0.697219 2.3916 96 167 147
0.734394 -0.662326 2.27533 89 152 142
0.207985 -0.669361 2.32598 66 139 123
0.418978 -0.662344 2.30344 91 159 136
-1.02167 -0.718956 2.50474 77 134 131
0.419555 -0.660272 2.30414 60 135 113
0.710184 -0.647885 2.27764 210 248 236
-0.274797 -0.67839 2.38269 153 227 199
-0.244537 -0.674163 2.3755 53 121 86
0.660646 -0.644225 2.2799 228 255 255
0.675342 -0.644256 2.27792 159 211 193
0.249718 -0.655225 2.32146 79 159 130
1.05082 -0.636768 2.25948 61 117 104
0.670486 -0.640528 2.28092 69 141 121
0.190638 -0.65236 2.32875 74 135 115
0.555153 -0.641467 2.29234 75 134 120
-0.277053 -0.665097 2.38413 78 144 115
0.478346 -0.636841 2.29881 93 147 134
0.649586 -0.633128 2.28298 63 115 98
0.669985 -0.62758 2.28072 79 123 110
-0.382579 -0.656891 2.40297 76 141 125
0.657161 -0.622542 2.28204 145 195 185
0.656789 -0.622293 2.28351 153 204 197
-0.598996 -0.663126 2.43625 86 146 122
0.195199 -0.631093 2.32828 61 138 117
-0.273818 -0.642218 2.38101 142 219 168
-0.0317745 -0.636649 2.3584 101 164 162
0.316262 -0.624213 2.31592 86 146 136
0.655402 -0.615776 2.28366 186 231 222
-0.259097 -0.640055 2.37682 54 110 67
0.60911 -0.613965 2.28621 246 254 253
0.607382 -0.611207 2.28612 119 127 134
-0.140779 -0.632393 2.37117 71 137 118
0.567876 -0.612007 2.29289 81 133 123
-0.223815 -0.620395 2.3662 229 250 235
-0.305099 -0.622571 2.3897 150 221 188
-0.290805 -0.612772 2.3863 70 142 119
-0.154152 -0.607494 2.36959 87 157 121
-0.144194 -0.607901 2.37185 74 152 135
-0.218559 -0.60392 2.37227 153 232 188
-0.194692 -0.600016 2.37419 127 204 167
-0.20378 -0.599197 2.37667 77 147 107
0.075126 -0.592882 2.35199 75 148 126
-0.145024 -0.589008 2.37321 62 136 112
-0.0255956 -0.580882 2.3588 101 169 162
0.321777 -0.553976 2.31635 86 142 121
-0.498982 -0.562167 2.42314 70 138 121
0.655213 -0.52178 2.27833 242 254 255
0.662663 -0.520901 2.27707 153 171 188
0.821377 -0.520721 2.27755 228 255 251
0.421081 -0.525641 2.31053 192 214 209
0.680625 -0.506557 2.27455 69 69 85
-0.354685 -0.529845 2.39847 76 137 117
0.345296 -0.50605 2.31743 110 153 138
0.35198 -0.504226 2.31666 112 149 145
-0.416903 -0.523389 2.4121 87 137 119
0.441752 -0.500201 2.30758 205 219 225
0.693267 -0.492867 2.27618 81 92 119
0.454097 -0.495212 2.30521 206 222 229
0.457412 -0.492378 2.30311 219 238 235
-0.533122 -0.518807 2.42916 148 201 168
0.454936 -0.489873 2.30299 103 115 117
0.0526117 -0.493821 2.35469 67 139 127
-0.0050173 -0.49119 2.35983 101 171 154
-0.237728 -0.495175 2.38529 58 105 83
0.454378 -0.472457 2.3052 170 182 188
-0.628682 -0.500365 2.44328 167 232 206
0.0537795 -0.481465 2.35602 59 131 109
0.0459893 -0.479315 2.35818 90 162 150
0.322666 -0.471194 2.32349 127 182 173
0.403069 -0.467877 2.31184 139 144 147
-0.119991 -0.47901 2.37357 45 119 85
-0.00254955 -0.472946 2.36148 155 220 194
-0.228293 -0.475358 2.38757 81 142 106
0.313583 -0.456343 2.32512 208 232 230
-0.286385 -0.460332 2.39601 87 146 125
-0.182744 -0.448783 2.3847 77 132 107
-0.364057 -0.441173 2.40687 155 203 174
0.0542081 -0.41522 2.36213 83 131 132
-0.415724 -0.422557 2.4177 128 175 143
0.611513 -0.392736 2.28788 108 121 137
-0.406534 -0.412993 2.41557 65 124 93
-0.331471 -0.410621 2.40628 66 119 99
-0.664693 -0.408173 2.44961 88 147 133
-0.409187 -0.403037 2.4188 94 155 127
-0.393809 -0.40019 2.41492 54 105 71
-0.512148 -0.400827 2.43261 59 136 98
0.0637824 -0.386214 2.36114 51 123 100
-0.226714 -0.388859 2.39334 84 147 127
-0.209464 -0.38675 2.39166 75 147 124
0.0731896 -0.374376 2.35955 86 143 128
-0.0480676 -0.375358 2.37012 91 144 147
-0.658698 -0.37587 2.4504 54 128 100
-0.132854 -0.338598 2.38162 64 138 112
-0.320741 -0.340395 2.40443 46 123 96
-0.245406 -0.324732 2.39622 47 125 88
-0.150925 -0.317967 2.38565 166 245 204
-0.146205 -0.305155 2.38611 56 109 76
-0.633819 -0.305038 2.45265 84 141 126
-0.385234 -0.284027 2.41983 78 135 120
-0.314131 -0.276412 2.41275 79 153 123
0.647666 -0.260036 2.3155 196 218 229
0.0498524 -0.237546 2.37925 145 182 150
0.572153 -0.212664 2.32174 180 215 219
0.657735 -0.211569 2.32102 180 223 212
0.497606 -0.205274 2.33495 231 254 246
0.491943 -0.203009 2.33498 132 172 161
0.491394 -0.203031 2.33491 144 167 162
-0.310936 -0.206535 2.41611 89 154 132
-0.236791 -0.205334 2.40818 71 112 91
-0.266561 -0.199131 2.40816 48 122 80
0.20599 -0.185578 2.36 74 139 123
-0.613718 -0.192319 2.46392 85 155 124
0.247716 -0.168306 2.35617 82 145 119
-0.0421794 -0.168525 2.38975 60 142 119
-0.280144 -0.166526 2.4114 72 122 90
-0.255395 -0.162704 2.41219 183 244 208
0.691914 -0.154334 2.32753 61 102 95
0.233783 -0.120451 2.36434 81 149 124
0.548674 -0.0930693 2.34693 74 139 123
0.548934 -0.0931626 2.34669 90 153 137
0.551148 -0.0847589 2.34976 74 142 111
0.222687 -0.0721435 2.36856 170 218 200
0.0282028 -0.0675971 2.39545 50 112 88
-0.629211 0.0400191 2.49052 79 141 127
0.547029 0.0425633 2.36739 75 135 111
0.0307246 0.125148 2.42431 71 144 118
-0.342411 0.237228 2.47554 91 147 128
-0.475948 0.242897 2.50006 77 127 109
-0.116759 0.264981 2.45154 84 159 127
-0.101741 0.265635 2.45089 67 137 101
5.92689 -9.69669 -36.4235 78 137 93
0.701699 -1.01185 2.27548 91 148 139
0.298561 -1.03178 2.32727 65 139 121
-1.13378 -1.10398 2.51759 68 137 122
0.230575 -1.01394 2.33103 84 140 121
0.0476421 -1.01799 2.35343 78 123 97
0.624548 -0.986181 2.28142 79 159 128
-0.228955 -1.02462 2.38144 91 159 148
0.128973 -1.00921 2.34896 75 130 111
-0.384587 -1.02371 2.40275 92 141 133
-0.0120036 -1.00316 2.36132 67 107 82
0.220746 -0.99185 2.3341 54 127 111
-0.397475 -1.02163 2.40602 97 148 144
-0.052645 -0.993381 2.36754 186 238 214
-0.000189323 -0.990011 2.36173 78 124 111
0.827483 -0.947768 2.26644 76 144 133
-0.0435243 -0.989433 2.36612 64 110 87
-0.0336777 -0.990327 2.3704 78 112 101
-0.132275 -0.987884 2.37401 80 131 111
-0.0400469 -0.986376 2.36765 83 130 114
-0.12243 -0.986806 2.37268 145 229 194
-0.228688 -0.988079 2.38608 97 154 145
-0.561133 -1.00338 2.42995 79 140 126
-0.0313592 -0.974576 2.36305 72 131 110
-0.125632 -0.977243 2.37487 72 125 98
0.383789 -0.948867 2.31275 85 158 136
-0.176658 -0.974091 2.38135 136 179 152
-0.192548 -0.972905 2.38522 148 218 188
0.385991 -0.933711 2.30921 83 136 116
-0.186033 -0.963889 2.38589 57 110 96
-0.254498 -0.963036 2.39006 159 221 191
-0.207922 -0.958162 2.3881 55 109 92
-0.104606 -0.951183 2.37184 69 127 109
-0.250621 -0.957506 2.3921 79 139 121
-0.203466 -0.953863 2.38728 83 145 131
-0.397636 -0.959253 2.40584 90 142 124
-0.385657 -0.95913 2.40724 92 127 117
0.60753 -0.905732 2.28042 191 248 210
0.987207 -0.8953 2.25764 88 144 123
-0.306845 -0.94288 2.40085 255 255 251
0.76904 -0.874176 2.26958 70 172 131
0.714794 -0.872063 2.27061 100 158 134
-0.465785 -0.923368 2.4177 158 222 187
-0.439938 -0.917131 2.4199 76 132 119
-0.521371 -0.917549 2.42551 70 132 118
0.617924 -0.858849 2.2783 73 143 112
-0.309965 -0.898609 2.39842 91 160 145
0.729785 -0.850166 2.26929 144 226 191
0.258846 -0.868728 2.32323 93 165 142
0.519012 -0.852572 2.28676 81 146 121
0.519378 -0.852468 2.28837 77 142 117
-0.534234 -0.900882 2.42647 96 145 137
0.261176 -0.861038 2.32097 76 132 113
0.288213 -0.857325 2.3127 69 113 82
-0.639497 -0.903466 2.44288 81 140 119
-0.622517 -0.897914 2.43936 73 107 83
-0.557796 -0.894128 2.43083 150 195 178
-0.557375 -0.892373 2.43316 94 140 121
-0.5622 -0.889863 2.43615 112 154 143
-0.649397 -0.889508 2.44746 79 128 114
0.574507 -0.826448 2.28161 79 135 106
0.276819 -0.831791 2.31848 149 222 190
-0.718245 -0.871518 2.45477 68 130 106
0.32139 -0.816396 2.31382 90 161 134
0.582635 -0.805929 2.28351 92 158 139
-0.707893 -0.8509 2.45366 104 152 140
0.541182 -0.792672 2.28628 80 116 100
0.823947 -0.781829 2.26321 59 129 106
1.03051 -0.777374 2.2537 69 136 115
0.592827 -0.78115 2.28169 87 156 135
-0.0104944 -0.800009 2.35619 90 155 134
0.627363 -0.761347 2.27395 84 142 113
0.511718 -0.76037 2.29119 85 134 114
0.447413 -0.76058 2.3003 74 142 119
0.670422 -0.748029 2.26747 92 143 129
0.578077 -0.747429 2.27797 107 169 145
0.507264 -0.746839 2.29039 75 125 107
-1.01217 -0.815029 2.50261 115 149 132
0.6818 -0.735268 2.26846 95 152 127
0.589074 -0.735964 2.27631 75 110 84
0.654455 -0.732402 2.27168 80 128 100
0.35957 -0.739643 2.30847 64 139 118
0.353244 -0.733112 2.31137 68 139 122
-0.301207 -0.753458 2.38711 63 124 98
0.585017 -0.72019 2.28322 60 114 91
0.509663 -0.720579 2.28974 83 143 112
0.578595 -0.716322 2.28588 68 122 92
0.594906 -0.713869 2.27734 199 210 248
-1.11818 -0.787563 2.51829 95 161 136
0.538457 -0.712371 2.29222 68 128 97
-0.168651 -0.7374 2.37395 85 155 142
-0.306815 -0.740598 2.39012 88 157 136
0.750541 -0.699208 2.27288 85 144 129
-0.738705 -0.753569 2.45533 85 139 122
0.534732 -0.700093 2.28936 75 136 98
0.641818 -0.689254 2.27841 75 110 96
0.621665 -0.689767 2.28265 97 130 115
0.695629 -0.683959 2.27252 87 142 115
-0.754305 -0.737942 2.45876 87 152 137
0.695875 -0.681343 2.27539 72 136 114
-0.615217 -0.729262 2.43811 72 136 117
0.625444 -0.680407 2.28053 214 223 197
0.735205 -0.677481 2.27442 241 255 249
-0.827974 -0.733199 2.46783 94 153 138
0.603375 -0.676983 2.28445 65 133 108
0.262141 -0.682415 2.31893 79 150 124
-0.59453 -0.713728 2.43564 71 125 96
-0.315684 -0.697219 2.3916 96 167 147
0.276761 -0.674225 2.31744 89 153 134
-0.662339 -0.706957 2.44016 77 116 95
-0.4312 -0.696019 2.41193 78 137 117
0.354905 -0.667124 2.31047 85 143 119
-0.602257 -0.702033 2.43667 65 132 117
-0.43114 -0.688837 2.40997 67 122 103
0.715473 -0.646577 2.27513 92 142 130
-0.244039 -0.674887 2.37534 74 135 99
0.181317 -0.658892 2.32684 67 135 118
0.586813 -0.645639 2.2885 211 244 240
0.658878 -0.642349 2.2796 241 255 251
0.633914 -0.642068 2.28373 74 141 132
-0.230538 -0.664823 2.37727 56 112 91
0.281025 -0.648938 2.31715 155 232 205
0.197272 -0.647025 2.32678 59 121 109
0.556001 -0.635908 2.29454 83 145 131
0.280695 -0.63886 2.31748 56 93 83
0.650234 -0.628732 2.28397 198 244 221
-0.422234 -0.66003 2.40656 84 154 131
-0.59975 -0.663609 2.43606 86 146 122
0.195099 -0.631096 2.32826 68 147 126
-0.29869 -0.645464 2.38818 80 143 123
0.60955 -0.614191 2.28563 249 254 255
0.607388 -0.611289 2.28565 117 126 130
-0.763002 -0.640298 2.45722 74 116 93
-0.224161 -0.613855 2.3716 29 86 47
-0.338259 -0.615961 2.39712 88 145 130
-0.259656 -0.609613 2.38409 77 134 95
-0.678252 -0.624446 2.4465 106 151 125
-0.254477 -0.607329 2.38496 64 120 91
0.384695 -0.58861 2.31052 220 255 239
0.896238 -0.577949 2.26863 79 129 125
-0.133062 -0.596623 2.36892 70 130 112
0.234921 -0.582649 2.32823 244 255 255
-0.29352 -0.596362 2.38622 164 214 182
-0.433319 -0.598711 2.40955 69 101 76
-0.337107 -0.583879 2.39448 69 132 100
0.772432 -0.551447 2.28063 88 145 137
0.42165 -0.549329 2.30696 220 243 238
0.636351 -0.541984 2.28062 219 210 213
0.417306 -0.541964 2.30963 93 140 131
0.631945 -0.535171 2.28072 215 196 205
-0.400728 -0.564837 2.40948 95 145 135
0.66897 -0.532623 2.2785 246 254 255
-0.647245 -0.540269 2.43969 92 141 119
0.677004 -0.499712 2.27309 53 57 76
0.689297 -0.497475 2.2709 121 139 150
-0.416906 -0.523475 2.41166 87 137 119
-0.213592 -0.515965 2.38081 99 158 137
0.344121 -0.494308 2.31815 106 131 135
0.372088 -0.49161 2.31629 110 136 130
-0.396165 -0.508667 2.40774 68 117 95
0.456642 -0.48275 2.30349 160 168 168
-0.581883 -0.503391 2.4358 89 161 131
0.404393 -0.47597 2.3117 203 229 229
0.410221 -0.476462 2.31289 90 103 117
0.45019 -0.474513 2.30535 109 122 130
0.0631595 -0.481726 2.3544 68 133 118
0.402063 -0.473286 2.31233 65 70 79
0.0539986 -0.481374 2.35645 54 129 108
-0.263865 -0.483427 2.389 84 149 127
0.00626419 -0.467403 2.36006 200 240 228
0.429796 -0.446394 2.30352 88 71 74
-0.274666 -0.452603 2.39565 85 139 110
-0.753137 -0.45464 2.46385 112 169 154
-0.111508 -0.436734 2.37391 107 174 159
-0.385509 -0.428599 2.41225 74 134 100
-0.00753876 -0.406668 2.36632 253 255 254
-0.406921 -0.412866 2.41608 66 122 99
-0.28382 -0.409387 2.39951 86 125 109
-0.283817 -0.409405 2.40003 88 137 121
-0.633987 -0.41538 2.44402 57 125 114
-0.326776 -0.408077 2.40668 88 159 143
-0.362386 -0.405621 2.40563 114 177 135
-0.224962 -0.39448 2.39006 83 153 123
0.0728943 -0.388543 2.36116 179 247 224
-0.325234 -0.391104 2.404 72 124 107
-0.226826 -0.388948 2.39298 102 163 143
-0.0479893 -0.375334 2.37022 91 144 147
-0.31421 -0.352587 2.40146 85 134 120
0.0820496 -0.347044 2.36223 90 157 128
-0.184515 -0.340345 2.38958 69 136 104
0.0623502 -0.329357 2.36646 73 142 122
0.744379 -0.314872 2.29975 80 107 97
-0.147119 -0.316501 2.38545 65 135 94
-0.354587 -0.318781 2.41351 70 118 100
-0.200731 -0.309118 2.39109 67 127 103
-0.145994 -0.305004 2.38664 49 99 67
-0.633922 -0.304778 2.45358 84 141 126
-0.421192 -0.292419 2.42559 94 161 146
-0.386051 -0.288853 2.42085 72 128 107
-0.404554 -0.279575 2.42426 89 151 145
0.0482271 -0.236837 2.37856 149 191 160
-0.347542 -0.237756 2.42281 91 139 111
-0.274864 -0.235322 2.40917 57 127 97
0.493274 -0.220521 2.32896 251 255 254
0.568563 -0.210753 2.32463 105 99 116
0.657921 -0.211388 2.32155 180 223 212
0.643035 -0.209581 2.31931 73 109 92
0.563911 -0.208981 2.32595 252 250 250
-0.342276 -0.216277 2.42186 81 130 114
0.481977 -0.206188 2.33394 140 148 155
0.421971 -0.20473 2.33834 64 120 97
0.555954 -0.198753 2.3303 61 109 80
-0.596605 -0.209965 2.46283 81 139 134
-0.236692 -0.205832 2.40667 63 99 77
-0.487815 -0.184409 2.44405 86 155 118
-0.50348 -0.178772 2.44637 59 119 89
0.0879974 -0.164794 2.38003 67 83 59
0.139252 -0.162439 2.37 225 255 255
0.526261 -0.157088 2.33883 93 146 132
0.546196 -0.156523 2.34078 76 132 109
0.189071 -0.139033 2.36311 75 137 113
-0.2279 -0.108991 2.41566 60 130 100
0.561242 -0.1033 2.34411 104 169 148
0.0732898 -0.0870025 2.38827 37 67 62
-0.260991 -0.0844516 2.42397 78 152 118
0.0281392 -0.0672871 2.39624 42 107 85
0.0518531 -0.0308156 2.39776 66 118 101
0.190068 0.105788 2.39614 59 83 71
0.0875984 0.164273 2.42195 213 255 250
0.12335 0.175572 2.41725 49 123 99
0.315683 0.227753 2.40893 76 147 130
0.261914 -1.02674 2.33102 65 105 93
-0.518403 -1.06719 2.42906 82 138 133
0.374778 -1.01664 2.31709 90 150 142
0.763684 -0.997914 2.27172 88 156 139
-1.17179 -1.10429 2.52312 114 153 138
0.894685 -0.990294 2.26368 78 128 118
0.231514 -1.01396 2.3338 73 138 117
0.0579913 -1.0185 2.35223 92 143 116
0.171511 -1.00455 2.3392 154 233 192
0.225731 -1.00302 2.33371 78 127 111
0.0748511 -1.01076 2.35447 65 112 96
0.129217 -1.00921 2.34917 71 123 105
-0.805954 -1.05681 2.4685 116 180 158
-0.0353206 -1.00946 2.35929 89 131 113
0.168361 -1.00136 2.3408 79 138 118
0.185772 -0.999661 2.33873 58 128 111
-0.382297 -1.02402 2.40274 96 137 130
0.220876 -0.991848 2.33474 54 127 111
0.157737 -0.993162 2.34131 85 129 116
0.212272 -0.989431 2.33536 54 140 122
-0.181927 -1.0049 2.37598 60 120 102
-0.0385937 -1.00015 2.36194 60 102 79
0.186897 -0.987332 2.3375 74 127 113
0.0353801 -0.9938 2.35669 81 118 98
0.55048 -0.96335 2.29043 78 133 138
0.827862 -0.948212 2.26157 92 145 135
0.828723 -0.94813 2.26501 91 151 141
0.0235261 -0.984957 2.35772 79 140 126
0.761538 -0.942648 2.2718 139 220 195
-0.0805393 -0.983144 2.37147 46 101 86
-0.103912 -0.979556 2.37053 74 109 99
-0.227952 -0.98048 2.38482 79 141 119
0.444723 -0.943465 2.30132 93 157 145
0.575606 -0.9349 2.28662 95 156 142
0.364118 -0.944003 2.31248 234 255 253
-0.273384 -0.973037 2.38822 157 226 193
-0.227699 -0.969565 2.38771 157 217 187
0.401874 -0.93325 2.30204 146 213 162
0.415223 -0.933896 2.3052 59 107 65
-0.000711066 -0.955529 2.3629 93 150 141
0.386161 -0.933699 2.30966 83 136 116
0.41739 -0.927642 2.30275 80 125 98
0.986661 -0.909229 2.258 55 122 107
-0.357156 -0.960937 2.40034 91 137 115
-0.135804 -0.9503 2.37601 61 105 82
-0.206697 -0.954008 2.38776 84 146 128
0.722922 -0.907006 2.27479 93 154 140
-0.38499 -0.958156 2.4054 92 127 117
-0.0790392 -0.94201 2.37049 80 146 141
-0.260049 -0.952241 2.39486 85 125 120
0.196241 -0.925121 2.33439 253 255 255
-0.280533 -0.949475 2.39663 70 98 79
0.640992 -0.902266 2.27679 77 140 114
0.731957 -0.899306 2.2745 82 149 122
0.301146 -0.909605 2.31551 104 157 144
-0.321813 -0.938319 2.39753 59 99 88
-0.326833 -0.934418 2.40355 166 222 217
0.316606 -0.895714 2.30913 68 111 100
-0.502785 -0.937398 2.42189 79 127 109
-0.232418 -0.923803 2.38677 90 155 139
-0.376557 -0.930358 2.41274 72 106 105
-0.240372 -0.922062 2.38899 165 230 215
0.309315 -0.893212 2.31162 66 99 92
0.361233 -0.890722 2.30904 82 141 126
0.36856 -0.890572 2.3065 79 118 110
-0.521812 -0.930163 2.42281 66 133 104
-0.31012 -0.921692 2.39895 102 164 142
0.715292 -0.871979 2.27212 87 142 123
-0.309646 -0.921616 2.40156 106 174 157
0.448207 -0.879781 2.3013 94 153 139
0.718829 -0.867431 2.27024 30 75 59
0.793877 -0.865123 2.26746 56 123 94
-0.515187 -0.923423 2.42385 145 219 183
-0.38079 -0.91852 2.41157 78 118 107
0.336928 -0.872647 2.30265 98 156 138
0.732525 -0.858916 2.27165 151 219 178
-0.44561 -0.912028 2.42106 166 237 221
0.0420823 -0.88787 2.35468 109 158 166
-0.435909 -0.909902 2.4197 92 134 123
0.302434 -0.870046 2.31317 66 131 106
0.644672 -0.853305 2.27603 86 131 115
0.722796 -0.849445 2.26752 154 238 203
0.519159 -0.852485 2.28808 77 142 117
0.737223 -0.844718 2.26892 73 126 106
0.261238 -0.861067 2.3205 76 132 113
0.525016 -0.84362 2.28834 86 159 133
0.361001 -0.849967 2.30759 91 140 120
-0.62239 -0.897914 2.43941 73 107 83
0.282326 -0.852761 2.31617 141 211 171
0.530832 -0.841156 2.28927 94 168 142
0.757319 -0.83321 2.26946 74 128 115
0.256183 -0.850991 2.32055 65 127 105
0.275794 -0.849866 2.31707 80 118 90
0.496594 -0.838693 2.29392 94 156 138
-0.620558 -0.892009 2.44332 52 101 85
0.754547 -0.827013 2.26788 151 232 193
-0.590513 -0.887835 2.44188 82 131 117
-0.6947 -0.888538 2.45196 61 122 96
0.271983 -0.840715 2.3178 85 150 118
-0.512653 -0.879254 2.42987 105 174 163
0.261827 -0.838445 2.3193 97 167 144
0.326138 -0.834726 2.31004 79 117 95
0.572282 -0.825017 2.28198 65 119 96
-0.729955 -0.881041 2.45798 148 243 198
-0.617616 -0.874435 2.44243 72 137 121
0.525083 -0.817769 2.28749 101 163 133
0.712361 -0.812544 2.27253 77 136 121
0.303383 -0.825772 2.31713 51 116 95
0.630498 -0.80591 2.27604 105 160 143
-0.0783687 -0.831063 2.36379 67 128 118
0.330482 -0.80737 2.3132 81 135 118
0.512863 -0.795301 2.2919 77 144 129
0.541797 -0.792643 2.28611 85 115 102
0.0834131 -0.81222 2.34842 82 148 123
0.273058 -0.801793 2.31916 78 147 126
0.550299 -0.791622 2.28818 47 95 77
-0.240101 -0.820359 2.3817 241 255 252
0.570994 -0.78848 2.28525 68 119 105
0.326 -0.79683 2.31277 88 154 135
0.74363 -0.777062 2.26684 154 237 198
0.774217 -0.777795 2.26775 255 255 254
-0.932892 -0.850198 2.4881 111 157 144
1.02186 -0.766147 2.25354 77 124 116
0.620038 -0.773869 2.27976 90 170 139
-0.975433 -0.843013 2.4952 88 130 105
-0.988433 -0.840883 2.49584 87 104 95
0.627618 -0.761284 2.27455 75 133 105
0.438111 -0.766544 2.29893 104 146 129
0.43883 -0.766469 2.29971 91 135 118
0.511737 -0.755999 2.29186 87 152 130
0.601038 -0.751213 2.28103 70 129 108
0.577627 -0.747564 2.27674 104 154 136
0.660744 -0.745651 2.27263 66 107 92
0.459445 -0.753037 2.29796 84 137 94
0.517091 -0.749908 2.29155 101 168 139
0.611034 -0.746801 2.27985 93 136 121
-0.997197 -0.813316 2.4956 66 86 74
-0.191849 -0.769109 2.37619 91 160 139
0.66688 -0.730814 2.27048 82 129 113
-0.939653 -0.799328 2.48686 100 155 140
0.677004 -0.72699 2.27078 65 100 86
-0.811428 -0.787051 2.46903 87 144 129
0.658069 -0.724607 2.27388 146 213 184
-0.821835 -0.786299 2.47105 102 168 149
0.335423 -0.734198 2.31262 86 148 136
-0.464568 -0.764717 2.41626 84 136 106
0.572089 -0.721994 2.28344 64 112 86
-0.990843 -0.783953 2.49492 89 161 119
0.357155 -0.723283 2.30921 64 131 110
-0.975098 -0.775852 2.49206 100 154 125
0.509459 -0.711436 2.29002 76 111 91
0.717349 -0.703101 2.27207 74 135 109
0.581676 -0.700681 2.28513 62 107 88
-0.174606 -0.721058 2.37191 76 135 114
-0.270534 -0.719757 2.38483 79 142 122
0.350384 -0.697591 2.31147 80 140 116
0.224321 -0.700582 2.32229 71 136 121
0.751949 -0.684293 2.27205 92 141 119
-0.769485 -0.73723 2.45754 57 102 93
0.559763 -0.68665 2.28967 84 123 108
0.675166 -0.682401 2.2749 148 203 178
-0.690815 -0.731377 2.44854 86 145 114
-0.679232 -0.726331 2.43908 134 211 167
-1.44034 -0.762687 2.5695 91 125 118
0.603708 -0.676901 2.28504 65 133 108
-0.194429 -0.704197 2.37241 99 142 121
-0.413055 -0.709797 2.40709 95 153 125
1.02705 -0.663866 2.25948 94 157 148
0.58307 -0.671424 2.2863 255 255 254
0.587067 -0.67121 2.28613 254 254 254
-0.37267 -0.704011 2.40481 96 160 141
-0.483213 -0.709303 2.42288 76 122 99
-0.580607 -0.709326 2.43268 94 138 121
0.463767 -0.668215 2.29989 54 87 73
0.674281 -0.662729 2.27794 106 176 153
-1.01688 -0.72755 2.50326 95 121 108
-0.607293 -0.707996 2.43413 101 158 125
-0.795067 -0.71266 2.46086 83 122 100
-1.39987 -0.740023 2.55875 77 132 99
0.355694 -0.667075 2.31086 90 155 130
-0.430733 -0.69593 2.41134 79 134 115
-0.350489 -0.692862 2.39817 89 143 130
-0.686939 -0.703483 2.44414 105 165 147
-0.657701 -0.700503 2.44114 71 92 77
-0.355181 -0.691047 2.3994 99 156 147
0.456286 -0.661321 2.30444 81 125 112
-0.265095 -0.681239 2.38157 56 98 81
-0.167929 -0.679601 2.37365 58 122 103
-0.0404613 -0.675742 2.3597 83 155 142
0.253102 -0.664467 2.32015 91 154 128
1.03655 -0.647203 2.25978 75 143 132
-0.678751 -0.698841 2.44728 94 158 129
0.659619 -0.648594 2.27812 85 125 114
-0.109506 -0.671384 2.36745 79 157 134
0.181485 -0.65881 2.32742 59 129 112
0.450413 -0.653128 2.30348 71 110 94
0.563545 -0.649121 2.28913 92 132 120
0.715104 -0.646618 2.27485 108 154 141
0.2665 -0.655622 2.31672 72 131 110
0.0582665 -0.662323 2.3507 76 155 134
0.415712 -0.648625 2.30122 86 140 105
0.660528 -0.6427 2.28089 244 255 251
0.0503853 -0.657571 2.3468 98 168 151
0.314864 -0.648403 2.31446 89 155 130
-0.230401 -0.664987 2.3761 58 120 96
0.353487 -0.645335 2.31324 98 166 141
-0.179309 -0.656602 2.37139 130 204 168
0.47713 -0.636658 2.30059 78 137 117
-0.277389 -0.656592 2.38181 69 134 102
0.280537 -0.638727 2.31831 59 99 88
-0.163529 -0.652691 2.37224 69 126 105
0.431146 -0.63397 2.30567 90 167 146
0.803863 -0.624327 2.27204 231 255 253
-0.336527 -0.656111 2.39548 80 151 125
0.199738 -0.639031 2.32728 60 119 99
0.466687 -0.631083 2.30251 60 115 88
0.468934 -0.630513 2.30615 92 156 127
-0.88626 -0.671967 2.47782 88 150 136
-0.0300917 -0.637446 2.35692 105 166 156
0.456056 -0.62123 2.30193 70 123 103
-0.428561 -0.644873 2.40906 91 128 118
-0.274859 -0.635049 2.3786 159 237 183
0.585559 -0.604579 2.2909 193 237 236
-0.272102 -0.626663 2.38096 172 237 198
-0.573457 -0.637419 2.4302 68 101 97
-0.283988 -0.625175 2.38302 164 254 208
-0.222828 -0.620645 2.36818 253 255 254
-0.761401 -0.639683 2.45772 52 96 73
-0.157941 -0.618141 2.37374 82 153 127
-0.36586 -0.620086 2.40069 94 148 118
-0.716873 -0.631069 2.45164 73 122 100
-0.261601 -0.61387 2.38357 116 191 153
-0.522441 -0.622474 2.42336 90 132 114
-0.144609 -0.608505 2.36851 90 154 135
0.250564 -0.595902 2.3244 254 254 254
-0.799028 -0.628773 2.46336 92 143 129
-0.747823 -0.626247 2.45912 104 146 139
-0.677759 -0.624601 2.44551 90 133 106
-0.167913 -0.601806 2.37142 63 133 140
-0.67834 -0.619898 2.44725 154 219 193
-0.14569 -0.598148 2.36914 164 244 207
-0.269464 -0.600216 2.38374 56 115 87
-0.307777 -0.597333 2.38871 57 115 86
0.396031 -0.574495 2.30819 108 149 141
-0.770532 -0.609904 2.46151 83 138 113
0.55357 -0.5618 2.27829 121 138 147
-0.429754 -0.592415 2.40849 128 195 164
-0.435906 -0.588714 2.41045 149 232 194
-0.030008 -0.572738 2.36101 105 159 154
-0.580763 -0.588034 2.43245 91 153 117
-0.600455 -0.588436 2.43185 98 177 134
0.41176 -0.557368 2.30892 103 159 138
0.542155 -0.549 2.29096 122 136 148
0.335981 -0.555926 2.31763 93 159 140
-0.696663 -0.584572 2.44724 97 161 139
0.318851 -0.546014 2.31768 80 106 92
0.642024 -0.53622 2.27797 123 101 130
-0.380311 -0.563685 2.40174 52 96 73
0.54097 -0.537206 2.28605 206 225 230
0.424203 -0.538751 2.30463 76 100 92
0.632386 -0.534755 2.28275 210 199 215
0.323191 -0.54136 2.3227 74 127 114
0.648193 -0.523712 2.28054 246 254 253
0.660889 -0.515449 2.28275 97 99 123
0.678081 -0.513908 2.27549 113 125 149
-0.642517 -0.550744 2.4403 62 101 85
0.677037 -0.510861 2.27644 78 94 117
-0.425115 -0.538624 2.40989 65 118 91
-0.651449 -0.538954 2.44364 91 131 113
0.357566 -0.508449 2.31677 237 255 251
-0.168798 -0.515086 2.37475 67 132 100
0.388105 -0.501337 2.31472 218 252 242
0.586493 -0.495624 2.29018 107 117 124
-0.169047 -0.513862 2.38075 52 135 110
-0.256176 -0.511411 2.38096 70 111 90
-0.409263 -0.516526 2.40866 91 146 121
0.44902 -0.4928 2.30642 78 78 96
0.37207 -0.491216 2.31807 105 137 132
-0.396263 -0.508383 2.40914 68 117 95
-0.89441 -0.522773 2.48124 107 162 145
0.402004 -0.479234 2.31181 127 146 153
0.51441 -0.474785 2.29641 165 169 174
0.406169 -0.474391 2.31321 222 242 237
0.451058 -0.474282 2.30594 73 84 92
0.656287 -0.466024 2.2777 249 254 255
-0.0201595 -0.48321 2.36224 93 157 145
0.402865 -0.473097 2.31318 78 78 84
0.437935 -0.467435 2.30874 233 236 234
-0.541764 -0.492387 2.43138 66 111 85
0.324536 -0.470524 2.32309 83 138 123
0.413352 -0.464531 2.30365 216 231 233
0.358638 -0.459084 2.31747 250 255 229
-0.637052 -0.482694 2.44443 90 142 132
-0.389157 -0.477228 2.41121 116 167 163
0.344494 -0.458347 2.32191 92 116 116
-0.224569 -0.470183 2.38487 138 213 175
0.318682 -0.454987 2.32504 98 151 141
-0.286346 -0.470235 2.39438 77 133 112
-0.379098 -0.467815 2.40917 75 129 112
-1.06816 -0.479482 2.51211 95 173 149
-0.848616 -0.469362 2.47682 82 145 125
-0.2732 -0.452344 2.39501 74 118 95
0.598996 -0.425091 2.28838 86 85 89
-0.11084 -0.437019 2.37471 94 160 148
-0.395421 -0.433135 2.40841 52 123 83
-0.105468 -0.426889 2.37494 76 150 132
-0.403296 -0.425892 2.41078 23 101 54
-0.529554 -0.428336 2.43448 65 134 113
0.501406 -0.397539 2.29517 76 81 72
-0.276019 -0.415246 2.39838 97 153 130
-0.0080829 -0.406997 2.36473 248 255 255
-0.720724 -0.420967 2.45945 78 130 112
-0.723456 -0.420485 2.46316 103 163 152
-0.373969 -0.410799 2.40974 31 76 43
-0.36798 -0.41087 2.40766 161 245 190
-0.284076 -0.409579 2.39871 86 125 109
-0.36793 -0.404799 2.40811 50 84 54
-0.705694 -0.412034 2.45473 68 127 99
-0.373342 -0.403153 2.41123 63 127 97
-0.714613 -0.407295 2.4624 167 226 212
-0.4067 -0.400013 2.41911 76 137 111
-0.0191771 -0.386164 2.36707 62 120 102
-0.325534 -0.390689 2.40563 80 131 117
-0.187645 -0.3808 2.38885 182 234 211
0.0731259 -0.374431 2.35983 86 143 128
0.60491 -0.349006 2.28141 147 160 158
-0.915465 -0.366613 2.49634 83 152 132
-0.314326 -0.351705 2.40475 53 117 98
0.694269 -0.328352 2.29221 222 243 255
-0.320601 -0.340446 2.40403 50 131 106
-0.137482 -0.33873 2.38238 70 139 112
0.742605 -0.326083 2.2964 53 57 75
-0.222528 -0.336204 2.39266 68 138 108
-0.223887 -0.336053 2.39315 93 164 131
-0.246405 -0.333027 2.39675 73 147 119
0.767548 -0.316693 2.30328 147 176 183
-0.85939 -0.341783 2.48936 90 154 132
0.695223 -0.315384 2.2941 57 52 84
0.692223 -0.311268 2.29543 195 221 237
-0.246436 -0.324788 2.39685 47 125 88
-0.167634 -0.319363 2.38671 19 86 55
-0.222213 -0.316339 2.39291 30 74 45
-0.146551 -0.316462 2.38561 66 137 97
0.762764 -0.304793 2.30337 74 98 96
-0.175851 -0.312028 2.3949 82 164 121
0.501151 -0.300346 2.29105 63 123 93
-0.119172 -0.310833 2.37817 57 131 97
-0.0266566 -0.304506 2.37294 77 141 129
0.0373412 -0.301824 2.36974 86 151 135
-0.25843 -0.297372 2.40279 53 126 94
-0.2637 -0.292377 2.4013 80 128 99
0.865194 -0.276272 2.29896 87 144 135
-0.231233 -0.285938 2.40045 55 94 62
-0.226196 -0.278399 2.39989 85 142 121
-0.204362 -0.266674 2.39601 82 145 113
0.739988 -0.248406 2.31078 79 141 119
0.638282 -0.245259 2.31674 237 251 247
-0.175474 -0.250846 2.39808 79 168 128
-0.17999 -0.246124 2.39662 63 144 111
0.0740188 -0.244222 2.37085 117 158 126
0.472002 -0.237884 2.32575 54 84 73
0.52594 -0.234274 2.3195 217 217 211
0.503119 -0.233538 2.32551 70 93 89
-0.346494 -0.237292 2.42312 91 139 111
-0.536684 -0.234649 2.4481 69 140 120
-0.52501 -0.234216 2.44625 79 123 106
-0.291606 -0.231668 2.41236 91 152 124
0.536144 -0.220177 2.32642 243 254 252
0.544854 -0.217177 2.3286 93 131 113
-0.267392 -0.223846 2.41068 71 112 84
-0.0411391 -0.218851 2.38278 79 154 138
-0.253651 -0.217873 2.40493 66 109 76
0.564049 -0.208758 2.3266 252 250 250
0.667214 -0.206069 2.32669 69 112 99
0.524067 -0.204296 2.33342 74 110 93
-0.272681 -0.207604 2.41104 64 129 80
-0.247713 -0.205511 2.40883 62 126 90
0.532693 -0.194451 2.33396 65 122 101
0.021159 -0.196517 2.37967 72 126 113
0.468895 -0.194612 2.33703 237 250 248
0.651168 -0.191071 2.32703 190 235 219
-0.493539 -0.197782 2.4468 75 145 109
0.244051 -0.186487 2.35729 104 166 142
0.525529 -0.185272 2.33596 78 148 125
-0.2183 -0.185809 2.39925 157 238 213
0.422474 -0.176188 2.34292 64 107 96
-0.235503 -0.178776 2.40806 103 139 122
0.102481 -0.174232 2.36754 68 105 59
-0.254029 -0.175349 2.41014 59 114 87
-0.532363 -0.175639 2.45198 68 108 80
-0.259741 -0.165826 2.4126 56 111 84
-1.52544 -0.178635 2.61018 248 255 254
-0.0310551 -0.160961 2.39135 65 124 110
0.0446074 -0.159763 2.37974 71 102 69
0.52646 -0.156925 2.33929 94 144 134
0.546052 -0.156786 2.34005 76 132 109
-0.62266 -0.161459 2.46546 63 107 84
0.136447 -0.153483 2.36729 25 83 54
-0.275886 -0.1456 2.41545 78 139 95
0.233535 -0.120043 2.36345 78 143 121
-0.211388 -0.110546 2.41445 94 161 140
0.218511 -0.10373 2.36243 52 110 86
0.0516452 -0.095211 2.38961 67 115 97
0.200778 -0.0894662 2.36887 128 180 156
-0.261076 -0.0837711 2.42577 77 149 119
-0.654137 -0.0756624 2.47952 93 154 144
0.576075 -0.0671504 2.35187 67 93 87
-0.156046 -0.0502853 2.41679 64 125 105
0.0584391 -0.0387087 2.39616 53 90 64
-0.388491 -0.00732677 2.45225 242 254 255
0.12906 0.00914614 2.39441 126 140 122
0.309532 0.0134964 2.37966 114 140 122
0.404763 0.0305802 2.37594 81 148 121
0.229104 0.0676218 2.39035 106 138 114
0.404219 0.105605 2.38651 84 137 123
-0.0142195 0.12024 2.43044 98 160 146
0.0564225 0.14016 2.4235 211 247 231
0.12864 0.160639 2.40979 42 98 69
-0.461632 0.215812 2.4933 71 139 128
0.49947 0.208869 2.3956 89 139 129
0.361801 0.216284 2.40534 235 255 246
0.00866258 0.221121 2.43549 72 160 130
0.00630021 0.22404 2.4403 55 119 107
0.31502 0.227304 2.40804 87 157 140
-0.155295 0.242939 2.45427 80 146 121
-0.137881 0.243402 2.45244 80 141 127
0.209285 0.259343 2.41953 74 133 118
-0.248265 0.267116 2.46452 96 152 133
-0.257702 0.278418 2.46893 61 133 113
-0.34948 0.293448 2.48167 67 136 109
-0.292056 0.296785 2.47933 46 109 77
-0.842527 0.339697 2.56817 75 163 139
-0.0654075 -1.02066 2.36146 63 92 83
0.143295 -1.01366 2.34453 92 139 130
-0.0311397 -1.0185 2.36045 68 130 100
-0.00116033 -1.01176 2.35501 86 139 100
-0.322031 -1.02843 2.39576 93 158 142
-1.23514 -1.08296 2.53326 132 185 171
0.229056 -0.995829 2.33264 76 141 120
0.535605 -0.962082 2.29072 90 159 138
0.550769 -0.96337 2.28949 84 122 146
0.0231307 -0.984948 2.35845 77 138 124
-0.170616 -0.986286 2.37858 43 97 60
-0.349934 -0.98126 2.39538 74 124 112
-0.000747396 -0.955528 2.36294 93 150 141
0.416751 -0.93107 2.30878 84 121 95
-0.175222 -0.95624 2.37802 128 202 166
-0.356804 -0.960947 2.3999 95 138 117
-0.342879 -0.959247 2.39468 160 238 191
-0.321266 -0.96189 2.39758 82 124 107
0.734378 -0.907924 2.27136 98 162 143
0.196179 -0.925132 2.33403 249 253 254
0.641384 -0.902183 2.2787 91 157 132
0.838856 -0.894918 2.26461 71 114 103
-0.231899 -0.942742 2.38649 76 133 100
-0.175499 -0.939415 2.37804 74 130 111
-0.160788 -0.933993 2.38213 89 153 134
-0.305823 -0.940423 2.39987 252 254 254
-0.344287 -0.939588 2.40389 70 100 89
0.760644 -0.886775 2.27472 96 157 119
0.361699 -0.897714 2.30512 106 161 142
-0.363181 -0.934784 2.41016 79 114 104
0.304349 -0.892945 2.31159 72 126 109
-0.377541 -0.931283 2.41366 81 112 105
0.766493 -0.871864 2.27011 130 236 177
0.336928 -0.872647 2.30265 98 156 138
0.279889 -0.869618 2.31876 103 155 132
0.644858 -0.853152 2.27465 86 131 115
-0.34029 -0.89326 2.40021 71 119 95
-0.516373 -0.889568 2.42584 90 114 104
0.313642 -0.842517 2.30943 72 113 86
0.487923 -0.823188 2.29266 106 171 150
0.345339 -0.819161 2.31297 87 162 140
-0.853245 -0.8554 2.47674 57 108 94
-0.239987 -0.819984 2.38013 235 255 250
0.619027 -0.78236 2.27653 99 159 135
0.740853 -0.772505 2.27035 81 123 112
0.561499 -0.768677 2.28615 76 137 117
0.601655 -0.762732 2.28109 97 158 120
0.621819 -0.759971 2.27795 89 125 111
-1.05454 -0.833035 2.50837 89 116 107
-1.07386 -0.824376 2.50504 70 109 94
0.600775 -0.751316 2.28008 70 129 108
0.677597 -0.748022 2.26969 83 143 132
-0.984696 -0.802277 2.49739 89 145 116
0.651758 -0.728402 2.27128 87 124 108
0.770015 -0.725564 2.26991 93 154 144
-0.812667 -0.786885 2.46764 74 136 118
-0.546212 -0.771175 2.42919 255 255 255
0.323581 -0.728567 2.31485 98 155 140
-0.968485 -0.781166 2.48921 99 148 132
-1.40054 -0.80014 2.55846 111 165 142
0.592178 -0.698434 2.28546 71 118 96
0.637502 -0.694358 2.27722 158 232 196
0.540543 -0.68937 2.28944 67 126 98
0.680462 -0.686031 2.2744 96 150 127
0.55948 -0.686813 2.28848 80 119 103
-0.67934 -0.726274 2.4396 134 211 167
-0.277459 -0.709089 2.3857 84 148 112
0.745676 -0.674336 2.27243 61 126 94
0.304127 -0.685953 2.31346 190 240 228
-1.11267 -0.738703 2.51289 71 94 72
0.584509 -0.671601 2.28461 254 254 254
-1.03214 -0.729275 2.49442 78 115 99
-0.589143 -0.715893 2.44049 95 144 130
-0.48299 -0.709353 2.42248 87 129 106
0.745202 -0.66436 2.2744 80 125 109
-0.557469 -0.701784 2.43119 68 121 101
0.456419 -0.661269 2.3048 81 125 112
-0.548211 -0.694927 2.42919 105 146 139
-0.188756 -0.677756 2.37456 70 115 96
0.659555 -0.648536 2.27943 82 127 118
0.0586456 -0.66226 2.35117 82 159 138
0.353537 -0.645393 2.31287 105 173 148
-0.25012 -0.647391 2.37212 157 240 188
0.659616 -0.620292 2.28231 92 138 132
0.361794 -0.627221 2.3141 121 177 156
0.6113 -0.614427 2.28603 255 255 255
0.61256 -0.613682 2.28633 253 255 255
0.607439 -0.608238 2.28377 112 124 128
0.546991 -0.604372 2.29372 229 253 251
0.592478 -0.599165 2.28926 203 216 218
-0.666718 -0.635034 2.43979 102 150 122
-0.17242 -0.617358 2.37367 114 169 152
-0.260979 -0.617433 2.38228 68 120 83
-0.610014 -0.62334 2.4354 92 143 116
-0.525698 -0.621856 2.42571 81 126 107
-0.503324 -0.6197 2.41604 95 153 118
-0.581338 -0.617647 2.43121 85 126 98
0.589308 -0.576502 2.28525 193 240 237
-0.145628 -0.59762 2.37227 148 225 187
-0.770523 -0.609912 2.46146 83 138 113
-0.556321 -0.599537 2.43279 110 149 124
-0.0292329 -0.573818 2.35436 89 137 125
-0.696905 -0.584443 2.44801 97 161 139
0.424527 -0.546951 2.30459 145 158 156
-0.263587 -0.561323 2.37994 153 239 191
0.320858 -0.543172 2.31784 91 133 115
0.651379 -0.530587 2.27775 122 155 188
0.473102 -0.513838 2.3054 254 254 254
-0.809087 -0.547954 2.46497 74 105 78
0.377565 -0.513201 2.31629 102 139 131
0.384699 -0.511959 2.3134 81 124 103
-0.651116 -0.539094 2.44291 91 131 113
-0.298658 -0.51883 2.38911 70 94 82
0.595438 -0.491023 2.26801 220 242 237
0.716989 -0.493035 2.28232 253 255 255
-0.365165 -0.514368 2.3999 71 116 89
-0.295346 -0.513622 2.38631 161 216 199
0.582677 -0.48896 2.2899 186 218 217
-0.288232 -0.508069 2.38972 76 103 87
-0.154111 -0.50576 2.37679 78 140 110
0.38356 -0.488836 2.31252 85 129 130
0.58589 -0.481673 2.28335 52 67 59
0.406642 -0.488678 2.31264 160 149 151
-0.0779915 -0.491341 2.3636 88 130 112
-0.410013 -0.49575 2.41295 94 140 121
-0.174837 -0.482052 2.37897 91 159 118
-0.115877 -0.475245 2.3714 71 145 109
0.482035 -0.455281 2.2855 108 114 121
0.579014 -0.457173 2.28412 170 233 189
-0.358884 -0.47765 2.40513 60 98 76
-0.308491 -0.475609 2.39357 110 157 131
0.358688 -0.459054 2.3176 250 255 229
-0.363291 -0.464417 2.40326 62 112 82
0.360213 -0.442481 2.32125 90 133 120
-0.241339 -0.423575 2.39226 101 159 135
-0.263514 -0.411081 2.39053 72 129 108
0.484528 -0.396501 2.29714 59 67 66
0.110784 -0.403166 2.3554 95 144 136
0.489819 -0.369335 2.28766 176 248 206
-0.66038 -0.375448 2.45135 67 125 101
0.592845 -0.340929 2.27616 90 96 109
0.748078 -0.310765 2.30111 194 217 209
0.761995 -0.305319 2.30163 90 111 109
-0.119026 -0.311092 2.37728 57 131 97
0.0423385 -0.302721 2.36664 102 152 134
-0.402832 -0.307485 2.42267 89 136 127
-0.19552 -0.303557 2.38903 150 239 189
-0.17706 -0.296457 2.38763 181 240 209
0.0494359 -0.293102 2.37523 50 105 80
-0.196215 -0.287433 2.39381 60 127 90
0.638366 -0.277867 2.31268 130 145 154
-0.225524 -0.279057 2.39772 81 140 120
-0.344767 -0.275696 2.4152 110 163 150
-0.176873 -0.263041 2.3936 67 137 100
0.478817 -0.232648 2.32758 184 239 220
0.740294 -0.226853 2.31445 77 134 119
-0.512657 -0.231978 2.44542 106 154 142
0.495286 -0.220647 2.33048 252 252 252
0.14837 -0.22158 2.35944 83 132 86
0.135305 -0.216233 2.35432 104 151 113
0.525842 -0.213275 2.32489 71 92 70
0.0228489 -0.211537 2.38421 56 84 54
0.148361 -0.201742 2.35903 165 240 188
0.157871 -0.198942 2.35603 59 116 77
0.651412 -0.191526 2.32573 177 224 208
0.244177 -0.18658 2.35717 104 166 142
-0.235466 -0.17868 2.40835 103 139 122
-0.506081 -0.179389 2.44726 56 113 80
0.852489 -0.169725 2.31375 96 145 125
-0.0941701 -0.161708 2.39041 250 255 254
-0.0310551 -0.160961 2.39135 65 124 110
0.57846 -0.154155 2.33741 98 156 138
0.14693 -0.154078 2.36522 223 255 251
-0.620127 -0.15864 2.46375 91 141 117
0.0134262 -0.153706 2.38807 81 110 94
-0.792876 -0.150824 2.49791 251 255 255
-0.603585 -0.147981 2.47173 108 167 152
0.181441 -0.103032 2.36944 61 115 92
-0.389299 -0.00647121 2.45355 248 255 255
0.0196969 0.0601036 2.41854 94 140 121
0.20339 0.0724457 2.39019 104 146 123
0.399151 0.0818296 2.38512 101 148 139
-0.664541 0.113395 2.506 107 158 144
-0.212479 0.235735 2.45825 80 140 110
-0.20666 0.265728 2.46494 42 115 75
-0.191148 0.265314 2.46416 58 107 79
-0.486528 0.284647 2.50645 109 142 135
0.961983 -0.968785 2.2588 93 132 117
-1.25604 -1.08249 2.53162 135 184 170
-0.640912 -1.04402 2.44303 105 157 147
0.956668 -0.954178 2.25826 77 134 119
-1.49534 -1.0835 2.5876 125 171 172
-0.0386832 -0.990408 2.36699 80 109 94
-1.24535 -1.05776 2.53862 96 111 103
-1.0265 -1.03974 2.49946 122 162 161
-0.171067 -0.986274 2.37995 46 100 63
-0.0818207 -0.986348 2.37593 56 111 94
0.755367 -0.940483 2.27183 94 161 140
-0.0377088 -0.970932 2.36602 59 106 97
0.364171 -0.943893 2.31232 235 255 253
-0.162805 -0.966545 2.38462 96 160 138
0.38751 -0.931698 2.30948 88 149 123
-0.374321 -0.96102 2.40338 157 225 200
0.721439 -0.906701 2.27186 92 153 139
-0.380069 -0.954992 2.4086 80 132 109
-0.432304 -0.950663 2.42045 72 137 111
-0.323517 -0.939856 2.40145 61 101 90
-0.361268 -0.935023 2.40672 67 88 79
-0.335164 -0.934953 2.40717 102 149 141
0.722218 -0.873284 2.26816 74 127 100
-0.248673 -0.921095 2.39339 101 160 145
0.721246 -0.869877 2.27534 37 80 65
-0.36026 -0.904835 2.40931 96 154 130
0.44132 -0.847816 2.2999 75 125 101
-1.35755 -0.909863 2.54845 253 255 255
0.51128 -0.808015 2.29115 92 145 131
0.4632 -0.807918 2.29798 72 127 108
0.739569 -0.788494 2.26779 36 58 30
0.549133 -0.792987 2.28477 77 108 87
0.785135 -0.781713 2.26544 57 84 75
1.01106 -0.778337 2.25756 74 120 101
-1.37988 -0.873515 2.56164 236 255 252
0.7412 -0.77251 2.27033 83 120 110
0.598581 -0.76241 2.28237 92 144 114
0.622005 -0.759859 2.27739 89 125 111
-1.05535 -0.832905 2.51033 77 106 97
0.457007 -0.748093 2.29755 78 123 84
-1.09831 -0.814463 2.51026 52 80 61
0.509214 -0.736309 2.29302 82 135 121
-0.813267 -0.786903 2.46732 66 133 112
0.292145 -0.73932 2.31609 109 170 144
-0.300752 -0.746959 2.38704 51 122 82
0.754296 -0.701861 2.27152 54 102 84
-1.12712 -0.774476 2.51958 93 123 112
0.592852 -0.698363 2.28604 78 125 103
-1.37821 -0.775548 2.56373 93 142 128
-0.986818 -0.747034 2.49114 187 239 232
0.628674 -0.683536 2.28298 254 254 254
-1.08596 -0.749286 2.50323 68 95 56
-0.367635 -0.716576 2.40126 252 255 253
-0.414164 -0.709033 2.40855 82 141 120
-0.188957 -0.699879 2.38033 75 139 120
0.749663 -0.669978 2.27861 67 118 98
-1.11239 -0.738706 2.5129 71 94 72
-0.68611 -0.718314 2.44449 90 111 86
-0.5332 -0.708124 2.42314 75 114 92
-0.482842 -0.709105 2.4246 97 141 118
-0.661618 -0.708688 2.44226 87 129 104
-0.640608 -0.7101 2.43612 77 125 99
-0.478165 -0.700779 2.41873 100 163 131
0.616007 -0.662753 2.28181 88 122 115
-0.795707 -0.711669 2.46807 111 160 140
-0.167526 -0.679667 2.37152 69 129 111
-1.43559 -0.729976 2.56666 125 178 164
0.416183 -0.647723 2.30549 71 113 95
0.662687 -0.631282 2.28162 78 117 96
-0.426621 -0.645188 2.40845 97 131 114
0.612021 -0.614019 2.28434 255 255 255
0.452677 -0.609491 2.3036 121 182 156
0.563372 -0.605169 2.29413 95 153 135
0.738433 -0.601302 2.27893 253 255 255
0.691236 -0.58586 2.27956 255 255 255
-0.431367 -0.598206 2.40747 70 102 78
-0.404867 -0.578667 2.4043 97 145 119
0.640668 -0.548015 2.27597 116 122 151
-0.668047 -0.585496 2.43595 62 99 65
0.320343 -0.543513 2.31609 81 126 107
0.42384 -0.538951 2.30617 75 99 91
0.841386 -0.523702 2.27578 69 93 91
0.636494 -0.494405 2.2755 127 140 154
-0.285929 -0.508875 2.39195 73 92 83
0.447357 -0.493049 2.30865 89 92 107
0.588579 -0.480448 2.28878 73 97 85
-0.235176 -0.496131 2.38611 108 157 129
0.659471 -0.468509 2.27481 122 119 144
0.402414 -0.472663 2.31375 78 80 88
0.438681 -0.465619 2.30674 253 253 253
0.406695 -0.461941 2.3094 65 67 67
0.568968 -0.452878 2.29284 74 71 80
0.68268 -0.442041 2.27111 121 127 146
-0.321574 -0.458618 2.40226 79 134 107
0.37516 -0.44108 2.31864 97 123 130
0.506541 -0.428199 2.29334 63 69 64
0.448049 -0.422625 2.29718 71 76 79
-0.273455 -0.429593 2.39333 63 118 91
0.533228 -0.402692 2.28114 155 205 181
-0.273716 -0.420571 2.39223 56 117 89
-0.263191 -0.411348 2.38946 72 129 108
-0.373465 -0.409943 2.40727 31 76 43
-0.28398 -0.409276 2.40005 89 132 117
0.467365 -0.389328 2.29349 168 231 199
-0.708413 -0.409379 2.461 99 143 130
0.673599 -0.381608 2.28057 80 72 73
-0.405756 -0.401374 2.41677 94 152 124
-0.58556 -0.398515 2.43897 82 134 116
-0.017956 -0.383699 2.36614 94 156 140
0.486032 -0.345524 2.30423 61 75 73
-0.143425 -0.35591 2.3839 76 134 110
0.71931 -0.330094 2.28747 211 232 229
-0.222733 -0.336497 2.39159 75 140 114
-0.145584 -0.302559 2.38808 71 132 104
-0.0505215 -0.298564 2.37471 118 175 172
0.0787217 -0.263757 2.37702 138 198 174
-1.24222 -0.264533 2.56112 92 139 123
0.56173 -0.230698 2.31374 52 62 62
0.467623 -0.215809 2.33447 247 255 255
0.568987 -0.213002 2.33458 115 112 121
0.490806 -0.206883 2.33371 250 252 252
-0.584723 -0.20212 2.459 83 132 118
0.142495 -0.183494 2.36272 46 82 65
-0.517001 -0.184273 2.44694 66 126 92
0.103602 -0.173576 2.36945 114 150 106
-0.535285 -0.175027 2.45847 67 108 77
-0.790602 -0.166026 2.49659 253 255 255
-0.649792 -0.165104 2.47113 76 135 120
-0.622772 -0.159372 2.46878 86 138 114
0.0414825 -0.14513 2.39289 51 82 45
0.0791098 -0.125493 2.38557 59 85 72
-0.65776 -0.131741 2.46927 88 154 125
0.560856 -0.0955928 2.3502 94 155 135
0.203669 -0.0962833 2.36897 149 205 184
0.200746 -0.0299307 2.38482 136 188 178
0.214403 -0.01769 2.38948 131 196 175
-0.389502 -0.00604425 2.4546 248 255 255
0.309275 0.0137088 2.3805 114 140 122
0.23545 0.046129 2.38905 128 154 141
0.0377317 0.0707469 2.41965 64 84 65
0.0486054 0.0765263 2.41408 123 180 165
0.0304171 0.0876279 2.42231 71 120 106
0.0845768 0.0944019 2.41473 88 136 124
0.184703 0.10561 2.39027 76 111 97
0.598665 0.119224 2.37663 115 164 148
0.598569 0.166255 2.37841 63 102 86
-0.474256 0.245524 2.50135 87 120 106
-0.206096 0.264114 2.46181 88 152 110
0.401154 -0.946155 2.30964 83 159 125
0.88082 -0.929371 2.26317 73 98 84
0.391302 -0.930179 2.30703 95 159 123
-0.170057 -0.93647 2.3729 90 153 137
-0.167766 -0.936319 2.37966 79 144 123
-0.322813 -0.93995 2.39779 55 89 82
-0.334062 -0.935111 2.40143 107 134 130
0.719254 -0.870719 2.26947 87 131 108
0.738242 -0.788405 2.2686 50 73 45
-1.07831 -0.820324 2.51398 69 104 90
-1.05742 -0.802928 2.5093 83 107 99
-0.301466 -0.741948 2.38611 93 158 119
-0.59282 -0.729687 2.43464 67 89 71
-1.03811 -0.744468 2.49321 56 92 56
0.618314 -0.680658 2.27903 69 88 73
-1.11015 -0.738047 2.51021 71 94 72
0.61933 -0.669756 2.28698 142 202 168
-1.06945 -0.731149 2.50629 66 98 74
-0.532777 -0.708268 2.42196 75 114 92
0.657988 -0.628412 2.27424 87 132 113
0.423837 -0.629673 2.30356 111 175 153
0.543192 -0.603067 2.29347 212 237 233
0.543132 -0.603132 2.2931 212 237 233
-0.629992 -0.637007 2.43428 53 68 47
-0.254465 -0.61152 2.38226 92 126 95
-0.229956 -0.607753 2.37647 104 146 115
-0.670607 -0.584035 2.44261 53 98 72
-0.404632 -0.578811 2.40348 97 145 119
0.538558 -0.52674 2.29943 138 150 150
0.622885 -0.518923 2.27465 134 120 132
-1.37798 -0.570645 2.55782 118 182 153
0.624241 -0.494523 2.28038 120 130 147
0.685083 -0.496245 2.27918 54 50 75
