ply
format ascii 1.0
element vertex 1253
property float x
property float y
property float z
property uchar blue
property uchar green
property uchar red
end_header
-0.180109 -0.368382 3.33568 209 241 236
0.656556 -0.349349 3.18749 247 254 251
-1.08169 -0.384236 3.53718 218 253 243
1.48389 -0.302462 3.01592 101 153 135
-0.574411 -0.338521 3.41919 78 157 148
-0.184237 -0.310796 3.34156 225 245 226
-0.118158 -0.30956 3.33575 179 236 228
-0.206009 -0.301104 3.34716 181 243 219
-1.25521 -0.315177 3.57258 169 230 232
-0.187564 -0.290051 3.34247 238 254 253
-0.597029 -0.283032 3.43825 143 211 200
1.36842 -0.243261 3.03301 70 132 108
-0.416224 -0.26079 3.38491 248 255 252
-0.606899 -0.247887 3.44437 185 232 230
1.0332 -0.211578 3.11392 144 216 203
-0.202317 -0.215041 3.33394 109 182 166
-0.634602 -0.215153 3.45078 117 172 169
-0.257521 -0.197971 3.3396 73 156 124
-0.215794 -0.185745 3.32394 135 192 183
-0.302781 -0.177142 3.35169 226 251 255
0.105751 -0.161191 3.28932 95 169 143
-0.684493 -0.167036 3.46549 64 125 135
0.562006 -0.148931 3.21709 68 136 125
-1.30106 -0.148847 3.60496 220 246 240
1.21315 -0.118096 3.07523 210 231 232
-0.413751 -0.113337 3.37517 83 178 134
-0.466112 -0.108529 3.39214 81 125 108
-0.422641 -0.0893219 3.37542 69 163 108
-0.476446 -0.0865069 3.39683 139 225 177
-0.426472 -0.0737375 3.37549 61 140 99
1.45521 -0.056542 3.03346 132 152 169
-0.407473 -0.0359115 3.37891 64 116 106
-0.424885 -0.0344348 3.38426 183 223 228
-0.416859 -0.0294146 3.37686 145 200 183
-0.392286 -0.0288785 3.38174 79 138 117
-0.419445 -0.0265145 3.38683 129 163 156
-0.43677 -0.021681 3.38556 185 213 207
-0.414089 -0.0179268 3.38878 74 96 84
-0.509364 0.0086661 3.41538 143 172 169
-0.741456 0.015999 3.49999 85 162 159
-0.648879 0.0217239 3.47315 67 124 103
0.748959 0.0198137 3.16994 190 240 228
0.786608 0.019541 3.16496 157 213 202
0.592353 0.022611 3.20892 222 244 255
0.211022 0.0426763 3.2862 236 255 253
0.658154 0.0422637 3.1855 69 147 123
-0.638512 0.0912957 3.47907 250 255 254
-0.519201 0.0925893 3.42363 171 226 199
-0.011788 0.090622 3.3116 110 105 107
-0.536022 0.0998831 3.4419 85 120 116
-0.582515 0.103588 3.46093 153 212 214
-0.535496 0.118579 3.43756 179 223 230
-0.379445 0.129786 3.39097 152 170 187
0.461319 0.126055 3.23781 220 251 248
-0.527382 0.148887 3.442 65 111 99
-0.614001 0.159983 3.47829 165 233 240
-0.651271 0.191945 3.49363 201 243 236
-0.580014 0.194474 3.47015 227 255 247
-0.531614 0.194111 3.45 87 119 125
-0.518654 0.203373 3.44318 89 116 112
-0.554381 0.228912 3.46257 106 154 160
-0.374635 0.266124 3.40837 189 198 202
-0.778402 0.277027 3.5322 230 255 254
-0.519388 0.303125 3.45076 137 201 179
0.263272 0.293415 3.28303 230 254 246
0.230926 0.330416 3.29219 79 143 147
-0.640095 0.357333 3.51016 250 255 254
-0.643752 0.363881 3.49822 187 208 199
-0.715162 0.369787 3.52397 82 158 126
0.044615 0.355745 3.31547 152 189 193
0.344923 0.359808 3.28111 102 140 140
0.0948142 0.369023 3.31481 209 249 238
0.497582 0.379289 3.24759 225 253 240
0.132407 0.394073 3.3066 197 250 240
-0.513839 0.425393 3.4557 90 139 107
-0.354743 0.409085 3.28233 91 108 111
0.698669 0.436527 3.17918 77 129 106
0.217733 0.455554 3.2935 99 169 163
0.0687485 0.463428 3.31931 209 249 231
0.305601 0.496372 3.28603 138 197 177
0.55259 0.514816 3.23075 83 144 118
-0.518605 0.602212 3.48202 117 176 156
0.230714 0.672819 3.29878 247 255 254
-0.60686 1.01297 4.15551 51 119 88
0.142187 -1.43236 3.19871 88 152 130
0.297357 -1.41167 3.17663 160 219 205
0.618606 -1.39315 3.14425 71 153 135
0.392288 -1.3662 3.16645 182 229 226
0.393271 -1.36618 3.166 176 227 220
0.614938 -1.35883 3.14507 189 245 232
-0.11298 -1.36946 3.23582 89 163 139
-0.0802443 -1.35991 3.23448 178 232 219
0.0932543 -1.344 3.21683 184 231 209
0.631491 -1.29402 3.14385 76 121 105
0.525284 -1.27735 3.15612 100 134 164
0.0565737 -1.28338 3.22742 228 253 239
1.76594 -1.15483 2.95772 201 230 214
0.174718 -1.25515 3.21443 197 238 231
0.932843 -1.19678 3.10908 74 137 121
0.628756 -1.21222 3.15393 177 239 221
1.77097 -1.12942 2.95741 94 102 115
0.37546 -1.21467 3.18901 198 228 217
1.08517 -1.16816 3.06789 77 111 140
0.202011 -1.21826 3.21686 112 144 139
0.637312 -1.17993 3.1508 88 145 124
0.142719 -1.19819 3.22322 87 147 136
1.76316 -1.09673 2.96237 203 218 210
1.70639 -1.10077 2.98016 148 203 184
0.206616 -1.18024 3.21953 82 133 119
0.654342 -1.15516 3.1551 71 136 115
0.179662 -1.16198 3.22701 251 255 254
0.200512 -1.15915 3.22066 85 128 107
0.363881 -1.1323 3.18474 191 251 243
1.42348 -1.06996 3.01807 166 215 199
1.42424 -1.07003 3.02302 179 218 203
0.512704 -1.11442 3.16962 166 228 214
0.512435 -1.11454 3.17353 179 240 220
1.01688 -1.08343 3.09773 98 154 155
0.530618 -1.10628 3.1724 196 237 229
0.633464 -1.08951 3.16196 203 254 240
-0.904385 -1.16168 3.38866 136 187 183
1.78231 -1.01129 2.958 158 181 203
0.0417786 -1.09645 3.23206 114 141 151
-0.933197 -1.14805 3.38649 96 139 124
0.332121 -1.08019 3.20624 181 219 207
-0.943671 -1.12751 3.38736 75 108 101
0.154929 -1.07419 3.22923 212 236 228
-0.93307 -1.12729 3.39547 143 199 186
1.07408 -1.02242 3.0858 82 127 148
1.76539 -0.980914 2.97514 138 181 178
0.693209 -1.03733 3.15159 194 240 228
0.235599 -1.05358 3.21933 209 248 233
-0.25855 -1.02687 3.17044 253 255 255
-0.202688 -1.01799 3.1522 113 125 135
0.987243 -0.987083 3.11066 79 138 123
0.355353 -1.01091 3.2024 191 255 249
0.966424 -0.974794 3.11166 179 231 224
-0.0781218 -0.978449 3.13432 108 120 132
-0.0719233 -0.979268 3.13872 217 243 250
1.77585 -0.925235 2.97069 43 72 63
-0.274184 -0.987303 3.1799 251 255 255
0.669605 -0.95458 3.15929 148 217 206
1.78492 -0.891579 2.98164 62 78 77
1.7737 -0.870698 2.95747 78 75 107
1.19824 -0.898293 3.06713 93 154 150
0.0820662 -0.935999 3.24936 103 151 155
0.14248 -0.926801 3.23321 115 164 142
0.668518 -0.898214 3.15988 193 233 222
1.76136 -0.84224 2.97475 114 162 138
-0.352822 -0.882079 3.18958 191 222 225
-0.949419 -0.941139 3.42605 116 137 134
-1.06016 -0.938805 3.44111 139 209 179
0.10236 -0.880336 3.25204 89 146 143
0.111425 -0.880858 3.24845 129 185 172
-0.0868919 -0.851323 3.14692 174 215 240
0.461127 -0.860664 3.18679 104 132 143
0.631946 -0.856994 3.16907 76 129 120
0.48045 -0.859158 3.18687 202 232 249
0.221937 -0.868617 3.2277 94 96 76
0.488589 -0.85787 3.18705 68 115 137
0.51767 -0.855312 3.17966 117 145 156
1.73989 -0.801403 2.98138 63 92 77
0.461923 -0.848193 3.18693 98 109 147
-0.646109 -0.898466 3.37696 88 121 100
0.184234 -0.856267 3.23166 166 223 224
0.944358 -0.81936 3.123 84 164 141
0.528541 -0.828454 3.17043 173 205 228
0.496721 -0.828523 3.17025 85 133 135
0.0802476 -0.842852 3.25362 132 192 192
0.512811 -0.822913 3.17697 112 149 177
-0.934155 -0.884977 3.4324 117 160 145
0.0585211 -0.839289 3.25591 74 149 133
0.494604 -0.818732 3.18057 150 196 214
-0.956893 -0.878434 3.43693 110 153 138
0.649612 -0.808598 3.16609 80 148 125
-0.293674 -0.81183 3.19703 245 253 252
0.516465 -0.803058 3.17757 179 216 254
-0.954072 -0.864901 3.43855 95 129 112
0.996588 -0.781947 3.11186 77 143 118
0.581109 -0.794823 3.17516 76 128 121
0.234962 -0.802483 3.22544 117 144 134
-0.497552 -0.833517 3.34992 117 141 141
0.0677807 -0.809986 3.25839 77 160 145
0.106048 -0.798415 3.21896 78 147 110
-0.502852 -0.830377 3.35208 109 137 131
-1.36581 -0.874033 3.53002 91 159 136
0.231277 -0.797769 3.23378 85 116 109
0.444531 -0.783779 3.17982 115 186 159
-0.925052 -0.83749 3.41971 110 142 137
0.294071 -0.780414 3.18262 199 214 217
0.477406 -0.780051 3.17772 241 255 255
0.546663 -0.764539 3.14908 143 189 160
1.779 -0.718732 2.95329 144 191 183
0.558583 -0.766639 3.15437 66 94 88
0.527876 -0.771452 3.18832 107 116 125
0.402081 -0.764118 3.17709 250 255 255
0.523682 -0.766945 3.1899 160 201 203
0.153877 -0.771061 3.21356 139 209 173
0.565219 -0.758404 3.15633 188 229 222
0.082957 -0.778576 3.25259 123 184 174
0.976243 -0.739178 3.1171 75 131 110
0.447948 -0.753548 3.18376 83 111 112
0.518281 -0.752477 3.19048 82 112 177
0.0838632 -0.766871 3.25966 134 187 197
-1.1178 -0.815834 3.48234 87 123 107
-1.06484 -0.809756 3.45832 101 132 99
-0.488462 -0.782417 3.34746 109 162 152
1.77456 -0.694055 2.97452 110 176 135
1.7761 -0.692904 2.96487 117 164 142
0.321773 -0.742654 3.19816 158 168 175
0.413625 -0.741605 3.2036 161 188 202
0.295123 -0.739438 3.20575 179 184 183
-1.02197 -0.797392 3.4643 144 199 196
0.149781 -0.742625 3.23943 45 106 72
0.417415 -0.733539 3.19327 162 198 198
1.7609 -0.683704 2.98007 148 200 170
-1.01719 -0.791967 3.46642 107 149 148
0.495919 -0.729798 3.19103 80 125 158
1.76985 -0.677014 2.96373 117 189 142
-1.08963 -0.79329 3.4721 68 102 95
0.530423 -0.727502 3.18844 70 117 109
0.365413 -0.728686 3.20176 233 254 255
-0.0711045 -0.735793 3.24595 36 96 62
0.327948 -0.726278 3.209 129 139 169
0.316577 -0.725209 3.217 144 170 184
-0.0360365 -0.726387 3.23672 102 175 129
0.109651 -0.7296 3.25713 111 153 128
-0.996807 -0.77331 3.46055 179 220 222
0.289778 -0.7175 3.21848 197 227 238
-1.089 -0.77067 3.48402 105 140 143
-1.01355 -0.767855 3.47528 130 191 157
-0.0259223 -0.718805 3.24281 32 79 41
-0.141321 -0.725106 3.28839 97 140 119
0.114511 -0.718436 3.25548 130 192 176
0.33648 -0.708004 3.21763 196 218 230
-1.41033 -0.780618 3.55509 85 152 125
0.321196 -0.70466 3.22178 172 200 217
-0.0857889 -0.70818 3.25757 136 211 173
-0.499466 -0.725818 3.36187 97 147 135
-1.05756 -0.746844 3.48415 72 134 118
1.05833 -0.658789 3.09764 47 104 83
-0.656231 -0.719398 3.40024 95 143 114
-0.489762 -0.712735 3.36284 43 71 58
0.34843 -0.679295 3.21921 147 191 198
-0.485161 -0.706329 3.3635 98 153 136
0.320742 -0.678355 3.22452 144 194 194
1.30724 -0.639897 3.05205 178 243 227
0.0031624 -0.677156 3.2724 72 121 113
-0.143796 -0.680529 3.29654 77 112 92
0.359358 -0.663685 3.22013 220 250 251
0.0132086 -0.669059 3.26822 95 161 166
-1.71607 -0.729799 3.6087 89 142 133
-0.153584 -0.670202 3.31018 102 136 129
-1.53884 -0.723413 3.58499 95 165 134
0.134124 -0.654849 3.25881 75 150 122
-0.769641 -0.687451 3.4266 152 218 217
-0.808606 -0.685032 3.43896 142 187 208
-0.341186 -0.667597 3.34189 144 223 204
-0.244526 -0.661782 3.31966 48 102 85
0.990934 -0.620843 3.11355 58 136 119
-0.68043 -0.678213 3.41649 139 202 182
-1.12506 -0.692217 3.50613 100 161 141
1.78872 -0.581201 2.96037 126 144 161
-0.232704 -0.651317 3.32523 33 79 80
-1.11114 -0.681286 3.50556 73 139 114
-0.359881 -0.651423 3.34408 93 149 136
-0.741972 -0.663225 3.42736 187 223 229
-0.703754 -0.659116 3.41929 119 174 159
1.05214 -0.594554 3.10074 80 136 113
-0.154939 -0.632532 3.30594 116 166 156
-0.548327 -0.644688 3.39092 186 235 219
-0.342425 -0.635629 3.34445 166 231 246
0.216746 -0.61692 3.25353 159 208 216
-1.0814 -0.659076 3.50279 161 216 225
-1.00854 -0.654758 3.48523 77 122 106
-0.397667 -0.629263 3.35738 242 254 255
-2.11169 -0.684716 3.68541 86 138 120
-0.115835 -0.609764 3.28764 61 74 52
-0.638161 -0.630349 3.40885 255 255 254
-0.639389 -0.629397 3.40844 251 254 252
1.76513 -0.547062 2.97191 88 132 109
-0.540403 -0.622984 3.39221 75 146 130
-1.07969 -0.642588 3.50671 186 241 238
-0.96713 -0.63658 3.47977 84 140 121
-0.371894 -0.60449 3.35809 204 237 233
-0.353775 -0.601165 3.35024 79 140 120
-0.74529 -0.615746 3.43427 48 75 85
-0.471558 -0.603252 3.38067 191 232 225
-2.16463 -0.658791 3.69892 134 229 208
-1.03851 -0.615178 3.49831 89 158 138
-0.815717 -0.59982 3.4501 190 231 233
1.76407 -0.51731 2.97418 123 184 150
1.77269 -0.511747 2.97258 51 64 50
0.263425 -0.545705 3.2477 190 236 230
1.71578 -0.501391 2.98627 175 234 214
-0.893503 -0.580336 3.47946 74 139 123
-0.280327 -0.552482 3.3421 89 153 124
-0.142985 -0.546512 3.31722 68 137 122
-1.75113 -0.596508 3.62795 95 152 137
-0.442961 -0.552412 3.37395 102 156 143
-0.41216 -0.55407 3.37442 239 255 255
-0.400186 -0.550512 3.365 100 144 145
-0.707588 -0.554993 3.42548 102 154 161
-1.12925 -0.565582 3.52713 87 157 140
-0.801165 -0.548204 3.44806 110 165 186
0.489557 -0.503765 3.21184 203 235 230
0.0353867 -0.512214 3.28937 186 236 226
-0.667316 -0.531427 3.41988 86 164 153
-0.763517 -0.532227 3.44356 49 150 118
-0.297163 -0.514711 3.34874 217 247 242
0.148613 -0.505296 3.28355 208 239 248
1.56764 -0.459123 3.01201 74 140 111
0.153475 -0.497276 3.27515 101 136 140
-0.145953 -0.502248 3.32276 114 150 134
1.79195 -0.448264 2.95701 160 196 214
-0.0639029 -0.494057 3.30504 71 115 116
-1.09518 -0.523825 3.52441 117 175 170
1.2925 -0.447603 3.0494 253 255 255
-0.205466 -0.487417 3.33461 207 241 230
1.70853 -0.433547 2.98748 69 97 84
1.28125 -0.441325 3.05965 252 254 254
-0.502217 -0.486798 3.39483 81 146 137
-0.394581 -0.484013 3.37167 88 144 133
-0.921391 -0.498445 3.48711 111 165 148
0.0791334 -0.469029 3.2781 218 247 238
0.402915 -0.461397 3.22972 52 118 106
1.62057 -0.428501 3.00043 91 150 119
-1.35672 -0.50935 3.57684 173 230 221
-1.28361 -0.499624 3.55311 131 180 188
-0.170187 -0.467738 3.3228 165 225 224
-1.79667 -0.51302 3.65577 71 140 107
-0.741791 -0.482867 3.44909 204 246 239
-0.0305368 -0.458624 3.30236 138 227 188
-0.242467 -0.461615 3.34069 204 248 247
-1.32172 -0.482887 3.57072 75 140 114
0.624912 -0.429188 3.18778 87 139 146
-0.256205 -0.445706 3.34589 81 130 122
-1.31288 -0.4702 3.5722 81 157 133
-0.366893 -0.442368 3.3692 108 132 108
1.5662 -0.393925 3.00637 231 255 245
0.614487 -0.417222 3.1922 115 162 184
1.46211 -0.395563 3.02685 191 237 225
1.53016 -0.394055 3.01367 170 229 215
0.467298 -0.416281 3.21461 82 147 126
-1.26508 -0.460499 3.55879 73 144 124
-0.0342918 -0.427339 3.30521 143 221 184
-0.524528 -0.439591 3.39423 74 128 128
-0.235299 -0.430126 3.34035 137 191 184
-1.09542 -0.451651 3.53585 223 244 246
-0.768073 -0.444209 3.45877 91 156 164
-1.25232 -0.450923 3.55958 86 143 140
-0.692871 -0.430986 3.43912 118 168 166
-0.686037 -0.428871 3.43998 242 255 250
-0.381986 -0.421685 3.3778 75 133 115
-0.231816 -0.417264 3.34203 137 210 178
-1.57467 -0.44777 3.62689 83 150 123
-0.559483 -0.416948 3.41492 235 255 255
0.0168139 -0.399912 3.30212 72 155 133
0.65111 -0.387177 3.18361 85 144 136
0.235396 -0.39284 3.26542 161 228 213
-0.149924 -0.394842 3.33033 251 255 255
1.54034 -0.355132 3.00399 104 150 131
-0.130814 -0.3926 3.32525 87 147 141
1.526 -0.350702 3.00938 82 120 102
-0.896593 -0.401996 3.49713 74 153 132
-0.607384 -0.394888 3.43455 118 140 175
1.52035 -0.34582 3.01329 151 206 191
-2.04682 -0.424167 3.71777 81 143 121
1.24465 -0.34954 3.06253 71 127 114
-0.183969 -0.376361 3.33482 224 245 246
1.48546 -0.340828 3.017 171 224 215
-0.836288 -0.389939 3.48229 81 148 133
0.835102 -0.349013 3.14313 174 230 225
-1.41228 -0.39676 3.6026 71 130 102
-1.10038 -0.391467 3.54 89 160 144
-0.803367 -0.383537 3.47682 83 132 124
-0.725152 -0.379207 3.45766 72 163 148
-0.585122 -0.376088 3.4194 107 179 157
-0.640856 -0.370976 3.43555 78 132 125
-0.274727 -0.352309 3.35225 215 240 244
-0.377377 -0.353015 3.38108 79 168 142
1.5208 -0.314602 3.01131 106 103 82
-0.623008 -0.358159 3.43526 164 230 211
-1.18945 -0.366386 3.5504 87 145 140
0.0448777 -0.339697 3.30004 216 249 245
-1.2665 -0.366385 3.56971 70 134 122
-0.356698 -0.345193 3.36793 76 130 125
-0.509837 -0.344155 3.40651 77 162 134
-0.193356 -0.337599 3.34112 88 143 128
-0.136708 -0.337796 3.33567 222 249 246
-0.367963 -0.338545 3.37475 76 137 141
-0.129598 -0.334419 3.3315 228 249 251
-0.575497 -0.33864 3.42187 71 149 142
-0.11138 -0.330599 3.32744 175 223 235
-1.10684 -0.345527 3.5485 66 118 130
-0.13974 -0.312413 3.33793 255 254 255
-0.161696 -0.310086 3.34321 253 255 255
-0.615545 -0.316287 3.44422 87 151 175
0.59909 -0.294569 3.20274 213 246 242
-1.21909 -0.325454 3.56809 96 151 164
-0.163781 -0.303352 3.34016 108 169 149
-1.2588 -0.322576 3.57494 93 142 140
-1.26247 -0.312669 3.58595 236 249 251
-0.18628 -0.29145 3.34106 243 255 255
-1.25131 -0.308596 3.58134 103 145 138
1.3786 -0.259783 3.03303 95 155 137
-0.742617 -0.292388 3.476 86 148 134
-0.562783 -0.285128 3.41826 151 222 206
-0.607565 -0.285794 3.43959 68 135 106
-0.116109 -0.276405 3.33187 98 167 156
-0.401823 -0.269157 3.38511 50 103 90
-0.388503 -0.266339 3.38947 147 224 196
-0.663475 -0.267206 3.45993 205 255 255
-1.13513 -0.270428 3.55724 91 155 159
-1.13494 -0.269361 3.5627 95 167 167
-0.541682 -0.257439 3.42141 86 137 123
-0.507924 -0.249907 3.40763 85 126 129
-0.606514 -0.248211 3.44289 185 232 230
-0.651965 -0.237464 3.4594 96 156 148
-0.682485 -0.234782 3.46592 184 230 224
-0.258648 -0.227652 3.34672 92 158 133
1.03314 -0.211657 3.11361 144 216 203
1.03665 -0.206272 3.11132 78 145 124
1.49163 -0.20119 3.00688 141 203 185
-0.233779 -0.218367 3.34311 113 176 167
-0.393727 -0.218253 3.37344 93 165 145
-0.118763 -0.211242 3.33158 255 254 254
-0.663593 -0.210295 3.4593 111 158 156
1.55955 -0.182369 2.99407 85 129 93
-0.341453 -0.193236 3.35543 194 242 236
-0.265534 -0.191005 3.33871 63 134 101
-0.560973 -0.194842 3.43074 75 139 134
0.139758 -0.187279 3.2848 236 250 248
-0.216236 -0.185987 3.32781 135 192 183
0.0103026 -0.182108 3.29352 241 255 254
-0.302323 -0.176623 3.35289 242 254 255
0.791717 -0.160039 3.16394 171 231 213
-1.39559 -0.175258 3.62891 250 255 255
0.0332259 -0.150861 3.29412 169 203 219
-0.452161 -0.154084 3.39477 75 132 123
0.121619 -0.14424 3.28713 73 145 125
0.0418846 -0.128291 3.28931 226 255 255
1.45952 -0.0935642 3.02824 119 148 139
-0.442771 -0.0894088 3.37943 59 120 94
-0.422521 -0.0894336 3.37501 69 163 108
0.080228 -0.0843207 3.28927 110 172 154
-0.47481 -0.0858537 3.39814 146 233 183
-0.536434 -0.0858245 3.42074 101 141 159
-0.477265 -0.085789 3.39945 152 237 185
-1.29655 -0.0778295 3.60215 89 144 147
-0.0113423 -0.0600166 3.17101 117 142 162
1.45444 -0.0564448 3.03207 145 172 186
-0.465969 -0.0624252 3.3887 81 168 118
-0.562295 -0.0598841 3.44437 83 112 116
-0.516408 -0.0559585 3.41981 57 118 90
0.677835 -0.0499588 3.19035 183 224 247
-0.503934 -0.0487207 3.39935 77 134 95
0.121707 -0.0404693 3.28999 252 254 254
-0.547658 -0.035262 3.44229 93 151 133
-0.4773 -0.0277298 3.39474 83 129 106
-0.395067 -0.0296951 3.37824 95 155 131
-0.447745 -0.0149395 3.39057 137 184 158
0.0871662 -0.0144524 3.28959 255 255 255
-0.514322 -0.00883826 3.41387 71 136 114
-0.458546 -0.00959987 3.39636 75 90 86
-0.46201 -0.00266153 3.39515 139 161 166
-0.413493 -0.00304225 3.38381 113 140 120
0.749293 -0.00359243 3.16981 192 226 220
-0.570519 -0.00156065 3.44752 71 119 121
1.46432 -0.00146156 3.02718 124 135 149
-0.380379 -9.59187e-05 3.38471 215 233 234
-0.511067 0.00625739 3.42071 159 213 224
-1.31876 0.01332 3.62127 84 139 122
0.582284 0.0112732 3.21164 202 237 250
1.24672 0.0147218 3.07471 169 213 207
-0.648856 0.0220235 3.47418 84 135 115
0.579373 0.0244444 3.21177 206 235 240
-1.21751 0.0297501 3.59723 111 179 162
0.180544 0.0272141 3.28928 96 167 150
-0.589024 0.0321141 3.45807 78 129 122
-1.23394 0.0343574 3.60306 83 145 129
0.653131 0.0315816 3.19055 213 248 244
-0.51201 0.0373054 3.4197 125 160 156
-0.524064 0.0409188 3.42625 102 146 147
-0.69158 0.0422683 3.49296 88 145 142
-0.525394 0.0412659 3.4273 84 130 131
0.211832 0.0424006 3.28347 241 255 253
0.581499 0.0408306 3.21952 77 130 117
-0.930131 0.0487195 3.54569 84 147 131
0.657872 0.0422755 3.18551 69 147 123
-0.521881 0.0605609 3.43167 74 101 105
-0.511184 0.0657534 3.42446 145 182 186
0.18114 0.0635591 3.28927 81 141 130
0.042991 0.0723695 3.30243 122 168 176
-1.20471 0.089689 3.6073 228 253 255
0.635906 0.08993 3.19835 76 138 116
-0.376747 0.104036 3.39208 128 150 162
1.52131 0.0901384 3.01745 141 175 198
-0.57025 0.110599 3.45459 81 125 118
0.727074 0.104009 3.17247 145 221 197
-0.628253 0.120442 3.48038 75 137 119
-0.535509 0.118901 3.43857 180 224 231
0.0692986 0.114227 3.30326 219 252 248
0.715919 0.111018 3.17318 165 216 218
1.51997 0.103674 3.0187 99 135 181
-0.555036 0.121744 3.45487 81 136 133
-0.573343 0.126628 3.4582 80 143 133
-0.528036 0.123662 3.43309 46 94 70
-1.90491 0.147539 3.76421 92 169 142
-0.518394 0.133917 3.43076 130 186 163
-0.380837 0.133089 3.40087 216 230 228
-0.584663 0.157013 3.46404 49 128 95
-0.516717 0.167265 3.43455 123 189 177
1.61359 0.146093 2.99547 117 181 162
0.63231 0.157975 3.19985 77 160 121
0.0438189 0.165908 3.30478 194 213 220
-0.635018 0.18343 3.49208 94 155 145
-1.00843 0.189641 3.57616 88 155 134
0.726406 0.170912 3.17711 77 151 123
0.0523662 0.181528 3.31479 132 179 170
-0.518747 0.195303 3.43838 177 194 191
-0.935 0.211991 3.56063 82 152 116
-1.13335 0.225982 3.59826 99 155 144
-0.867306 0.225786 3.54905 254 254 254
-0.535309 0.225051 3.46225 146 203 200
-1.9401 0.248453 3.78013 103 166 146
-0.619368 0.235961 3.49083 91 154 144
0.0559615 0.22325 3.29613 179 226 224
-0.369071 0.235429 3.4036 143 166 182
-0.708712 0.249319 3.52076 255 254 255
0.70989 0.227487 3.17997 97 171 145
0.0385342 0.238358 3.30646 185 200 209
0.63572 0.231177 3.19945 71 142 122
-0.583728 0.253803 3.47746 128 179 175
0.0610142 0.248721 3.3093 239 255 255
-0.943352 0.274336 3.57082 207 235 229
-0.588257 0.266757 3.47628 122 151 148
0.688537 0.247123 3.18446 56 135 102
-1.02416 0.278856 3.58337 200 243 246
0.259558 0.258663 3.28037 103 176 150
0.212857 0.263522 3.28612 241 255 255
-1.11867 0.290808 3.5987 84 165 126
0.253922 0.266054 3.28375 90 165 143
-0.676558 0.289182 3.51435 242 255 253
-0.671167 0.289767 3.51098 254 254 254
-0.519123 0.285561 3.45548 103 127 125
-0.358695 0.274813 3.26855 90 102 102
0.118422 0.286663 3.304 98 154 141
0.549713 0.278845 3.21401 73 126 86
0.260187 0.28575 3.27893 96 166 149
-0.697226 0.308268 3.51304 252 254 254
0.22423 0.290831 3.28861 94 160 149
0.26397 0.293878 3.28424 235 255 250
-0.597483 0.317445 3.48911 253 255 254
-0.52589 0.323721 3.46841 83 114 105
-0.142019 0.309091 3.22869 161 203 255
-0.754497 0.337414 3.5292 92 161 141
0.05496 0.325607 3.31992 100 179 165
-0.373483 0.337943 3.41831 125 125 125
-0.574358 0.348267 3.48533 229 249 244
0.0922521 0.334274 3.3079 96 166 159
1.75523 0.299833 2.95 93 160 123
-0.649506 0.35987 3.50045 227 239 239
-0.372035 0.354167 3.41075 181 185 196
0.540046 0.336661 3.23608 136 201 175
-0.585768 0.366989 3.49196 237 255 255
0.362149 0.344637 3.27268 255 255 254
-0.56737 0.367783 3.48389 190 234 221
-0.525191 0.367402 3.47239 57 94 84
-0.608957 0.375914 3.49753 223 249 243
-0.740427 0.38721 3.53057 91 163 140
0.0786443 0.365227 3.31351 207 255 250
0.0959281 0.367102 3.31023 205 242 234
0.0426914 0.376483 3.31586 121 193 181
-0.648694 0.412991 3.51183 73 133 115
-0.521872 0.406006 3.46501 66 94 71
-0.377824 0.398417 3.40691 169 139 112
0.901373 0.373031 3.14553 217 255 233
0.0552011 0.396511 3.31985 84 155 128
0.13258 0.394459 3.30753 197 250 240
-0.630204 0.420743 3.50678 171 224 211
0.607293 0.312918 2.5566 49 98 82
-0.585683 0.428723 3.50094 251 255 255
0.228177 0.40594 3.29085 90 150 142
0.227586 0.412419 3.29014 157 225 208
-0.523045 0.437284 3.47357 50 81 48
0.045222 0.421836 3.32372 102 162 151
0.0469475 0.422368 3.32506 76 148 128
-0.37053 0.443187 3.41563 176 199 207
-0.721312 0.460998 3.52779 96 175 134
0.151105 0.436401 3.30347 206 246 251
-1.06626 0.478833 3.60923 66 150 122
-0.529623 0.464124 3.47271 164 215 201
0.245252 0.45519 3.28756 88 153 138
0.712938 0.439927 3.18101 192 226 220
0.0472643 0.462251 3.31938 162 224 210
0.0688361 0.463832 3.32023 197 239 221
0.705182 0.446307 3.18005 86 135 119
-0.491797 0.487708 3.43423 80 109 76
-0.458437 0.494717 3.44588 117 90 53
-0.00510172 0.488126 3.33899 76 85 98
1.75109 0.441399 2.94927 115 169 146
0.0361785 0.507479 3.33217 194 237 234
0.174305 0.520713 3.30361 66 117 97
0.269451 0.525806 3.29152 142 190 164
0.291235 0.530292 3.29182 127 190 181
-0.530123 0.56412 3.48402 70 132 108
0.0505914 0.542213 3.32596 108 170 158
-0.527442 0.569753 3.47398 115 187 165
0.720947 0.521917 3.17851 68 136 111
0.299008 0.556449 3.29165 81 148 139
0.29272 0.56219 3.29285 225 255 255
0.250705 0.580438 3.29332 76 141 125
-0.00268239 0.591222 3.33997 117 140 156
0.0762575 0.588126 3.32408 220 255 255
0.704362 0.56433 3.18094 89 165 147
0.0948942 0.595937 3.31835 159 239 216
0.0975773 0.601823 3.3128 95 166 149
0.0988993 0.605497 3.32046 101 177 159
0.156002 0.609399 3.31258 121 161 173
-0.554535 0.645305 3.49356 69 137 112
-0.731672 0.659072 3.54066 208 255 201
-0.493084 0.646446 3.45798 88 100 82
-0.512785 0.665014 3.47895 107 150 129
0.0534887 0.643295 3.33706 77 144 129
-0.712157 0.712213 3.5427 165 239 213
-0.505399 0.718195 3.47378 110 151 123
-0.507127 0.747643 3.47847 146 184 162
-0.364502 0.751656 3.43094 173 188 197
-0.616112 0.772486 3.51803 201 234 220
-0.503501 0.78676 3.4773 107 159 142
1.75769 -1.26615 2.98457 196 210 199
0.631168 -1.29387 3.14218 76 121 104
0.64378 -1.28887 3.14386 71 124 111
0.617579 -1.28504 3.14761 232 255 253
0.623074 -1.25981 3.1528 171 234 218
1.09596 -1.21064 3.07433 83 121 169
0.0435929 -1.24049 3.22845 84 141 126
1.74445 -1.13523 2.95792 151 192 154
1.7665 -1.12443 2.96156 67 100 103
0.196195 -1.21552 3.21331 91 141 131
1.75831 -1.0926 2.95171 206 219 211
1.76069 -1.09271 2.95449 202 216 210
-1.79275 -1.2968 3.5286 86 144 116
1.7679 -1.07914 2.95726 88 86 122
1.72075 -1.0768 2.97563 61 123 99
1.7593 -1.07136 2.96776 167 204 226
-1.75045 -1.25801 3.53085 94 158 139
1.42425 -1.07003 3.02305 179 218 203
1.04556 -1.08032 3.08633 72 106 99
0.530079 -1.10622 3.17093 204 245 238
1.76287 -1.03192 2.96396 182 224 231
0.632698 -1.0896 3.16199 197 254 239
0.925016 -1.06334 3.11686 74 118 105
0.030667 -1.10117 3.23589 254 253 255
0.0419433 -1.09648 3.23273 114 141 151
0.329491 -1.08141 3.19977 215 249 238
-0.252544 -1.01934 3.16989 118 127 141
1.39577 -0.959966 3.04097 89 140 126
1.7214 -0.935129 2.98298 178 226 202
0.645652 -0.987093 3.17275 75 157 128
-0.250827 -0.979764 3.17263 79 91 101
-1.09383 -1.05047 3.44009 255 255 254
1.78396 -0.891648 2.97982 67 86 83
-0.29426 -0.947431 3.17674 193 222 227
1.40204 -0.903915 3.033 58 103 106
1.78945 -0.873001 2.95605 188 218 247
1.78057 -0.874247 2.9794 48 61 69
0.536051 -0.914841 3.14988 94 141 138
0.539599 -0.903675 3.13784 246 255 255
0.551921 -0.894708 3.12924 94 86 93
0.288351 -0.893367 3.18328 104 122 133
0.280611 -0.885791 3.18285 242 255 255
0.114703 -0.897247 3.24723 164 219 228
0.00760902 -0.886011 3.26234 213 243 248
0.453011 -0.860701 3.18756 243 255 255
0.478165 -0.858088 3.18603 231 255 255
1.73993 -0.80088 2.97945 63 92 77
0.186288 -0.861995 3.21939 76 103 100
-0.022292 -0.869218 3.26768 90 85 84
0.0839761 -0.850777 3.24211 75 108 101
-0.811413 -0.890915 3.41392 89 136 110
-1.12225 -0.899821 3.46419 95 138 135
-0.909527 -0.890774 3.42819 101 125 101
0.0799733 -0.8352 3.25196 78 122 115
-0.956509 -0.878471 3.43598 110 153 138
0.166767 -0.818083 3.21148 157 229 207
0.516587 -0.810234 3.17492 177 209 244
-0.30418 -0.815213 3.20025 132 139 148
0.153548 -0.808007 3.21773 54 107 87
0.580276 -0.795549 3.17298 72 127 118
-0.938107 -0.859556 3.4418 118 146 127
0.424203 -0.789757 3.16329 216 241 243
0.292171 -0.791279 3.17687 139 141 142
-0.502543 -0.830422 3.3513 109 137 131
0.99957 -0.771347 3.11394 164 231 210
0.231264 -0.797792 3.23343 85 116 109
0.299856 -0.775321 3.18096 225 243 254
0.417842 -0.770534 3.16827 97 134 124
1.78173 -0.717945 2.96106 121 150 134
0.0825172 -0.782123 3.25576 118 185 176
0.450662 -0.761774 3.18067 64 107 92
-0.479476 -0.794552 3.35022 97 144 118
0.334884 -0.754693 3.18807 135 151 158
-1.14497 -0.823514 3.49067 85 155 138
0.596364 -0.750767 3.1805 251 255 255
0.0841784 -0.765246 3.25715 131 186 191
0.135214 -0.75092 3.21965 36 45 32
1.77392 -0.692984 2.96708 116 179 139
-1.06817 -0.809293 3.46635 103 134 103
-0.489442 -0.781774 3.35761 122 174 167
0.166788 -0.753183 3.24659 66 125 105
0.184114 -0.748979 3.22851 51 104 90
0.404138 -0.743362 3.20031 138 150 160
-1.10029 -0.801883 3.47255 140 193 180
-0.484195 -0.773641 3.35514 126 184 173
-0.044314 -0.74721 3.23721 20 89 44
-0.00820833 -0.740143 3.23211 98 168 121
-0.99317 -0.792336 3.4661 120 173 176
-0.974516 -0.792469 3.45501 117 170 161
0.078855 -0.74771 3.26086 71 141 128
-1.00617 -0.789953 3.46204 96 136 134
-0.488871 -0.765471 3.35106 106 158 141
-1.08677 -0.788871 3.48907 140 186 193
-0.98785 -0.78275 3.453 158 220 226
0.306468 -0.727771 3.21868 173 203 214
-0.588073 -0.760541 3.38043 95 137 119
-0.0989102 -0.729949 3.25106 129 205 157
-1.15774 -0.784915 3.50074 95 119 137
-0.516864 -0.753331 3.36245 132 189 188
-0.48157 -0.750852 3.35286 117 191 165
0.140044 -0.726141 3.24787 47 83 61
0.191518 -0.726841 3.2444 81 140 126
-1.0657 -0.77541 3.4786 78 121 112
-0.556767 -0.754401 3.37452 52 84 67
0.289683 -0.71699 3.22411 197 226 233
-0.0263136 -0.718871 3.24193 32 79 41
-1.12186 -0.766788 3.49379 87 149 137
-0.55614 -0.736079 3.37327 50 87 77
-1.7774 -0.780308 3.61035 92 166 138
-0.139597 -0.710647 3.2928 101 142 135
-0.48983 -0.712799 3.36203 43 71 58
-0.0349159 -0.687707 3.26339 31 49 42
-1.05209 -0.727075 3.48305 77 121 98
1.64081 -0.626545 2.99907 253 255 255
0.301834 -0.675676 3.23657 137 192 195
-1.16256 -0.723325 3.50807 90 158 127
-0.114113 -0.67723 3.28039 39 60 51
-0.0968209 -0.670612 3.27457 31 49 48
-0.676191 -0.695179 3.41195 134 185 171
-0.147206 -0.674294 3.29837 59 77 64
-0.656023 -0.691037 3.40056 133 192 171
-0.343122 -0.669522 3.33437 90 159 144
-0.23848 -0.666955 3.31417 124 191 176
-0.120301 -0.65982 3.27898 141 210 183
1.57963 -0.60512 3.01107 170 233 213
1.76166 -0.596183 2.97321 199 240 225
-0.813475 -0.686294 3.45865 152 196 219
-0.722977 -0.684531 3.43916 138 184 172
-0.0948028 -0.652738 3.28099 121 200 173
-0.993218 -0.689976 3.47989 119 201 166
-0.143847 -0.65783 3.31603 139 196 205
-0.737469 -0.676113 3.42198 61 87 74
1.79086 -0.586292 2.96354 143 166 188
-0.774033 -0.669913 3.42471 135 204 191
-0.703637 -0.660068 3.4194 119 174 159
-0.690187 -0.651293 3.41956 172 226 226
-1.06616 -0.663708 3.49958 63 100 98
-0.384471 -0.639444 3.37631 92 135 144
-0.817482 -0.649463 3.44435 68 117 109
1.76903 -0.556234 2.97668 44 56 44
-0.792418 -0.642263 3.43915 66 120 107
-0.985311 -0.646685 3.47439 62 107 90
-1.07874 -0.642841 3.50428 187 241 236
-2.16041 -0.669633 3.69118 85 142 111
-0.142669 -0.598156 3.31492 126 183 174
-0.108199 -0.57429 3.31332 100 147 138
-1.75138 -0.596406 3.62892 87 149 137
-1.16598 -0.579475 3.52935 86 140 133
-0.283169 -0.534909 3.34832 100 159 145
-0.75694 -0.545825 3.4392 86 141 132
1.75395 -0.471245 2.97173 123 182 154
-0.068863 -0.510902 3.30963 79 124 108
-0.296666 -0.51481 3.34814 214 241 237
0.148712 -0.505392 3.28293 196 231 244
1.68625 -0.455041 2.98612 92 127 101
-0.0639817 -0.494815 3.30005 83 119 119
1.28249 -0.440995 3.06153 255 255 255
-0.394581 -0.484013 3.37167 88 144 133
0.0795292 -0.468785 3.27967 220 249 240
0.628439 -0.457068 3.18415 92 144 144
-0.71441 -0.483999 3.43682 84 165 146
-0.532215 -0.47558 3.39056 95 160 135
-0.53446 -0.473385 3.40478 94 159 137
-1.31482 -0.486057 3.56756 93 154 128
-1.32282 -0.482568 3.57287 60 131 105
1.73161 -0.391159 2.9724 100 146 123
1.56607 -0.393526 3.01048 228 250 238
1.77149 -0.381416 2.96824 96 125 92
-1.09314 -0.452308 3.53178 224 245 247
-0.55438 -0.42826 3.40975 94 136 148
-0.150696 -0.394544 3.33186 255 255 254
-0.738565 -0.396363 3.45733 218 255 255
-1.0853 -0.399475 3.53898 100 163 147
-0.182884 -0.376947 3.33182 223 240 243
1.49643 -0.337067 3.00025 85 112 96
-0.292671 -0.366312 3.36493 128 198 175
-0.0544331 -0.365415 3.31571 58 125 96
1.59759 -0.328445 2.98803 97 133 109
-1.74586 -0.399201 3.6625 94 155 127
-0.989192 -0.379636 3.51954 216 249 245
-1.1571 -0.374757 3.55593 94 154 146
1.53262 -0.313589 3.00548 119 109 85
-1.1893 -0.366564 3.54938 84 139 136
-0.129901 -0.343732 3.33606 93 163 146
1.26669 -0.311335 3.05707 90 155 140
-0.334745 -0.339406 3.3676 76 105 102
-1.15458 -0.355805 3.55308 106 172 161
-0.11222 -0.329596 3.33234 177 223 230
-0.360668 -0.319171 3.37125 73 113 108
-1.25933 -0.322219 3.57685 84 132 136
-1.24508 -0.312049 3.56616 91 139 140
-0.373156 -0.296897 3.3816 125 212 174
-1.26162 -0.309174 3.57504 254 254 254
-0.187182 -0.290253 3.33895 243 255 255
-0.351343 -0.286598 3.37266 68 120 90
-0.0256781 -0.281235 3.31487 241 255 255
-0.568245 -0.277746 3.42285 82 131 117
-0.0339181 -0.269902 3.30441 100 164 145
-1.01811 -0.271494 3.52649 75 131 118
1.49119 -0.201416 3.00603 126 188 172
-1.21383 -0.223496 3.57373 228 248 249
-0.690532 -0.214611 3.45797 101 158 150
1.52678 -0.183889 3.01252 87 140 127
0.0281628 -0.188492 3.28863 85 147 141
-1.39482 -0.17591 3.626 243 255 255
-0.738562 -0.168764 3.47911 94 161 156
1.51417 -0.146214 3.01803 102 135 114
0.0329161 -0.150913 3.29388 169 203 219
0.121695 -0.144344 3.28674 69 144 122
-0.464123 -0.135892 3.39559 82 129 113
-0.700213 -0.133159 3.45892 98 137 165
-0.521281 -0.13105 3.41829 118 170 163
-2.1645 -0.141296 3.77733 109 171 157
-0.494743 -0.12764 3.40732 90 150 142
-1.68438 -0.133658 3.68162 244 254 254
1.45395 -0.105869 3.03211 58 82 64
1.43264 -0.0987187 3.03477 76 105 90
-1.45637 -0.114732 3.63992 91 149 138
1.51005 -0.0903734 3.02005 91 100 90
1.43768 -0.0773667 3.03179 61 69 62
-0.49576 -0.0711599 3.40893 61 111 79
1.4519 -0.0615212 3.03395 88 97 100
1.44688 -0.0583632 3.03374 98 119 127
1.46121 -0.0471389 3.02879 175 201 225
-0.3949 -0.0485431 3.39051 57 113 92
1.48114 -0.0418894 3.02659 172 207 227
1.4927 -0.0410632 3.01825 138 158 153
-0.397569 -0.0390047 3.37802 175 242 233
-0.47995 -0.0288948 3.40038 60 92 73
-0.395251 -0.0290325 3.38056 66 125 105
-0.73191 -0.0234368 3.49336 205 240 236
1.47479 -0.0186973 3.02648 116 106 112
0.0873482 -0.0137605 3.29191 255 254 255
-0.457446 -0.010416 3.39362 62 79 68
-0.51464 -0.00699649 3.42028 62 118 107
-0.462342 -0.00341577 3.39252 156 187 196
-0.379354 -0.00154212 3.38687 176 202 216
0.746813 -0.00179574 3.17361 190 227 219
1.46405 -0.00158843 3.02679 124 135 149
1.46504 0.00853711 3.02768 165 192 212
1.46183 0.0181059 3.02483 123 125 155
-0.526455 0.0245973 3.42468 67 101 107
-0.509 0.0252835 3.41461 68 74 79
-0.54143 0.053435 3.43555 92 131 133
0.835928 0.0542551 3.16506 94 139 136
-0.377241 0.0614845 3.39608 192 207 210
-0.511259 0.0649097 3.4217 141 181 186
0.0428953 0.0697717 3.29443 148 196 198
-1.69144 0.0813046 3.71152 255 255 255
-0.818587 0.0821711 3.52236 92 152 141
0.170066 0.0794446 3.29097 87 159 136
-0.015202 0.0926865 3.31145 110 97 99
1.52123 0.0918542 3.02146 153 200 222
-0.37848 0.10667 3.40011 196 211 214
-0.0106151 0.113473 3.32035 157 171 183
1.51986 0.102937 3.01675 108 140 181
1.608 0.114203 2.99374 132 139 134
1.7156 0.113164 2.96936 110 111 101
-0.553994 0.136475 3.44363 159 224 209
-1.07688 0.147854 3.58384 138 162 174
0.64118 0.131068 3.19371 190 234 228
-0.510728 0.15613 3.42892 79 94 80
-0.0139388 0.156933 3.32144 162 176 188
-1.00968 0.170423 3.57217 201 233 232
1.60321 0.143164 2.99981 74 101 92
0.0443038 0.166302 3.30523 185 209 215
0.046006 0.169065 3.31318 168 203 206
0.0597193 0.171947 3.30355 208 228 223
-0.0137389 0.180658 3.31948 115 118 122
-0.519422 0.196326 3.44131 175 189 187
-0.933732 0.211029 3.55784 78 152 118
-0.526099 0.205158 3.43341 157 209 222
0.71643 0.187894 3.18745 198 236 230
-1.04873 0.218238 3.58685 193 231 243
-0.532813 0.218855 3.45793 109 151 150
-1.76313 0.238172 3.72921 231 252 250
1.69833 0.197439 2.97928 49 69 57
0.634162 0.215495 3.19988 88 145 124
-0.706274 0.247037 3.51098 255 255 255
0.0385326 0.238502 3.31197 192 204 210
1.6967 0.216669 2.9713 70 129 109
1.83969 0.216704 2.93661 124 165 158
0.638128 0.244338 3.19233 205 238 234
-1.02441 0.27949 3.58517 200 243 246
-0.371581 0.263942 3.40139 193 211 222
0.687682 0.246358 3.18248 64 142 111
0.124085 0.260277 3.29897 96 154 136
0.118435 0.286392 3.30331 98 154 141
0.54988 0.279077 3.2146 73 126 86
-0.526485 0.309364 3.45939 109 144 147
-0.556825 0.318635 3.47372 101 158 149
0.097468 0.304038 3.30433 105 180 164
-0.50961 0.320354 3.44919 129 161 144
0.274855 0.306723 3.27783 114 167 157
-0.754361 0.337839 3.53034 93 159 140
1.75685 0.28506 2.95582 104 170 129
1.75919 0.291672 2.9526 43 61 44
-0.547341 0.345739 3.47184 253 255 255
-0.948311 0.358873 3.57536 214 251 255
1.756 0.302919 2.95259 101 165 129
-0.637929 0.366189 3.50152 211 240 237
-0.567778 0.367939 3.48427 194 238 225
-0.523993 0.365339 3.46717 61 86 72
0.216363 0.348627 3.29129 242 255 253
-0.381432 0.391614 3.40928 162 124 100
-0.609988 0.420748 3.50315 199 237 237
0.0782201 0.399637 3.3317 180 226 214
-0.581266 0.425977 3.48256 255 255 255
0.227994 0.402349 3.28246 112 170 165
-0.370048 0.425304 3.40951 101 118 121
1.62666 0.388255 2.98276 116 183 156
-0.531629 0.455717 3.4771 55 84 61
-0.529507 0.463826 3.472 164 215 201
-0.367205 0.460314 3.41872 203 224 222
-0.514493 0.472827 3.47023 100 143 106
0.699643 0.437376 3.17244 58 122 100
0.710639 0.436597 3.17128 169 209 204
0.0996483 0.466334 3.31278 81 156 124
1.74913 0.431275 2.94282 51 72 57
0.281218 0.489706 3.27659 104 166 142
-0.463526 0.556011 3.45622 142 121 90
-0.528265 0.569986 3.47446 119 188 167
1.15229 0.504812 3.08326 82 118 148
-0.525906 0.58186 3.48745 83 93 76
-0.00577286 0.572849 3.33839 104 94 106
-0.520256 0.605262 3.48692 108 176 159
1.36778 0.531765 3.03997 209 231 219
-0.00256509 0.591162 3.33985 117 140 156
0.214892 0.593947 3.30371 166 206 234
-0.493472 0.646867 3.45885 88 100 82
-0.517805 0.700704 3.48234 67 92 72
0.042748 0.677289 3.32973 224 246 244
-0.513285 0.739653 3.47846 68 87 68
1.09629 -1.34305 3.06783 93 123 164
1.46767 -1.2497 3.01219 93 147 134
0.618173 -1.2852 3.14932 227 252 248
0.621738 -1.28422 3.16173 174 220 221
1.08969 -1.22863 3.06885 100 131 162
1.12054 -1.21747 3.06402 152 201 241
1.09544 -1.21047 3.07165 84 120 168
-1.44726 -1.35163 3.44968 173 225 215
0.0432484 -1.24299 3.23274 74 133 113
0.607208 -1.21267 3.15484 202 255 242
1.75619 -1.14135 2.9748 144 186 145
1.09416 -1.17878 3.07249 145 193 221
0.203676 -1.22711 3.21622 255 255 255
0.329474 -1.20704 3.19351 179 229 217
1.08 -1.1581 3.07614 156 200 241
-0.0272061 -1.144 3.11398 72 79 104
1.7601 -1.07139 2.96882 169 206 226
0.0224255 -1.16107 3.23518 85 131 139
0.186461 -1.13281 3.22165 114 166 143
1.04593 -1.08037 3.08881 64 98 88
0.0416938 -1.1283 3.25851 108 157 167
1.78375 -1.02002 2.95677 182 211 238
0.0178405 -1.10132 3.22398 251 253 253
0.0180357 -1.10174 3.23735 255 253 255
0.0187341 -1.10182 3.23901 255 255 255
-0.929506 -1.1436 3.3877 102 142 117
-0.263716 -1.06652 3.16212 169 215 203
0.157013 -1.08058 3.22052 205 230 232
1.3749 -1.02007 3.0358 88 139 132
-0.296704 -1.04706 3.16269 227 241 240
-0.252733 -1.03729 3.16176 100 95 94
-0.0244473 -1.06395 3.26025 123 131 154
-0.297115 -1.0206 3.17383 141 175 175
-0.912201 -1.07887 3.39193 74 85 69
0.359423 -1.01145 3.20205 202 251 243
0.607454 -0.988135 3.1712 252 255 253
-0.227124 -0.978447 3.16347 142 138 157
0.278544 -0.979439 3.20957 83 94 91
0.622107 -0.945787 3.16835 75 147 125
1.40302 -0.903871 3.03458 55 100 103
1.78402 -0.873372 2.9473 191 218 245
0.176656 -0.926495 3.2253 96 165 145
0.550353 -0.894775 3.12638 107 100 105
1.7781 -0.844189 2.96614 78 74 80
1.78639 -0.842737 2.96045 173 213 241
-1.03223 -0.965624 3.43058 60 87 67
0.281218 -0.885532 3.1901 246 255 255
0.501234 -0.870699 3.17563 97 110 124
-0.0227227 -0.892033 3.27612 110 137 158
0.441417 -0.860513 3.18857 94 117 132
0.477817 -0.852748 3.18861 249 251 251
0.985759 -0.833178 3.11154 57 121 109
0.478918 -0.852888 3.18642 255 255 255
0.189887 -0.854722 3.23817 116 178 178
0.405768 -0.830124 3.17061 196 207 215
1.74915 -0.78059 2.9818 74 130 101
0.487011 -0.822537 3.17641 89 110 118
0.525632 -0.826926 3.16546 196 226 245
-1.06989 -0.896766 3.45448 111 149 127
-0.349651 -0.82165 3.20522 184 208 214
0.515189 -0.805685 3.17219 159 196 240
-0.922923 -0.868857 3.43181 93 135 112
-1.03372 -0.867561 3.45641 114 159 142
0.292271 -0.791191 3.1782 139 141 142
-1.0724 -0.860555 3.46874 117 169 146
-0.569976 -0.835265 3.36488 114 151 141
-0.863755 -0.8437 3.4207 108 156 138
0.412261 -0.77848 3.17298 247 252 251
0.148644 -0.791806 3.22637 68 125 104
0.18381 -0.789941 3.24178 196 242 249
0.234711 -0.788806 3.2223 85 99 97
0.109457 -0.79322 3.26363 101 138 100
0.299565 -0.775582 3.17727 228 248 255
1.77459 -0.721664 2.97182 31 67 45
0.0820663 -0.782544 3.24933 122 191 181
0.420716 -0.762465 3.18664 87 112 98
-1.97268 -0.869624 3.63141 87 151 129
-0.513129 -0.804661 3.36016 111 160 140
0.450723 -0.761504 3.18064 64 107 92
0.141841 -0.762736 3.22694 120 160 142
0.527734 -0.753902 3.18398 115 180 178
1.78095 -0.706166 2.97298 48 61 53
-1.0327 -0.796509 3.44022 107 169 155
0.407719 -0.745603 3.20722 117 130 138
0.549384 -0.74416 3.18658 58 72 61
0.149625 -0.743597 3.24264 45 106 72
-1.00968 -0.793757 3.46603 87 130 121
0.412658 -0.733906 3.19652 170 209 217
-0.0179776 -0.731819 3.23878 143 228 170
-1.11306 -0.788823 3.48478 106 131 135
0.192229 -0.727902 3.233 78 136 118
-1.15475 -0.786787 3.50682 75 89 101
-1.09298 -0.782829 3.4875 163 214 224
-0.502033 -0.755233 3.36259 64 97 90
-1.17833 -0.782879 3.50538 109 154 158
-1.02253 -0.774857 3.47828 156 209 206
-1.00236 -0.760334 3.47551 72 98 80
-0.481692 -0.734561 3.3473 129 202 170
-0.115029 -0.696978 3.2802 131 175 146
1.70292 -0.63693 2.99217 61 124 108
-0.709187 -0.721388 3.41235 130 171 166
-0.688824 -0.708652 3.41814 119 167 155
-0.0105369 -0.678523 3.25523 177 251 217
0.00381595 -0.678459 3.27572 72 121 113
-0.134673 -0.679562 3.27933 95 130 103
0.30755 -0.665307 3.22708 237 251 255
-0.148156 -0.673863 3.29817 56 76 63
-1.71519 -0.72886 3.6067 97 150 141
-0.999439 -0.698952 3.47601 117 173 160
-0.818095 -0.686904 3.43319 58 89 88
-0.320692 -0.666609 3.33125 77 138 124
-0.308446 -0.669272 3.33414 248 255 252
-0.193026 -0.665663 3.30918 48 82 76
1.7616 -0.596068 2.97396 198 239 224
-0.721872 -0.681634 3.42729 146 192 180
-0.996403 -0.68996 3.4837 127 203 169
-0.812275 -0.679941 3.44223 164 216 232
-0.73664 -0.67775 3.42356 61 87 73
-0.461208 -0.66556 3.37467 58 110 103
-0.651181 -0.669806 3.40754 70 129 101
-0.481356 -0.663727 3.37847 255 255 255
-0.992788 -0.675276 3.48045 86 123 113
-0.334995 -0.642405 3.34065 84 134 146
-0.134043 -0.630667 3.28429 39 72 58
1.78911 -0.572024 2.96334 44 55 63
-0.788175 -0.661128 3.43102 135 196 186
-1.07061 -0.666818 3.49832 82 122 110
-0.345627 -0.636456 3.34852 175 237 255
-1.04443 -0.656736 3.48777 151 208 217
-0.814334 -0.652429 3.43979 91 135 122
-0.31691 -0.631649 3.34057 246 255 252
-0.790711 -0.642511 3.43708 64 118 105
-0.294291 -0.62325 3.33004 100 153 156
-1.064 -0.644675 3.50362 93 137 131
-0.776123 -0.632598 3.44505 83 136 133
-0.649752 -0.629809 3.41041 60 132 120
-0.638565 -0.630219 3.41064 253 255 255
-0.115255 -0.605581 3.28666 46 54 43
-2.14434 -0.673875 3.68903 69 122 89
-2.16506 -0.668949 3.6988 94 151 120
0.0314413 -0.581084 3.25477 50 93 60
-0.179558 -0.589241 3.31788 153 208 215
1.78175 -0.527641 2.95094 117 131 149
1.77538 -0.519649 2.98059 51 80 57
-0.912601 -0.597355 3.46782 104 155 148
0.0397297 -0.557976 3.27363 67 123 102
1.77297 -0.505284 2.97189 184 178 135
0.878426 -0.525524 3.13527 187 228 230
1.76709 -0.490737 2.97861 44 64 51
-0.690147 -0.528767 3.42657 72 150 133
0.148816 -0.505611 3.27756 196 231 244
1.70242 -0.451316 2.98447 56 94 82
-1.64913 -0.544696 3.62271 83 139 120
-0.0641474 -0.493504 3.30863 82 129 133
1.81449 -0.438689 2.97057 56 58 59
1.81538 -0.437683 2.9756 45 42 44
1.64265 -0.427782 2.99209 110 176 141
1.76652 -0.421098 2.96777 65 129 100
-0.532085 -0.476228 3.39331 104 169 144
1.71174 -0.421264 2.99086 101 141 129
0.766343 -0.4401 3.1558 94 156 150
-0.592983 -0.464229 3.41435 239 254 255
1.60262 -0.410322 3.0152 67 111 88
-0.223221 -0.450124 3.3349 132 204 174
-0.901582 -0.464875 3.49029 63 128 113
-0.252656 -0.444361 3.34577 88 138 126
1.59441 -0.398277 2.99189 117 168 148
1.67283 -0.396853 2.98225 64 85 76
-0.525882 -0.439698 3.3989 75 129 130
-1.48965 -0.458423 3.62413 83 154 128
1.71402 -0.379943 2.98487 107 144 148
-0.0612499 -0.414042 3.30994 58 104 92
-1.12938 -0.422917 3.54508 201 230 234
1.73856 -0.354055 2.97008 81 118 144
1.53678 -0.355525 3.00891 118 174 153
1.73811 -0.349427 2.97491 99 135 145
-1.52491 -0.413842 3.62591 246 255 251
1.64536 -0.338079 2.98325 96 123 103
-0.177264 -0.368691 3.33371 205 232 228
1.21665 -0.339038 3.07033 74 136 114
0.655091 -0.3465 3.17674 251 249 249
-1.33754 -0.382455 3.57346 100 149 121
-0.768393 -0.366255 3.47126 238 243 241
-0.0393471 -0.352738 3.31141 212 245 231
-0.276483 -0.35283 3.35616 211 238 242
-0.227044 -0.346456 3.33762 71 106 110
1.4895 -0.313014 3.0186 55 74 57
-0.359193 -0.346052 3.36672 69 119 115
1.72619 -0.300771 2.97172 76 100 68
-0.405014 -0.33853 3.38066 84 163 149
-0.0398901 -0.331604 3.31923 179 224 221
1.48428 -0.292165 3.00969 40 58 45
1.61712 -0.284907 2.9872 103 126 112
-0.143916 -0.313812 3.34229 253 255 255
1.48169 -0.26899 3.00985 76 103 94
-1.24549 -0.311474 3.56924 85 138 135
-0.385642 -0.295815 3.37307 39 105 76
-0.509867 -0.294764 3.40009 172 236 236
-0.742474 -0.292848 3.47592 79 141 127
-0.000872312 -0.275538 3.30056 93 177 153
-0.622237 -0.279579 3.44329 81 135 130
1.47588 -0.237144 3.00972 116 171 162
0.0804388 -0.253961 3.29374 254 254 254
-0.337208 -0.25727 3.36918 124 168 185
1.35645 -0.230797 3.03715 67 113 101
0.0279688 -0.224423 3.29598 101 155 150
-0.873938 -0.23498 3.50703 96 141 144
1.50647 -0.201232 3.00744 68 111 98
1.52399 -0.19963 3.00918 102 155 142
-0.20104 -0.21597 3.33689 104 178 152
-1.21559 -0.222408 3.57874 226 243 246
1.55234 -0.18468 2.99497 69 119 87
-0.084596 -0.191294 3.30689 113 185 165
-0.263629 -0.191229 3.3407 74 152 115
1.54302 -0.174956 3.00433 104 167 135
-0.559694 -0.193581 3.43319 74 134 133
0.0121714 -0.182802 3.29235 240 255 251
1.53794 -0.162236 3.00593 52 67 46
0.0324306 -0.16087 3.29611 251 255 255
0.0613986 -0.129456 3.2849 236 248 242
1.45007 -0.114983 3.02742 77 123 100
1.51842 -0.111381 3.01654 92 122 111
1.45396 -0.105711 3.02224 61 78 64
1.49706 -0.109341 3.02745 90 126 109
1.43134 -0.099044 3.0336 69 102 87
1.45661 -0.0940673 3.0256 108 137 128
1.43804 -0.0772534 3.03218 56 64 57
1.48552 -0.0733968 3.02666 116 126 133
1.7224 -0.0613247 2.98867 151 127 103
-0.448497 -0.068027 3.3807 59 139 92
-0.502029 -0.0615799 3.40032 149 231 202
1.45243 -0.0488361 3.01993 168 205 227
-0.720547 -0.0490812 3.48957 238 239 219
1.46535 -0.0406711 3.02824 112 113 147
-0.541863 -0.0341625 3.43219 79 137 119
-0.526937 -0.0303912 3.431 42 85 58
-0.495589 -0.0291277 3.40271 63 87 69
0.0948351 -0.0286292 3.29639 115 178 162
-0.444133 -0.0195976 3.39091 163 216 207
-0.49051 -0.0165846 3.41107 52 106 89
-0.514311 -0.00668467 3.4214 67 118 110
-0.548751 -0.00131963 3.42811 82 139 124
-1.64192 0.00439145 3.68379 254 253 255
-0.513605 0.00640028 3.41979 159 215 226
-0.559854 0.0356623 3.44346 147 226 207
-0.511301 0.0378046 3.41657 125 160 156
0.149582 0.0409681 3.29967 113 178 156
0.169088 0.0448653 3.29135 245 250 249
-0.652264 0.0530741 3.48002 76 132 111
-0.0182101 0.0493758 3.31044 95 100 109
-0.50992 0.0660549 3.42555 113 144 145
-0.0135617 0.0683971 3.31382 121 138 147
1.49648 0.0659307 3.03415 127 151 173
-0.506452 0.087955 3.41831 56 75 56
0.642785 0.0906608 3.19821 194 231 223
1.50619 0.0860761 3.01732 104 116 140
1.63524 0.0837108 2.99289 115 142 139
-0.373384 0.106234 3.3936 202 220 231
1.52247 0.0930658 3.02479 148 190 219
-0.376999 0.107169 3.40178 205 219 225
-0.579978 0.119185 3.46684 164 215 211
1.77915 0.103491 2.95082 97 110 112
-0.516544 0.136795 3.42155 66 93 73
1.64199 0.1206 2.98379 97 142 123
-0.669114 0.154179 3.48915 234 250 243
-0.652306 0.155914 3.49924 91 131 126
1.73947 0.130171 2.96 105 150 134
-0.58523 0.159063 3.4635 78 156 125
-1.13003 0.176969 3.59868 193 237 244
1.60431 0.143762 3.0014 81 109 103
-0.519594 0.166314 3.43501 120 184 172
-0.589863 0.184335 3.48091 107 171 166
1.67008 0.154753 2.97922 51 65 59
1.69928 0.158734 2.96934 122 174 150
1.73109 0.159143 2.9704 132 191 171
-0.648236 0.192221 3.4923 216 244 245
1.76055 0.1631 2.95337 103 163 132
-0.0129277 0.201022 3.32198 141 159 176
0.043961 0.198283 3.31042 175 206 209
-0.522506 0.213759 3.44814 150 191 193
1.66512 0.193062 2.97404 92 141 125
0.0436256 0.22889 3.30347 255 255 255
-0.707211 0.248703 3.51568 255 255 255
0.0449393 0.23865 3.32979 160 194 188
-0.603781 0.254228 3.48712 207 234 225
-1.02454 0.267845 3.57466 119 183 153
-0.53368 0.258617 3.45712 151 204 201
1.84423 0.219088 2.94243 140 192 182
-0.942174 0.275915 3.57541 170 219 203
