ply
format ascii 1.0
element vertex 1282
property float x
property float y
property float z
property uchar blue
property uchar green
property uchar red
end_header
-0.491924 -0.00100601 3.80071 69 118 102
-1.71936 0.00169012 3.7124 88 141 121
0.268406 0.00275353 3.87464 85 147 135
1.15776 0.00171173 3.89892 156 221 189
-0.559822 0.00185726 3.78374 50 108 73
-0.28516 0.0113338 3.8214 68 110 99
1.15771 0.00991343 3.89832 73 133 103
-2.13092 0.0142851 3.68483 86 154 143
-1.79173 0.0149183 3.71063 93 142 134
1.24753 0.0158893 3.88282 109 151 133
-0.424206 0.017723 3.81309 202 245 234
-1.75574 0.021846 3.71075 97 158 138
-0.229125 0.0211816 3.82945 68 133 112
-1.7781 0.023958 3.7086 83 127 114
-1.63625 0.0248276 3.72036 63 115 91
1.91677 0.0260117 4.06058 94 158 146
-2.07731 0.0243635 3.69681 110 163 154
-1.75801 0.0234416 3.71653 96 158 140
-1.27392 0.0311009 3.75164 74 127 114
-0.575334 0.0310152 3.802 89 138 124
0.614251 0.0304354 3.88578 81 137 118
-2.03348 0.0321226 3.70675 91 149 131
-1.63334 0.0329331 3.72528 73 139 114
0.161583 0.0345044 3.87407 182 245 229
-1.40993 0.0375447 3.73697 88 134 115
-0.0351051 0.0370523 3.85727 105 167 155
-1.2882 0.0382763 3.75087 105 159 146
-0.412343 0.0385655 3.81023 105 167 155
0.0773657 0.0385712 3.86351 82 143 129
-1.41256 0.0427704 3.74075 66 110 97
-1.81773 0.0427044 3.70935 84 120 114
-1.52591 0.0433186 3.73121 108 171 161
0.865238 0.0445487 3.88862 124 172 146
-1.75307 0.047348 3.71902 77 132 107
-1.60524 0.0447312 3.72843 85 160 138
-0.603159 0.0474516 3.79973 62 124 108
0.78052 0.0463687 3.76787 62 128 93
-2.07748 0.0502725 3.70938 88 118 105
-0.621349 0.0539539 3.80426 111 161 143
-0.504626 0.050865 3.82179 198 240 233
-0.133435 0.0503071 3.85112 109 164 149
0.439131 0.0534016 3.91511 102 152 142
-2.08174 0.0527321 3.69375 49 82 61
-1.7703 0.0526136 3.71707 93 146 132
-0.670911 0.0536162 3.79402 167 231 202
-0.320571 0.0565134 3.82231 92 134 123
-2.06734 0.0570311 3.70176 81 131 113
-0.382025 0.0594454 3.81971 89 149 131
-0.235077 0.0604972 3.83323 87 137 127
-1.84603 0.0594189 3.71217 70 133 123
0.177129 0.0626812 3.8865 89 150 136
-2.06872 0.0617665 3.68809 160 237 203
-1.2295 0.0631101 3.75422 158 219 199
-0.00752335 0.0653133 3.86628 119 168 160
-1.98789 0.0649658 3.70444 114 168 151
0.305888 0.0685082 3.89549 93 147 140
1.13167 0.0692152 3.91037 154 221 190
-1.80654 0.0680815 3.71003 108 158 146
-0.949975 0.0689626 3.78358 56 129 121
-0.57906 0.0687289 3.79901 166 231 205
-1.8116 0.0697502 3.71589 100 148 136
-1.41482 0.0728498 3.74738 74 111 91
-0.402736 0.0725948 3.82072 90 143 123
-0.212632 0.0727836 3.83945 178 240 210
-1.32643 0.0750153 3.75089 122 167 158
0.441573 0.0783738 3.89706 98 137 122
1.24883 0.0754142 3.91768 164 209 176
1.44769 0.0780001 4.01228 173 209 209
0.423236 0.0795261 3.90105 103 146 143
0.730152 0.075903 3.78487 71 93 68
-2.09105 0.0778431 3.70269 166 237 211
-1.60757 0.0799138 3.73111 92 149 128
-0.563448 0.0822837 3.80437 51 98 72
-0.493211 0.0819354 3.81334 170 232 214
0.973173 0.082868 3.84406 144 210 181
0.310189 0.0865648 3.89701 165 218 204
0.317674 0.0873776 3.9005 80 133 120
-1.97957 0.0880331 3.70234 93 140 124
-1.42835 0.0890606 3.72927 87 140 107
-0.639227 0.0893816 3.80678 100 167 152
-0.567114 0.0897198 3.80088 205 255 236
-0.226382 0.0875558 3.83818 67 112 103
0.71483 0.0908458 3.7864 166 220 183
-0.399912 0.094624 3.82859 159 203 190
-1.6607 0.0943503 3.72905 107 157 145
1.49102 0.0994089 4.02404 129 170 172
-0.684406 0.0966281 3.80549 95 158 138
-2.1052 0.097255 3.70183 89 146 131
-0.546021 0.0999872 3.81488 58 108 98
-2.00574 0.0999145 3.70974 57 116 96
-0.249063 0.105081 3.84362 109 156 154
0.199101 0.104175 3.89102 78 143 128
-2.1428 0.101013 3.70382 84 163 144
-1.61233 0.103608 3.73682 85 129 112
-0.718729 0.105559 3.80839 76 137 123
-0.387565 0.106488 3.83035 94 140 128
0.335962 0.109799 3.8984 130 184 177
1.22239 0.112965 3.94559 97 115 86
-0.192873 0.111493 3.85279 116 163 147
0.259618 0.112049 3.90031 66 124 113
1.45414 0.114669 4.02839 99 116 113
1.47974 0.115669 4.02354 182 226 227
-1.15918 0.112089 3.7764 71 146 132
-0.354124 0.113009 3.84079 192 238 225
0.184286 0.113456 3.89052 94 150 129
1.32023 0.114743 3.94806 157 247 204
1.51652 0.119135 4.02554 112 135 130
-1.871 0.109669 3.70814 61 113 96
-0.413559 0.114874 3.82313 103 155 138
-0.319239 0.11695 3.83699 83 119 105
1.24103 0.118517 3.92994 133 162 129
-1.68721 0.11299 3.73415 161 240 199
-2.17846 0.117514 3.70604 60 101 93
-0.688021 0.119059 3.80018 101 154 134
0.947534 0.120131 3.84503 51 114 74
-2.13945 0.118079 3.70711 78 131 117
-0.688914 0.119553 3.80188 93 150 129
0.160919 0.127046 3.89486 68 139 119
0.363434 0.125717 3.90322 127 182 167
-1.96896 0.121982 3.71203 42 118 86
-1.72112 0.123701 3.73782 98 163 141
-0.681935 0.12413 3.80055 170 237 205
-0.67044 0.122791 3.80928 180 241 231
-2.20658 0.122553 3.69718 78 137 129
0.39607 0.129017 3.90947 70 111 106
1.48143 0.134996 4.02794 138 168 157
-0.606979 0.130046 3.81408 79 141 129
-2.21674 0.128614 3.69972 170 234 222
-1.75091 0.129907 3.72972 98 163 138
-0.243794 0.13469 3.84901 100 153 144
0.235551 0.135938 3.89555 93 172 161
0.766873 0.132674 3.80656 180 237 206
-1.68867 0.132513 3.73715 94 151 130
0.74529 0.135041 3.79361 159 238 211
1.29147 0.138644 3.93804 55 79 49
1.29387 0.139089 3.92509 72 121 83
-0.0613619 0.138277 3.86375 131 185 162
1.47395 0.144622 4.02998 123 134 131
-2.21396 0.136692 3.70238 86 149 133
-1.26498 0.13949 3.77417 99 151 133
0.122822 0.143223 3.88744 67 122 113
-2.21799 0.138179 3.70724 96 151 132
-0.0153313 0.144553 3.87583 79 133 120
0.956851 0.144327 3.84654 95 134 118
-0.626508 0.149049 3.81276 68 121 111
1.50509 0.155208 4.02918 124 141 130
-1.75771 0.148573 3.74041 146 213 174
-1.69823 0.148009 3.73901 57 120 88
-1.68636 0.147194 3.72808 98 164 129
-1.10558 0.150698 3.7866 55 134 121
-0.516983 0.150906 3.82138 98 154 141
-0.388966 0.150525 3.84521 83 141 116
0.951277 0.151978 3.84455 126 194 159
1.58653 0.161269 4.05202 72 97 93
-0.452437 0.152937 3.82937 167 227 209
0.30603 0.15525 3.91043 164 224 218
0.367583 0.156128 3.90754 76 108 91
0.381108 0.156297 3.90838 71 109 91
0.778474 0.155921 3.81282 54 59 44
0.787769 0.154836 3.81359 196 247 209
0.905904 0.159889 3.87855 64 108 77
1.30312 0.160638 3.93469 149 208 177
1.56994 0.164786 4.0356 126 174 156
-2.21801 0.154271 3.70657 114 164 154
1.25831 0.162581 3.91137 171 252 207
1.4628 0.166218 4.03256 127 154 145
-2.12424 0.157256 3.70888 181 252 212
-0.516979 0.161706 3.82942 204 253 239
1.25188 0.167398 3.91568 93 143 109
-2.03166 0.162198 3.71566 83 144 116
-0.882023 0.162249 3.80187 73 132 111
-2.21655 0.162111 3.70354 156 214 203
-1.69559 0.164287 3.72934 64 104 86
0.140412 0.172954 3.89659 88 122 112
1.59188 0.178164 4.04918 130 171 150
-1.29622 0.167121 3.76968 86 150 131
0.368176 0.17258 3.90374 160 206 187
0.783958 0.172316 3.81178 57 80 58
-0.550861 0.173065 3.82291 95 157 141
-0.253735 0.174674 3.86222 59 115 96
0.747031 0.172556 3.80347 169 228 190
1.63558 0.182764 4.06386 151 206 191
-1.68923 0.172385 3.74703 34 81 59
-0.629424 0.175338 3.81861 128 182 175
-0.202024 0.175468 3.85317 115 155 150
1.56721 0.185965 4.0486 129 174 157
1.57046 0.186599 4.05068 135 180 163
-0.215219 0.18196 3.85728 78 139 129
-1.83411 0.177983 3.73003 76 131 114
-0.409126 0.183405 3.8375 76 134 123
0.360179 0.186694 3.91181 99 161 143
1.22046 0.184653 3.90794 58 122 93
1.26709 0.187148 3.91182 138 213 167
2.06213 0.196858 4.10408 97 150 136
-0.230291 0.190457 3.86802 94 149 140
0.144894 0.189416 3.90094 74 136 112
-1.84507 0.183279 3.72942 201 241 229
-1.12528 0.185875 3.78937 71 123 113
-0.526961 0.187339 3.82221 89 157 140
-0.308372 0.189266 3.84664 70 126 113
-0.108693 0.188852 3.88427 106 162 143
-2.07146 0.18715 3.7261 79 149 126
-1.87909 0.187415 3.73029 49 116 85
-0.167416 0.193029 3.86648 118 165 156
0.251442 0.194014 3.90197 87 147 129
1.03184 0.190825 3.84405 158 219 181
-1.75732 0.189537 3.74483 97 133 117
-0.68512 0.195185 3.81246 185 236 229
-0.281841 0.193215 3.84476 90 143 129
0.127023 0.19766 3.89697 83 140 119
1.11171 0.194071 3.81153 172 229 191
-1.29978 0.194484 3.77518 111 151 126
-1.05629 0.194006 3.79611 48 120 97
-0.0212961 0.199499 3.88512 77 128 114
0.276433 0.201256 3.91785 101 173 160
1.23964 0.201597 3.89826 49 74 40
-0.109855 0.201019 3.86397 173 228 213
-1.85039 0.195143 3.73111 78 111 96
-0.481816 0.200034 3.82294 82 139 130
-0.0120462 0.202839 3.88582 102 154 144
0.241607 0.203676 3.91045 68 110 92
0.321478 0.205417 3.92003 175 230 227
-1.63426 0.198956 3.74796 162 254 213
0.293981 0.20839 3.92443 209 253 247
-1.72266 0.200306 3.74815 161 230 197
-0.306318 0.205756 3.84451 97 159 147
-0.680938 0.208079 3.81754 91 144 131
-0.263256 0.210164 3.84897 85 141 128
0.284555 0.212795 3.91794 67 128 124
1.62401 0.222384 4.05564 86 120 109
-0.567237 0.210347 3.83012 60 111 103
-0.12263 0.2135 3.86863 64 119 94
-1.75933 0.209437 3.74625 68 104 88
-1.64607 0.209782 3.74953 44 107 75
-1.32371 0.21099 3.76787 64 116 92
-1.27449 0.210144 3.77785 61 93 76
-0.753459 0.212286 3.81037 72 134 120
-0.507629 0.214271 3.83056 110 165 156
0.755671 0.21375 3.83215 71 133 97
-1.97211 0.209612 3.72945 121 214 169
-0.737871 0.21392 3.81295 103 153 149
0.327241 0.223797 3.91995 175 231 226
-1.62012 0.214876 3.73992 61 138 100
-1.78569 0.215764 3.74171 81 122 107
-1.63956 0.220521 3.7539 72 141 104
-1.20317 0.222018 3.78932 64 138 120
-0.711785 0.222719 3.81544 75 118 105
0.290044 0.228534 3.9177 162 226 207
1.10588 0.226827 3.8406 160 207 168
2.32867 0.241557 4.13268 114 173 169
-0.674093 0.224166 3.82546 182 228 222
-0.518148 0.225983 3.8348 95 161 150
-0.0726767 0.23206 3.88372 73 119 107
0.270617 0.236313 3.91812 184 234 222
-1.8227 0.228464 3.73888 59 126 95
-0.761369 0.234711 3.80767 84 138 125
-2.30554 0.230418 3.71309 91 151 133
-1.82811 0.230726 3.73133 174 242 207
-1.8267 0.230195 3.74418 86 146 116
0.303578 0.24277 3.92363 140 203 187
0.315566 0.245032 3.92339 166 232 220
0.374201 0.244282 3.92446 62 99 97
-1.28577 0.23686 3.77275 168 242 206
-1.31593 0.23789 3.77843 82 144 108
-1.26821 0.237866 3.7785 52 93 78
-0.508299 0.240521 3.82982 192 236 230
-0.0649023 0.246008 3.88778 121 176 167
0.779009 0.24145 3.82545 149 198 190
-2.05062 0.238004 3.725 168 240 198
-1.65644 0.239217 3.7582 74 134 103
-1.37746 0.243052 3.77233 107 154 128
-0.709368 0.243617 3.81979 176 236 212
0.878785 0.239101 3.76418 79 120 93
-1.6204 0.240701 3.75527 132 220 184
-1.27427 0.242471 3.77677 151 238 200
0.864631 0.242275 3.76289 80 140 122
-0.388714 0.25034 3.85303 223 255 250
-0.493183 0.252203 3.821 166 231 209
-0.463586 0.253068 3.83851 115 180 165
-0.208453 0.253289 3.86967 169 230 220
0.748162 0.248429 3.81311 106 163 125
0.0879769 0.260675 3.89711 102 172 159
1.0134 0.249959 3.76946 81 141 110
-2.03501 0.250543 3.73266 83 121 93
-1.92359 0.249081 3.73242 160 238 197
-1.72114 0.253016 3.75408 95 147 123
-0.678385 0.257004 3.82355 96 155 141
-0.37529 0.2588 3.85084 174 226 216
0.859971 0.252697 3.76531 92 137 121
-1.70966 0.254813 3.75463 175 235 204
-1.50697 0.253691 3.76302 79 145 116
0.0631588 0.264588 3.90572 210 251 244
0.088717 0.264616 3.90928 69 138 127
-2.12797 0.254208 3.72021 176 248 212
-1.31588 0.26116 3.77707 67 123 94
0.0983217 0.268832 3.9036 172 226 219
0.358607 0.271536 3.92432 171 220 212
-2.18421 0.261198 3.73108 58 146 122
-1.83857 0.260571 3.74458 90 151 123
-1.17409 0.26521 3.79666 83 138 129
-0.704045 0.267149 3.8264 73 127 120
-0.484548 0.268082 3.83457 64 105 97
-0.384103 0.271462 3.85301 86 123 115
0.983377 0.267978 3.78719 140 207 170
-1.69838 0.269999 3.75871 47 88 57
-1.65001 0.269718 3.76271 80 141 107
-1.37336 0.275895 3.78303 78 126 100
-1.32364 0.27364 3.7774 83 137 114
0.943269 0.272367 3.77388 22 33 23
-2.0101 0.273941 3.74499 108 160 136
-0.869525 0.278921 3.8181 81 145 133
-0.306268 0.281655 3.85707 167 228 218
0.935056 0.276553 3.77312 136 196 166
-1.63494 0.275041 3.76431 66 129 87
-0.631504 0.281891 3.83555 94 150 137
-2.22028 0.276378 3.73263 78 128 118
-1.84717 0.278956 3.74531 78 118 90
-0.322381 0.288074 3.85958 85 155 132
-2.08262 0.281449 3.72507 75 108 87
-1.47353 0.282432 3.77655 102 164 128
0.953193 0.282658 3.76872 179 225 183
-0.736185 0.292049 3.82739 112 177 155
-0.0927815 0.295685 3.88902 119 177 172
-0.0671814 0.293675 3.89685 81 138 130
0.103871 0.295926 3.91363 102 174 161
-2.29802 0.285182 3.73189 92 162 145
-1.80257 0.287126 3.76076 144 207 167
-1.64355 0.287407 3.75956 56 95 69
-1.21947 0.290385 3.79213 72 134 112
-0.509398 0.295823 3.84575 159 232 200
-0.503298 0.297678 3.84904 68 111 96
-1.76618 0.290647 3.74446 50 97 65
-1.68796 0.292513 3.76058 158 213 186
-0.378834 0.301395 3.85056 64 101 81
0.900824 0.290209 3.75243 40 57 43
-0.269094 0.305701 3.87632 102 153 145
2.05647 0.32818 4.11278 122 173 175
0.125599 0.316759 3.92079 95 156 146
0.200265 0.314827 3.92187 203 255 247
0.253083 0.312995 3.92237 157 234 206
0.643148 0.310999 3.87706 54 103 89
-2.02797 0.302861 3.73515 143 249 212
-1.76746 0.304748 3.7484 148 232 198
-1.27639 0.306786 3.78797 70 119 97
-0.691862 0.311856 3.83327 60 102 85
-1.64791 0.306001 3.75504 156 215 187
-0.0703986 0.318674 3.89863 84 150 131
1.86106 0.334027 4.09695 129 170 172
-1.78971 0.306161 3.74917 121 242 184
-1.70228 0.309463 3.7544 163 229 180
0.207107 0.324438 3.92461 81 138 130
0.6488 0.32496 3.88663 134 199 173
-1.21054 0.318217 3.79921 101 162 152
0.159817 0.328419 3.92667 52 118 99
-1.22809 0.319785 3.7969 40 91 83
-0.224143 0.32775 3.87947 91 144 135
-0.011347 0.329116 3.90775 79 128 120
0.199878 0.330541 3.92524 202 255 242
-1.56171 0.323911 3.76761 58 110 87
-0.601198 0.330394 3.83813 158 232 206
-0.591458 0.328421 3.84525 173 231 213
-0.404445 0.331529 3.85891 80 142 126
-0.308518 0.3295 3.86647 109 158 150
0.4922 0.333702 3.88758 146 204 180
-2.02521 0.323642 3.74887 67 122 97
-1.79239 0.322363 3.7432 47 81 51
-1.75527 0.322868 3.73451 177 244 183
-1.7023 0.326613 3.75945 164 234 198
-1.3994 0.327532 3.78062 142 217 179
0.917981 0.3244 3.75992 27 63 41
0.926775 0.32596 3.75689 150 209 165
-1.89642 0.328901 3.74799 94 141 125
-1.5423 0.329921 3.77161 68 113 104
-1.41095 0.330752 3.78028 68 121 94
-0.618824 0.336258 3.84148 188 241 227
-2.28322 0.329978 3.73766 83 142 127
-1.87863 0.32895 3.74616 99 134 124
-1.78488 0.33273 3.75745 88 158 117
-0.425458 0.341059 3.86019 181 221 220
0.615397 0.340037 3.87529 64 110 87
-1.96535 0.333816 3.7423 87 127 109
-1.50544 0.335297 3.77292 61 126 100
-0.650593 0.341499 3.84107 99 142 127
-1.96589 0.335154 3.74603 91 130 114
0.185509 0.351208 3.92774 69 130 120
1.16776 0.338209 3.7696 155 200 167
-1.63326 0.343491 3.76777 156 218 182
-0.723308 0.349626 3.83873 75 124 108
-0.107035 0.355095 3.89652 134 175 167
-1.21654 0.351171 3.80781 60 124 112
-1.21543 0.351621 3.81278 77 140 131
0.157934 0.360287 3.92543 46 104 76
0.504076 0.356942 3.88157 142 198 185
-1.90246 0.346179 3.74922 87 129 111
-1.79359 0.345569 3.75333 43 68 48
-1.45156 0.348678 3.78218 87 123 101
-0.833105 0.352969 3.82722 59 132 92
-0.340579 0.356576 3.86773 94 151 142
-0.216544 0.360819 3.88861 74 133 113
1.8254 0.378138 4.09684 110 160 158
-0.98799 0.355063 3.81786 100 154 141
-0.148027 0.359248 3.89225 66 104 98
-2.28383 0.350492 3.73648 65 122 101
-1.71824 0.347766 3.74359 158 220 172
-0.621382 0.362134 3.84443 60 142 107
-0.222877 0.362798 3.88057 187 243 230
-1.89445 0.353704 3.74703 145 219 183
-1.79815 0.355149 3.74638 85 138 99
-1.45824 0.353773 3.78113 158 238 203
-2.05905 0.356689 3.74789 42 99 68
-1.63228 0.357301 3.77205 73 127 90
-0.31416 0.36667 3.88223 61 106 87
1.17044 0.359691 3.76483 159 216 177
-1.84831 0.359838 3.7558 158 233 195
-1.8165 0.358966 3.74651 99 158 127
-0.65301 0.371232 3.8467 99 155 142
0.498136 0.376353 3.88708 135 226 187
1.13822 0.362602 3.75173 86 119 98
2.00154 0.395675 4.11378 123 184 174
-0.779377 0.376961 3.83608 169 231 217
-0.478257 0.378246 3.85496 52 85 71
-0.318206 0.380856 3.87697 87 146 126
-0.224558 0.383098 3.89131 114 154 152
-0.356132 0.381008 3.86971 74 119 102
-0.185869 0.387392 3.90308 97 144 136
-1.76179 0.373662 3.74533 93 155 109
-1.73979 0.371941 3.73999 183 248 209
1.16896 0.374449 3.75808 183 241 213
1.9966 0.408286 4.10515 124 164 159
-1.64707 0.376849 3.76159 147 213 178
-1.64134 0.377777 3.77196 37 73 51
-1.57702 0.383434 3.78156 73 126 99
-0.487273 0.388942 3.86001 201 245 232
-0.335439 0.389611 3.87441 83 131 119
-0.301493 0.390155 3.87428 97 126 117
0.442185 0.391365 3.87216 121 175 175
1.57797 0.409984 4.07304 206 239 235
-0.461205 0.391755 3.86213 76 99 84
-0.153062 0.392633 3.8904 93 129 123
-1.88736 0.383916 3.75119 115 187 141
-0.581316 0.392191 3.84706 102 141 126
-0.051231 0.398476 3.9075 62 119 110
-1.87717 0.387935 3.75905 83 105 87
-1.5851 0.387676 3.77542 177 238 202
-1.40392 0.390007 3.79492 132 214 172
-1.39529 0.387272 3.7906 72 129 104
-0.598971 0.397519 3.85285 79 130 116
-0.421777 0.399089 3.87427 88 127 106
0.235882 0.404061 3.927 69 114 98
-1.64388 0.389713 3.77587 144 233 190
-0.286549 0.401658 3.88015 172 233 219
-1.8837 0.390104 3.75146 158 231 181
-0.476043 0.39926 3.85194 208 242 235
-0.270486 0.403543 3.8846 92 137 121
0.474125 0.405643 3.88329 143 193 175
0.21702 0.411979 3.93508 76 127 113
-0.581474 0.407319 3.85156 81 114 99
-0.421098 0.41003 3.87523 120 159 138
-0.0966588 0.412242 3.9068 206 243 239
-0.770803 0.410728 3.85119 88 149 139
-0.553962 0.408495 3.85329 78 124 111
0.385864 0.410068 3.86417 119 174 147
-2.07762 0.400632 3.75657 62 93 78
-1.58507 0.402494 3.77305 80 136 101
-0.299805 0.414043 3.87853 65 113 85
0.0202949 0.418966 3.91797 95 144 130
0.478724 0.414248 3.86886 40 72 77
0.494548 0.415084 3.87863 149 223 197
0.580121 0.414932 3.8834 182 230 204
-2.06734 0.403971 3.75227 63 111 85
-1.12149 0.410489 3.82218 84 140 121
-1.96919 0.405858 3.76012 73 145 109
-0.119723 0.423169 3.90648 67 107 105
0.619462 0.420997 3.89681 65 101 79
-2.34758 0.408395 3.75354 137 186 154
-1.93737 0.407688 3.74368 108 181 149
-0.285902 0.421875 3.87925 161 221 187
-1.64011 0.414443 3.76812 158 224 175
-0.701991 0.421716 3.84751 57 116 102
-0.535834 0.422583 3.86412 79 139 129
-1.69421 0.414717 3.76729 174 244 203
0.170478 0.435395 3.93816 71 137 125
-1.88302 0.414252 3.75133 55 102 76
-1.64282 0.418311 3.7756 169 231 191
-1.17191 0.424043 3.8183 69 121 98
-0.00692568 0.435973 3.91922 90 144 137
-2.30046 0.421355 3.75143 164 239 218
-1.61246 0.424326 3.78213 150 205 172
-0.816218 0.429472 3.83984 90 140 130
-0.573181 0.432005 3.85366 170 233 191
0.363862 0.432529 3.85161 90 143 123
2.22983 0.462982 4.14647 111 165 158
-0.922318 0.431929 3.83587 78 127 113
-0.879409 0.430593 3.82857 101 154 141
-0.411717 0.437255 3.87865 105 154 138
0.427007 0.433924 3.85803 144 207 197
0.500926 0.439668 3.88948 150 232 189
-2.04697 0.425731 3.75656 71 127 108
-1.86392 0.427011 3.75595 42 93 59
-0.634648 0.438137 3.85285 78 132 115
1.50217 0.461266 4.06118 100 127 123
1.99784 0.466034 4.11627 116 166 162
-2.35133 0.426856 3.74097 155 235 212
-1.59058 0.433602 3.78606 74 131 100
-0.750531 0.438612 3.84514 190 240 228
-0.606547 0.440447 3.85065 103 148 139
-0.532374 0.439452 3.86074 90 137 128
-0.827459 0.440468 3.84028 62 133 113
-0.453091 0.442027 3.86638 65 108 87
1.83499 0.470871 4.11218 126 181 172
-1.49482 0.437571 3.79541 90 143 133
-0.910543 0.442977 3.8324 67 126 106
-0.280821 0.448778 3.88825 83 152 125
-0.106242 0.454507 3.91791 92 142 132
-2.31012 0.435164 3.75417 72 101 92
-1.69903 0.436488 3.77196 48 76 53
-0.445263 0.448844 3.86532 165 229 199
-0.267934 0.449633 3.89635 77 130 110
-0.115396 0.455142 3.9123 192 247 228
-1.74128 0.437894 3.75077 65 123 82
-0.816201 0.450731 3.84405 92 145 131
-0.703397 0.449674 3.84947 114 155 147
-0.446483 0.450712 3.87033 132 196 166
-2.06394 0.442883 3.76508 97 141 128
-0.547666 0.453256 3.85785 184 236 218
-0.318955 0.455584 3.87816 171 233 203
-0.0214708 0.460734 3.92518 69 132 122
0.10354 0.462513 3.93332 89 131 124
0.141695 0.461463 3.93722 86 139 129
1.81292 0.481818 4.10826 88 126 126
-1.85536 0.440723 3.75544 176 238 198
-1.46203 0.448064 3.78771 95 149 132
-1.02612 0.455002 3.83706 89 142 128
-0.252719 0.460016 3.89353 163 225 203
-0.0660006 0.463803 3.91511 186 236 232
1.80164 0.484078 4.10017 181 227 214
-1.73946 0.445763 3.7625 84 145 101
-0.478727 0.458281 3.86678 70 118 100
2.12006 0.49012 4.13631 114 158 152
-1.67229 0.450548 3.76888 44 103 75
-1.44027 0.453542 3.80261 72 114 97
-0.937029 0.457307 3.83655 153 209 190
-0.583771 0.461418 3.86038 93 142 128
-0.418847 0.464648 3.87705 68 113 97
-0.272714 0.46558 3.89728 143 224 185
-0.0137374 0.469173 3.92389 89 151 135
2.12668 0.493135 4.14462 117 160 157
-1.99049 0.451356 3.76336 90 113 99
-1.97248 0.452874 3.76672 231 255 253
-0.770939 0.459265 3.84631 99 160 140
-0.374468 0.466888 3.88547 59 78 63
-0.0149504 0.473576 3.93569 103 168 146
2.28085 0.50426 4.16396 111 158 150
-1.82637 0.455093 3.75755 33 88 61
-0.951131 0.464578 3.82255 112 138 125
-0.667606 0.46622 3.85533 76 119 106
-0.651525 0.468848 3.85381 96 161 145
-1.89749 0.460168 3.77055 74 142 125
-0.567783 0.473451 3.86102 83 122 114
-0.45364 0.474862 3.87524 138 181 166
-0.07528 0.476526 3.91147 160 231 214
-0.00907059 0.479636 3.92714 201 239 239
0.574111 0.474244 3.89487 34 52 39
-1.82614 0.461245 3.75632 163 232 187
-0.527754 0.474421 3.87104 175 234 214
0.393584 0.473699 3.8687 74 140 115
1.51575 0.499517 4.07847 88 125 123
-1.57892 0.467089 3.78822 83 131 102
-0.810007 0.477539 3.84923 87 151 139
-0.662035 0.476595 3.85925 153 233 210
-0.545476 0.479442 3.86285 84 116 99
-0.258856 0.482524 3.89936 81 126 110
-0.213326 0.482589 3.89129 79 137 119
0.566872 0.480393 3.88585 129 178 150
-1.7276 0.467088 3.75762 61 129 94
-0.635615 0.480602 3.86278 69 112 103
1.07581 0.472195 3.74387 58 117 96
-0.406609 0.4919 3.88541 163 216 206
-0.122422 0.495265 3.9072 68 121 108
-0.00306369 0.497981 3.92812 115 176 166
-1.69191 0.480658 3.77619 27 72 45
-1.60913 0.484524 3.78948 146 206 176
0.509612 0.498792 3.90769 58 126 101
1.54665 0.520931 4.08632 101 133 132
-1.90912 0.482472 3.76925 88 151 119
-1.54882 0.487351 3.79788 77 159 124
-2.22055 0.483873 3.75638 98 129 114
-1.02292 0.494034 3.83308 164 231 210
-0.480735 0.497867 3.86931 79 119 107
-0.459245 0.497973 3.87889 60 104 75
-0.266514 0.500755 3.89946 61 121 97
-1.71489 0.486556 3.76766 49 89 47
-1.60433 0.491061 3.7952 81 120 95
-0.685767 0.502444 3.86803 76 147 130
-0.565411 0.500502 3.86482 90 145 126
-2.2259 0.491853 3.76696 139 173 149
-0.406241 0.504784 3.88392 63 95 84
0.353064 0.505141 3.88355 78 138 130
0.560331 0.504279 3.8829 86 108 84
-1.64407 0.494115 3.78041 58 90 65
-1.4928 0.4965 3.79806 76 132 113
-0.74877 0.503574 3.86031 89 145 132
0.518639 0.503942 3.86552 161 235 199
-1.61434 0.498575 3.78884 167 234 195
-1.46259 0.49778 3.80066 72 121 93
-1.18427 0.499443 3.81319 183 238 223
-0.676868 0.507067 3.86176 82 138 119
-0.411499 0.509176 3.88615 58 116 88
-0.344928 0.50879 3.88322 179 220 212
0.533731 0.503531 3.85696 51 73 55
-0.320845 0.516224 3.89602 191 240 226
-0.306184 0.518041 3.89849 37 81 74
1.15036 0.495921 3.75426 85 135 103
1.49652 0.540493 4.08516 150 184 184
-0.642529 0.514531 3.86617 101 144 133
-0.54364 0.515949 3.86977 82 123 108
-0.395876 0.518761 3.89148 69 126 105
-0.342668 0.517505 3.88823 78 120 113
-1.60806 0.510436 3.79856 110 168 140
-0.776756 0.516712 3.85876 82 130 112
-0.664543 0.520359 3.87054 110 144 144
-0.141095 0.525059 3.91668 72 124 114
-0.667411 0.520567 3.86272 78 100 88
0.184313 0.530953 3.94095 77 159 136
0.518895 0.518948 3.86186 95 169 135
1.49339 0.548383 4.07885 80 96 95
-1.17632 0.516625 3.81374 177 237 213
-0.770293 0.521112 3.85616 108 162 145
-0.708598 0.524501 3.86557 136 170 159
-0.43547 0.525169 3.88565 138 213 181
-0.403794 0.526032 3.89513 165 227 209
0.662218 0.514827 3.80885 48 80 75
-0.939117 0.522591 3.84606 68 140 120
-0.423805 0.528476 3.8858 82 115 108
-0.204416 0.531619 3.90846 70 113 98
0.185968 0.533679 3.94792 93 179 155
-2.2154 0.513675 3.76908 144 207 191
-1.67601 0.516033 3.77747 164 252 206
-0.48486 0.528806 3.87625 108 152 139
-0.447744 0.529195 3.88961 73 119 90
-2.22818 0.514969 3.76891 83 113 102
-0.678105 0.531221 3.86479 154 221 194
-0.622804 0.532747 3.8733 104 148 135
-0.406085 0.532781 3.88815 38 83 64
1.49974 0.558448 4.07722 158 197 195
-2.21665 0.520255 3.77158 76 129 116
-1.46069 0.523321 3.80468 163 230 201
-0.791347 0.528881 3.84871 170 239 212
1.10185 0.516146 3.74234 135 199 169
-1.7271 0.522207 3.7679 59 108 76
0.00632196 0.546244 3.93602 90 141 137
-2.23737 0.523756 3.76797 69 124 105
-1.83497 0.522436 3.75665 66 109 82
-1.6678 0.527038 3.78235 169 255 252
-0.587212 0.537309 3.86252 176 243 211
-0.430329 0.540986 3.89236 183 235 225
-0.0617787 0.549037 3.92704 82 114 109
-2.32969 0.526095 3.76581 69 118 102
-0.582637 0.540396 3.86471 83 126 105
-0.524091 0.542408 3.87604 154 204 186
-0.0227276 0.55012 3.93596 67 124 115
-2.20911 0.529579 3.77632 59 121 105
-1.944 0.530157 3.77834 70 122 105
-1.84622 0.532917 3.77754 91 134 113
-0.722339 0.54169 3.86634 101 156 141
-0.357217 0.547655 3.89837 105 158 149
-2.31375 0.532472 3.76788 61 106 89
-0.0697235 0.554528 3.92627 176 241 225
-0.674323 0.548681 3.86541 83 110 106
-0.438923 0.550813 3.88927 146 202 189
1.76877 0.583914 4.1185 112 167 170
-1.71042 0.538929 3.78292 83 128 101
-0.782122 0.549327 3.87081 169 240 207
-0.565054 0.551001 3.86904 196 246 234
-0.45896 0.552591 3.88928 83 111 105
-1.72244 0.542213 3.78143 86 155 118
-0.404838 0.556188 3.8912 98 136 118
0.831491 0.542964 3.79662 62 118 95
1.10921 0.534586 3.73778 97 133 119
-0.879033 0.55464 3.85107 72 124 106
0.423757 0.561596 3.90257 155 220 195
0.504398 0.558315 3.87526 74 103 87
-1.45657 0.54997 3.80965 79 124 97
-0.271574 0.569768 3.90677 38 112 94
-0.716032 0.564665 3.86618 71 136 120
-0.631197 0.569341 3.87405 198 239 231
-0.0554389 0.575136 3.93661 201 239 241
0.535758 0.568953 3.88376 147 203 174
0.678549 0.559326 3.81821 50 74 50
1.75762 0.603093 4.11467 106 149 152
-2.29631 0.555223 3.76973 87 148 128
-0.194995 0.576676 3.91924 93 151 133
-2.23384 0.560181 3.78524 76 126 116
-1.76169 0.55946 3.7787 143 233 197
0.798401 0.558571 3.77533 49 76 60
-1.86665 0.557195 3.76166 184 255 214
-0.625626 0.575453 3.87763 69 125 96
0.135973 0.588244 3.95589 180 238 227
1.62884 0.608503 4.10577 105 154 152
-1.67411 0.566444 3.78808 161 221 180
-1.65236 0.565419 3.79652 67 113 84
-0.312808 0.582935 3.91133 96 139 128
-0.265781 0.584495 3.91398 71 134 118
-0.247121 0.583481 3.91053 74 115 107
-2.25676 0.568345 3.78279 77 143 131
-1.61126 0.574677 3.80749 71 133 111
-0.728094 0.584012 3.87381 90 152 140
-0.186383 0.590168 3.92331 181 239 228
0.178025 0.595907 3.95647 80 142 124
-1.62535 0.573456 3.80096 73 120 88
0.404812 0.589421 3.89927 76 138 120
2.00912 0.625116 4.14288 73 116 105
-1.85983 0.572416 3.77508 92 153 117
-0.0961077 0.597008 3.93576 192 251 231
0.0509883 0.60225 3.95154 118 178 172
1.1351 0.571807 3.75253 158 199 172
-1.78454 0.579705 3.80241 159 235 181
-1.49018 0.583124 3.8166 62 119 88
-0.791295 0.592731 3.87089 83 151 134
0.175111 0.606147 3.9562 92 153 139
-2.20727 0.580808 3.78406 65 110 107
-1.14297 0.591569 3.83898 84 130 118
-1.21322 0.596242 3.83698 89 128 113
-0.814014 0.601127 3.87008 64 107 94
-0.722612 0.599349 3.87476 87 131 118
-0.529679 0.600975 3.87777 97 150 141
2.0852 0.643622 4.14597 193 237 220
-0.815868 0.601537 3.87112 62 113 93
0.415238 0.606391 3.89041 168 223 198
0.753736 0.584448 3.76461 179 251 215
1.76473 0.642337 4.12078 111 153 160
-1.85514 0.591231 3.77727 187 255 207
1.87645 0.647457 4.13292 78 117 92
-1.85594 0.592901 3.78121 180 248 193
-0.766617 0.609302 3.87395 74 146 123
-0.82535 0.609986 3.84858 82 143 117
-0.680464 0.617919 3.88128 76 124 112
-1.60542 0.609004 3.80584 79 149 118
-0.828266 0.616035 3.86304 87 142 125
-0.17169 0.625834 3.92331 83 142 128
-0.555357 0.622556 3.88481 192 245 232
-0.3753 0.625516 3.90614 108 161 151
-2.0457 0.612005 3.79906 92 149 124
1.71011 0.661838 4.11879 119 175 170
-2.01257 0.616335 3.79928 86 147 121
-0.641582 0.627002 3.8726 97 151 122
0.0661344 0.63876 3.94926 110 153 144
0.643436 0.610961 3.78402 59 97 69
-1.73047 0.617192 3.79073 78 107 81
2.24215 0.679798 4.1704 106 153 137
0.816661 0.609814 3.71879 66 118 94
1.83554 0.677819 4.13553 100 136 124
-1.72992 0.625695 3.79293 32 54 26
-0.371699 0.647536 3.91035 113 160 151
-1.92117 0.626698 3.78887 109 174 149
-0.493142 0.641271 3.88279 91 141 131
-0.086666 0.651175 3.93682 87 149 137
-0.372506 0.649563 3.91518 97 142 133
-2.1228 0.633442 3.79889 68 104 88
-1.70754 0.635247 3.80474 173 224 187
-1.5033 0.637568 3.82214 82 144 120
-0.940795 0.646941 3.86377 163 207 194
-0.687432 0.649871 3.88799 79 140 130
1.66055 0.688758 4.12855 103 160 161
-1.60338 0.639842 3.81194 174 243 210
-0.866171 0.646978 3.8652 102 151 137
-0.589306 0.65042 3.8863 173 235 221
0.0423353 0.661242 3.95437 191 237 224
0.0955218 0.667423 3.96687 99 147 135
-2.17371 0.639818 3.7917 68 108 96
-1.49622 0.646473 3.82325 95 147 124
0.12442 0.670462 3.96744 110 156 144
-0.243481 0.665099 3.92976 82 131 115
-1.66106 0.647167 3.80105 157 223 188
-0.787304 0.659404 3.87904 68 124 101
-0.533026 0.662165 3.88996 180 232 222
0.287468 0.669007 3.91507 52 126 108
-1.52179 0.651958 3.8187 93 142 120
-0.821854 0.66111 3.86929 110 160 148
-0.799122 0.663663 3.87835 90 139 123
-0.233919 0.671268 3.92859 65 134 119
-0.346364 0.671328 3.91171 188 243 226
0.273738 0.672552 3.92606 81 143 125
0.487497 0.67427 3.90597 182 246 204
-1.68031 0.66032 3.80854 149 222 176
-1.57693 0.661824 3.82119 68 132 110
-0.856244 0.672253 3.86826 155 214 194
-0.699235 0.672581 3.8846 88 124 107
-0.576044 0.674299 3.88951 208 251 238
-0.407411 0.67999 3.91502 74 133 118
-0.0188513 0.685903 3.9572 96 160 154
0.00161329 0.688495 3.96062 101 151 147
0.127835 0.691672 3.97269 75 139 127
0.99816 0.655302 3.77197 31 49 36
-0.643608 0.677521 3.88102 106 180 154
-1.56202 0.668321 3.82214 100 148 130
-1.54826 0.670717 3.82514 58 126 109
0.0837141 0.694485 3.97142 114 166 159
0.973817 0.661855 3.78241 110 148 118
-1.85132 0.669605 3.81105 88 127 102
-0.673909 0.683659 3.89454 89 154 138
-0.309086 0.690513 3.92871 92 149 128
-1.33063 0.675235 3.82611 135 170 156
-0.892173 0.680638 3.86496 69 97 78
0.0656669 0.69796 3.96552 75 117 110
0.911337 0.67177 3.79965 81 135 105
1.7727 0.728989 4.13049 77 120 111
-1.37381 0.678587 3.84084 83 127 110
-0.545059 0.688524 3.89546 90 148 120
-0.482221 0.69119 3.90853 100 153 139
-0.193522 0.693197 3.93475 88 126 114
-1.33497 0.681249 3.83984 108 147 132
-0.722986 0.69068 3.88327 74 127 107
-0.314245 0.695077 3.91733 195 253 224
-1.82653 0.679483 3.81699 56 130 94
-1.37822 0.684751 3.83977 187 237 213
-0.721252 0.691729 3.88568 77 122 106
-0.582651 0.692465 3.88887 85 134 120
-0.528595 0.692927 3.89201 188 244 231
-0.315946 0.69685 3.92147 185 241 220
-2.22681 0.680896 3.79986 68 111 100
-1.72636 0.682047 3.81345 71 123 83
-0.666341 0.69717 3.89085 76 143 128
-0.253064 0.706864 3.93843 97 156 142
0.0459768 0.705605 3.9553 99 136 128
0.0878659 0.711713 3.96999 91 142 134
-1.31804 0.689779 3.8386 68 129 103
-0.556361 0.699293 3.89782 71 119 107
-0.253148 0.704815 3.93371 97 156 142
0.1355 0.712794 3.97133 189 243 220
0.454717 0.7005 3.9067 31 86 69
-1.62559 0.690102 3.82468 66 120 97
-1.37734 0.691339 3.83655 72 117 100
-0.566123 0.705176 3.89485 54 104 92
-0.437228 0.707583 3.91896 71 138 123
2.25026 0.759691 4.18626 114 148 141
-1.99693 0.693432 3.80911 105 154 134
-1.89146 0.696531 3.81946 78 104 81
-0.487762 0.709927 3.9009 73 116 105
-1.76422 0.6981 3.81946 80 126 90
-0.828814 0.709021 3.8786 88 123 113
-0.47665 0.713765 3.89885 163 231 208
-1.68267 0.700891 3.8205 64 104 69
-0.512251 0.717881 3.90592 83 146 130
-0.640007 0.717799 3.89609 74 133 118
0.123809 0.732057 3.98007 78 140 124
-1.87179 0.704806 3.81249 80 109 83
-0.85185 0.711314 3.86355 55 101 79
-1.29347 0.715171 3.85248 107 160 151
-0.275392 0.7306 3.93795 56 88 83
0.116645 0.736823 3.97888 71 114 101
0.919289 0.697818 3.76497 63 111 83
-1.61831 0.713766 3.83061 80 146 117
-0.845369 0.721942 3.88658 70 111 90
-0.214936 0.733154 3.93688 147 232 187
1.62427 0.771053 4.13415 120 161 164
-1.03183 0.723102 3.87416 95 150 135
-0.168883 0.738074 3.95376 63 117 104
0.315499 0.734931 3.92615 162 233 216
-1.77933 0.716707 3.8184 74 115 78
-1.74132 0.714445 3.82037 160 215 166
-0.253767 0.738376 3.9402 89 143 138
0.829684 0.702482 3.73954 189 254 215
0.90971 0.706257 3.77702 23 72 52
-1.32601 0.723452 3.85128 95 162 135
-0.492389 0.736947 3.91789 55 122 107
-0.186039 0.742386 3.94337 94 136 129
-0.156316 0.742344 3.94379 85 137 127
1.4403 0.774183 4.11698 153 209 198
-1.83987 0.722114 3.81977 142 208 167
-0.839585 0.733545 3.87766 148 212 182
1.82331 0.779062 4.13486 161 234 202
-1.88461 0.719772 3.81344 60 98 70
1.83449 0.780869 4.12749 90 132 115
-1.65769 0.727146 3.82495 76 133 112
-1.61461 0.729474 3.83377 70 111 90
-0.831455 0.740469 3.88733 58 84 66
-0.842725 0.742292 3.88019 48 99 71
-1.87584 0.727439 3.80785 161 248 204
-1.66302 0.73127 3.83411 90 150 120
-0.83099 0.74005 3.87904 59 87 67
-0.724184 0.744452 3.88929 174 239 214
-0.48609 0.750686 3.91781 103 137 131
-0.322336 0.752497 3.93536 81 152 132
-0.137842 0.756111 3.95764 90 146 135
-0.748726 0.746144 3.88621 175 238 222
0.0738178 0.76576 3.97052 178 233 216
-2.37017 0.735264 3.80016 89 152 136
-1.70525 0.74123 3.83338 73 112 91
-0.824356 0.748378 3.87216 164 230 195
-0.521744 0.756298 3.91537 178 225 216
-0.424793 0.760653 3.92625 86 142 131
0.446754 0.755113 3.9078 147 229 194
1.76991 0.800807 4.14106 98 143 127
-1.36648 0.745983 3.85186 98 154 133
-0.529331 0.7583 3.90559 71 120 112
0.107732 0.770024 3.97368 67 112 95
-0.544216 0.761974 3.90294 106 160 153
-0.4964 0.760257 3.90503 89 117 111
0.508651 0.771366 3.94376 119 192 170
1.54552 0.807119 4.13039 110 173 164
1.77881 0.808794 4.13912 167 227 209
-1.82737 0.75658 3.83391 105 145 110
-1.07012 0.760669 3.86838 69 131 113
-0.728306 0.765883 3.89335 78 131 117
0.611777 0.764116 3.88086 165 223 199
-1.70003 0.760678 3.83812 80 135 110
-1.5096 0.76197 3.85095 87 138 124
-1.08987 0.766571 3.87114 78 153 137
-0.83981 0.766693 3.87774 96 150 121
-0.522134 0.776762 3.91686 172 233 219
-0.371083 0.78051 3.9323 59 103 80
1.83248 0.815049 4.12278 160 226 201
-1.70862 0.762539 3.84001 101 152 124
-0.878665 0.7744 3.89251 114 156 145
-0.623251 0.775915 3.90096 78 135 126
1.91556 0.817701 4.10752 70 79 83
-1.80131 0.762811 3.83028 64 125 87
-0.451616 0.782684 3.92155 68 119 105
-0.0037995 0.790326 3.97239 183 230 221
-0.504951 0.784042 3.91694 88 142 129
-0.355012 0.784549 3.92546 79 131 121
-0.187494 0.792534 3.95126 98 147 131
1.47878 0.823623 4.11801 174 232 221
2.16538 0.834684 4.16834 111 154 143
-2.1321 0.767344 3.82632 75 130 113
-0.487788 0.788977 3.92807 52 75 70
-0.458425 0.78903 3.92271 60 94 87
-2.09454 0.76961 3.81993 88 145 136
-1.83158 0.779899 3.82599 163 245 202
-0.316221 0.800413 3.94318 69 131 113
0.0391708 0.804488 3.96999 99 158 144
-1.70236 0.7832 3.84142 91 154 128
-0.624515 0.795601 3.89845 180 247 220
0.0748101 0.814875 3.98384 62 110 82
0.32159 0.803833 3.94335 31 79 73
0.418887 0.799639 3.91091 163 246 201
-1.8645 0.787647 3.83982 171 233 203
-0.685557 0.802485 3.90379 84 144 133
-0.381264 0.80627 3.94036 156 225 205
0.143858 0.819124 3.99172 110 147 155
-0.711497 0.799982 3.89219 70 125 108
0.0544796 0.819675 3.97565 90 144 131
-0.583598 0.806316 3.90733 82 145 135
1.46275 0.854674 4.13045 106 150 144
-1.83546 0.797961 3.83944 81 129 103
-0.852658 0.806927 3.89572 72 118 96
1.67327 0.855987 4.14014 97 133 133
-0.0368138 0.825161 3.96929 160 230 213
0.134137 0.830226 3.98763 187 244 219
-0.701682 0.816113 3.9109 170 224 211
-0.445398 0.818905 3.93097 73 106 99
-0.169003 0.825131 3.95875 84 144 133
0.138979 0.829374 3.97551 104 155 141
-0.548515 0.814146 3.90014 73 122 94
-0.52319 0.823157 3.92538 74 113 98
-0.693418 0.819526 3.90336 81 125 118
-0.211802 0.831539 3.95929 106 161 152
0.139142 0.837901 3.99406 91 141 139
1.85942 0.863855 4.10354 69 98 82
0.1097 0.838738 3.98426 107 149 142
1.84914 0.863685 4.10716 142 197 170
-0.680819 0.825894 3.91349 77 106 97
-0.0797453 0.83798 3.96599 62 120 102
0.107464 0.847368 3.98786 173 235 219
1.4665 0.876913 4.13065 105 167 167
-0.872066 0.82702 3.89202 171 240 213
-0.102805 0.842161 3.96301 162 241 197
-0.644075 0.832472 3.90291 72 109 93
-0.780918 0.834449 3.89934 84 128 115
-0.658008 0.837042 3.906 69 123 100
-0.569073 0.835098 3.90878 88 137 115
0.0689103 0.85209 3.98448 106 164 153
-0.3454 0.843615 3.93778 91 138 130
-0.772695 0.842986 3.90489 184 239 212
0.202907 0.86449 3.99548 166 246 209
-1.9018 0.832671 3.84241 83 138 119
-1.71063 0.83462 3.85188 75 124 102
-0.374672 0.852664 3.93944 74 130 117
-0.636489 0.847948 3.90662 91 156 134
-0.472541 0.856037 3.93851 84 130 117
2.06357 0.901965 4.15755 163 221 203
-0.236031 0.861159 3.95241 92 139 113
-0.11746 0.864817 3.96777 82 131 115
0.146723 0.873267 4.00166 127 164 168
1.40683 0.896931 4.11763 81 140 126
-0.741823 0.854323 3.90525 109 156 147
0.908547 0.831671 3.80186 177 247 206
-0.479837 0.862248 3.93505 165 226 212
-0.404936 0.862554 3.94574 99 159 141
1.41174 0.905748 4.13682 85 128 119
-0.00718689 0.872901 3.96976 80 125 116
0.00927736 0.874375 3.97745 76 138 126
0.179398 0.877036 3.9922 143 216 178
1.707 0.911971 4.152 192 238 226
-0.496633 0.868104 3.93624 91 144 130
0.244274 0.87127 3.94795 52 127 99
-0.831008 0.863807 3.90187 177 233 204
-0.757079 0.865293 3.91619 53 83 78
-0.223484 0.878787 3.96367 60 121 101
0.0199769 0.882591 3.98084 67 135 118
-0.94981 0.866088 3.90245 179 234 217
-0.516774 0.870348 3.92865 183 233 215
-0.0983763 0.882407 3.98129 96 151 132
0.00212983 0.881041 3.97717 170 235 220
0.634742 0.862596 3.88444 120 166 144
-0.753378 0.86896 3.90615 158 207 191
-0.162972 0.88332 3.96655 72 118 105
0.255911 0.88001 3.94867 60 125 103
-0.500016 0.8805 3.93474 181 227 221
0.145581 0.89464 4.00569 198 227 236
-0.934601 0.873668 3.90757 204 247 234
-0.717513 0.878714 3.91612 194 248 231
-0.45025 0.882036 3.94613 71 116 100
-0.738809 0.879007 3.91665 172 234 216
-0.238141 0.890739 3.9571 154 211 186
0.495125 0.887755 3.95373 73 120 111
-0.163801 0.892868 3.96788 171 228 213
-0.397639 0.894432 3.95169 91 145 132
0.209679 0.901022 3.9966 128 221 176
-0.719471 0.887569 3.91773 93 158 137
-0.708287 0.883004 3.91127 192 236 223
-0.425153 0.89272 3.94538 59 134 120
-0.277191 0.896772 3.95974 76 141 119
0.311709 0.892776 3.94562 61 115 98
-0.966984 0.88759 3.89733 62 106 89
-0.374302 0.89565 3.95246 188 239 231
1.43456 0.937872 4.13043 123 158 161
-2.40268 0.871957 3.83974 102 161 133
-1.11936 0.888115 3.89117 117 167 157
-0.513806 0.896361 3.94017 68 105 85
2.33462 0.961049 4.21216 113 165 158
0.162833 0.914173 4.00386 125 180 165
1.02352 0.863582 3.77726 153 241 195
-2.37685 0.874055 3.82411 148 205 180
-0.242759 0.906847 3.96047 99 159 125
-2.23626 0.881014 3.83533 77 135 117
-0.628485 0.897347 3.91686 163 232 212
0.341471 0.911738 3.97207 78 126 108
0.588663 0.888552 3.86841 68 99 84
0.597183 0.888352 3.86847 163 240 206
-0.366249 0.909434 3.95492 82 137 128
-0.336935 0.916768 3.95794 125 166 161
0.210954 0.926989 4.01298 38 88 70
0.609988 0.895132 3.87009 58 85 65
-0.829054 0.908104 3.91317 102 149 140
-0.667607 0.9042 3.91207 112 162 144
-0.476071 0.910716 3.9404 89 143 120
-0.747411 0.910397 3.91668 172 228 205
-0.16125 0.921931 3.97085 79 132 122
0.634589 0.900128 3.87786 162 236 188
-1.11418 0.907991 3.89404 107 160 151
-0.374944 0.921545 3.95275 186 238 228
-0.293319 0.922113 3.95507 83 132 118
0.355771 0.92579 3.9779 80 144 125
1.72009 0.969738 4.1568 94 141 132
-0.831943 0.916012 3.91417 193 238 221
1.40648 0.963715 4.12619 93 147 140
0.678335 0.907993 3.87861 107 143 131
1.63636 0.971561 4.14845 88 137 135
-0.870672 0.921996 3.91819 63 94 85
0.606956 0.906896 3.8646 181 235 192
1.6033 0.974944 4.14561 122 181 173
-1.02607 0.923068 3.90845 85 126 118
-0.961616 0.923829 3.91142 97 144 135
-0.898055 0.925172 3.9183 73 125 108
-0.853906 0.923742 3.92057 68 97 88
-0.762196 0.926901 3.92544 84 109 105
-0.0217848 0.941136 3.99016 71 138 129
0.875758 0.90141 3.82225 44 77 50
-0.756358 0.927179 3.92546 189 237 225
0.584482 0.912652 3.8551 62 110 84
-0.870896 0.926851 3.9111 150 206 185
0.668704 0.917481 3.86939 146 230 206
-0.430003 0.936515 3.94486 165 238 216
0.0844873 0.951814 4.01075 119 164 155
0.173541 0.951865 4.0023 193 240 232
1.31465 0.977281 4.12206 156 218 218
-0.827958 0.931527 3.91278 106 142 130
-0.519827 0.941192 3.94205 175 227 204
1.32336 0.981763 4.11779 89 148 144
1.74866 0.99101 4.15769 122 187 162
1.75647 0.988548 4.14523 76 135 121
-0.320162 0.944874 3.95742 167 232 216
0.915463 0.915758 3.82369 90 139 111
0.0956412 0.959887 4.00405 104 155 147
0.661761 0.934484 3.89146 76 122 110
0.665542 0.932202 3.88489 38 86 74
1.38649 0.987733 4.12407 87 134 126
1.66122 0.992674 4.14289 98 149 141
-0.951015 0.940107 3.90873 53 81 75
-0.448169 0.949822 3.94304 58 125 104
-0.131905 0.955325 3.97912 70 125 100
-0.0698001 0.962798 3.98786 51 99 70
1.2837 0.989331 4.11692 86 136 112
1.64982 1.00149 4.15513 157 213 202
-0.913941 0.945261 3.9137 91 135 122
-0.583242 0.948041 3.92766 76 131 104
-0.0793123 0.964585 3.98386 94 144 112
-0.033753 0.96227 3.97948 180 235 220
0.640842 0.938349 3.88085 150 194 181
1.39444 0.996703 4.12131 64 81 84
-0.734155 0.952379 3.93404 104 145 137
-0.145347 0.963986 3.97936 76 119 106
-1.65443 0.944371 3.8786 105 164 144
-0.239197 0.96772 3.98001 78 143 121
-0.881535 0.953428 3.91685 91 145 115
-0.870325 0.951349 3.91416 58 97 76
-2.28923 0.94123 3.85687 82 147 132
-0.741553 0.959653 3.92913 196 249 236
-0.182343 0.970879 3.97556 168 235 206
-0.685949 0.966257 3.93572 194 229 219
-0.498463 0.96449 3.9431 205 245 234
-1.05 0.960744 3.91002 76 137 117
-0.362859 0.97129 3.95782 68 123 114
-0.129371 0.97752 3.97973 175 242 215
1.71167 1.01951 4.15659 90 167 140
1.80777 1.02169 4.14708 174 237 197
-0.956182 0.967995 3.92001 106 153 144
-0.579113 0.969343 3.93123 105 154 132
0.380736 0.985275 3.98452 189 247 229
1.36458 1.01654 4.11889 173 225 215
-0.567773 0.973285 3.93602 91 120 104
0.0358975 0.994207 4.00546 112 167 148
-0.223999 0.985184 3.97103 104 155 141
-0.768045 0.9786 3.93263 104 138 132
-0.543007 0.979073 3.93551 75 120 94
-0.0633393 0.995292 3.99396 80 102 84
-0.883299 0.977712 3.91669 157 231 203
0.610657 0.962554 3.85234 52 75 61
-1.25457 0.973197 3.8937 62 123 97
0.242752 1.00689 4.01972 58 99 92
-0.0334227 0.999879 3.9868 200 247 238
-1.12418 0.985504 3.90816 131 165 155
-0.667841 0.993039 3.94001 102 138 124
-0.906615 0.989228 3.92691 189 255 214
-0.785207 0.993712 3.93183 93 149 144
-0.163556 1.00197 3.9767 187 237 227
-0.19366 1.00874 3.97882 72 120 96
0.00688512 1.01037 3.99199 160 216 203
0.643706 0.981574 3.87757 125 181 168
-0.917533 1.00011 3.92538 156 230 188
-0.890663 1.00204 3.92392 187 241 228
0.653815 0.989075 3.87707 16 37 29
1.34759 1.05057 4.11993 82 144 130
-1.0965 1.00104 3.91023 93 140 124
-0.362128 1.01171 3.966 99 161 147
0.228407 1.02646 4.01659 78 134 121
1.59435 1.05846 4.13704 112 168 157
-0.995729 1.00451 3.92186 169 233 197
-0.634858 1.01055 3.93953 76 123 115
0.625882 0.989868 3.86554 133 189 170
-0.98699 1.00685 3.91677 77 128 101
0.618939 0.997038 3.87154 76 106 95
0.628729 0.999371 3.88401 165 200 180
1.92444 1.08005 4.18435 186 231 222
-0.694963 1.01602 3.93598 111 176 160
-0.500095 1.01964 3.95089 158 232 204
-0.992791 1.01886 3.94022 86 146 128
0.0513049 1.03534 4.00077 69 112 91
-0.0854971 1.03787 3.99638 83 157 121
0.626288 1.00543 3.87442 33 73 62
-0.829793 1.02213 3.92905 96 159 139
0.0866966 1.04258 4.01464 105 158 145
0.553035 1.01563 3.90545 77 149 137
-1.46537 1.01583 3.89317 66 117 97
-0.159339 1.04174 3.99265 96 140 133
-0.590122 1.03083 3.94347 178 225 209
-0.534596 1.03587 3.96358 69 110 102
-0.498438 1.03371 3.94935 161 223 199
0.627741 1.01145 3.86711 174 238 219
-0.554578 1.03121 3.94079 110 156 144
-0.446751 1.03576 3.96112 83 126 99
0.642313 1.02115 3.88704 54 101 85
-0.482216 1.04383 3.96275 188 239 219
0.0166392 1.05132 3.99845 86 144 120
0.29921 1.06207 4.04283 68 90 96
0.408144 1.05247 4.01239 168 229 215
1.74838 1.09538 4.16599 142 214 178
-0.598745 1.04031 3.94747 78 121 94
-0.579891 1.04286 3.95445 76 96 91
-0.18396 1.05543 3.99874 68 116 92
0.283363 1.06321 4.03092 87 136 128
-0.447928 1.04811 3.9637 177 233 210
0.318842 1.06618 4.03363 217 243 243
0.749378 1.01899 3.86189 149 216 184
-1.08604 1.03983 3.91771 80 132 122
-0.550831 1.05054 3.95421 161 233 210
0.277843 1.071 4.03057 185 234 232
-0.869241 1.04505 3.93208 88 140 117
-0.264417 1.06217 3.98236 162 225 209
-0.409668 1.05982 3.97602 112 165 151
-0.716376 1.05405 3.95043 65 99 88
-0.639667 1.05743 3.94738 143 187 170
-0.270991 1.0596 3.97045 68 111 96
-0.862124 1.0547 3.93486 167 243 201
-0.639151 1.05727 3.94707 155 203 185
-0.354744 1.06314 3.96904 80 150 133
-0.264727 1.07268 3.99113 78 131 118
-0.237199 1.07136 3.9829 68 146 129
0.0497661 1.07853 4.01327 73 131 102
0.0247885 1.07857 4.0028 161 244 205
0.0765602 1.08756 4.0173 90 140 116
0.0865058 1.08694 4.02308 132 167 157
0.126045 1.08639 4.0224 174 237 221
0.0774123 1.08264 4.00781 81 123 105
0.262847 1.08958 4.02836 109 140 133
0.438148 1.09884 4.01908 162 217 200
0.309151 1.10343 4.03506 145 167 165
1.3014 1.13738 4.12978 80 137 129
1.40626 1.14654 4.14124 92 158 157
-0.837354 -1.55391 3.52201 94 168 140
-0.328726 -1.51345 3.46323 69 106 96
-1.31562 -1.5098 3.47398 90 139 111
-0.25694 -1.51214 3.47705 45 84 68
-0.119271 -1.56144 3.59609 209 247 235
-1.25542 -1.50543 3.48533 107 155 126
-0.161117 -1.55099 3.58583 107 163 152
-1.2307 -1.50186 3.48282 97 152 125
-0.169322 -1.54235 3.582 56 64 57
-0.139981 -1.53966 3.58974 76 109 95
-0.253058 -1.49197 3.49354 47 54 47
-1.46787 -1.47703 3.46516 89 163 139
0.0666166 -1.54343 3.62144 102 176 164
-1.36539 -1.47339 3.46916 87 141 128
-0.265871 -1.48721 3.49954 138 185 169
0.130224 -1.53847 3.61632 88 139 125
0.82983 -1.5741 3.70317 109 159 149
-1.12842 -1.48276 3.50187 84 167 129
-0.868193 -1.49657 3.53596 70 127 102
0.711499 -1.5476 3.68411 100 150 146
-0.764553 -1.48461 3.54726 67 113 91
-0.714321 -1.48068 3.53401 62 94 77
-0.30854 -1.45141 3.46566 130 165 145
-1.48978 -1.44196 3.46007 92 166 130
-0.260238 -1.45933 3.49472 152 188 172
-1.06883 -1.45488 3.51395 70 108 96
-0.695873 -1.47162 3.56015 50 131 86
-1.5069 -1.43065 3.47801 84 173 140
-0.116849 -1.48564 3.61432 169 220 206
0.553552 -1.51064 3.67995 200 245 236
0.788641 -1.51404 3.69309 107 142 138
-0.398824 -1.39034 3.42111 78 115 111
0.130775 -1.48202 3.63813 124 183 175
0.553591 -1.49786 3.67879 88 135 126
0.903073 -1.51633 3.72054 102 156 143
-1.27206 -1.41336 3.48455 81 136 103
-0.966314 -1.42639 3.52593 109 165 144
0.641424 -1.49081 3.68266 88 150 134
-0.338777 -1.38131 3.43248 99 118 109
-0.334234 -1.37976 3.43761 42 52 39
-1.2527 -1.40049 3.4958 68 124 83
-1.54663 -1.38902 3.4752 72 134 110
-0.905063 -1.40677 3.53958 108 185 158
-0.351554 -1.36322 3.42838 47 74 70
-0.334283 -1.35886 3.4243 155 208 198
-0.377322 -1.35196 3.41968 140 209 189
-1.21399 -1.38125 3.50593 79 127 103
-0.603809 -1.40268 3.56335 68 125 110
-1.19518 -1.38148 3.51745 80 124 111
-0.363216 -1.34296 3.42223 53 82 73
-1.56488 -1.36256 3.48287 76 128 118
-0.310482 -1.34792 3.43958 103 158 143
-0.680007 -1.38739 3.5615 93 162 147
-0.335419 -1.34073 3.43465 56 80 70
-0.133771 -1.40599 3.62352 112 158 146
-0.380102 -1.32396 3.41839 192 244 220
-0.30621 -1.33635 3.44782 108 136 113
-1.39645 -1.35097 3.48887 83 148 122
-0.379626 -1.32369 3.41553 181 243 221
-1.60276 -1.33011 3.47184 94 173 146
-0.71743 -1.36752 3.5663 110 179 166
-1.76789 -1.32639 3.46914 107 169 157
-1.45858 -1.32779 3.4955 93 150 141
-1.17274 -1.33724 3.52126 75 112 96
-0.384921 -1.3031 3.45161 65 102 92
-1.59436 -1.31357 3.47991 101 163 145
-0.162671 -1.36137 3.62084 143 202 194
0.774884 -1.39264 3.71012 128 171 162
-1.68859 -1.30242 3.47751 96 148 131
-1.58027 -1.30242 3.48143 90 122 111
-1.20797 -1.30807 3.5171 78 152 124
