ply
format ascii 1.0
element vertex 688
property float x
property float y
property float z
property uchar blue
property uchar green
property uchar red
end_header
1.27763 0.249494 4.736 149 216 179
1.43589 0.400459 4.33715 34 62 49
0.0129487 0.150598 5.36841 73 135 119
1.3657 0.200067 4.71484 156 199 162
0.0859668 -1.43418 5.24802 77 115 103
-0.534802 -0.954751 5.38463 230 251 249
0.270543 -0.87013 5.24183 127 179 162
0.234004 -0.781667 5.2677 122 165 154
1.35164 -0.526835 5.10337 93 136 125
2.0457 -0.382432 5.07401 82 111 102
0.820138 -0.369586 5.21282 110 163 150
2.6184 -0.335841 4.98065 88 146 128
0.396366 -0.336041 5.26206 112 156 150
1.53866 -0.324005 5.11823 121 178 169
0.49117 -0.281908 5.26056 119 160 152
0.902905 -0.270717 5.24975 119 182 166
2.276 -0.198053 5.05575 93 142 134
1.22679 -0.175775 5.21866 86 129 118
2.82483 -0.117537 5.00469 151 224 174
1.24239 -0.00418498 5.1978 104 161 152
0.301332 0.0398244 5.30492 102 150 132
0.496582 0.133129 5.34031 186 218 213
-0.110495 0.159816 5.40879 86 132 109
1.93239 0.163849 4.81415 142 195 185
-0.0860206 0.204989 5.42968 105 158 149
1.05393 0.225665 5.3089 148 190 189
0.0266994 0.227158 5.38347 113 154 133
1.73766 0.215069 4.81039 159 216 191
1.09204 0.26127 5.2976 89 122 101
1.33073 0.261194 4.78751 140 203 164
1.32937 0.259523 4.78114 135 196 160
1.23496 0.269605 4.82245 157 194 156
-0.958668 0.362509 5.5334 96 146 134
-0.0277421 0.384115 5.43779 72 108 91
1.97335 0.389626 4.91364 47 80 53
0.887952 0.428075 5.37031 99 156 147
-0.00801138 0.473869 5.43261 146 216 180
0.88652 0.47954 5.38294 84 137 123
1.04587 0.633177 5.28643 161 199 171
1.643 0.626216 4.82335 112 162 128
1.2088 0.67923 5.10228 115 169 139
0.953529 0.765514 5.44953 143 187 170
-2.91067 0.87488 5.72183 140 180 168
0.424332 0.926339 5.53614 123 177 170
-1.9285 0.96938 5.77777 104 137 130
1.9175 1.20254 5.08878 74 123 109
1.75484 1.27902 5.13684 53 72 51
1.74215 1.56477 5.4135 154 219 193
1.30449 1.84385 5.73258 41 79 57
2.48195 1.88209 5.62034 91 133 108
1.98621 -1.8567 5.06191 87 125 119
0.157751 -1.64217 5.25828 102 145 134
-0.147641 -1.51444 5.32283 85 127 116
0.251289 -1.3972 5.22412 141 191 179
0.308649 -1.40308 5.23186 106 137 130
0.135822 -1.36778 5.24553 162 221 207
0.0877264 -1.3553 5.24231 114 157 148
-1.0478 -1.24551 5.43423 84 153 126
1.18211 -1.06384 5.07064 138 210 197
0.533701 -0.976701 4.97863 86 124 106
1.44686 -0.943291 5.0683 82 145 136
-0.535168 -0.95471 5.38938 233 252 249
1.4954 -0.799716 5.08106 100 142 131
-2.79285 -0.86455 5.57358 92 134 117
1.40396 -0.716077 5.06402 121 170 154
-1.6909 -0.60082 5.55612 147 204 205
1.29873 -0.545423 5.10701 90 117 114
1.27449 -0.529035 5.07962 168 218 206
1.58037 -0.526469 5.07578 111 153 142
0.789472 -0.487516 5.19733 118 167 159
2.20605 -0.470069 5.0354 89 129 118
0.992748 -0.42247 5.1853 105 148 145
1.76798 -0.413373 5.09151 100 163 154
-1.56344 -0.444366 5.53909 98 132 132
2.02801 -0.386609 5.04008 83 129 117
2.93928 -0.367952 4.95226 95 150 133
-0.292768 -0.393483 5.37874 223 249 249
1.12897 -0.375274 5.19472 86 158 145
1.17864 -0.350226 5.13404 80 144 125
1.74609 -0.347528 5.1042 101 154 144
0.495819 -0.337776 5.22863 153 203 193
2.179 -0.327824 5.06728 107 134 125
0.954988 -0.303765 5.19416 170 217 209
1.93163 -0.286602 5.09844 100 142 135
0.47567 -0.284802 5.26273 163 208 205
-1.7928 -0.290721 5.52001 92 123 132
0.902077 -0.270749 5.24959 119 184 168
2.17789 -0.223463 5.07246 126 160 160
-3.04926 -0.216039 5.61178 95 140 123
1.22531 -0.177043 5.2106 91 131 120
-0.999739 -0.157004 5.47875 164 221 213
-1.54889 -0.125941 5.56374 110 166 161
2.45133 -0.101325 5.08562 77 148 132
0.177699 -0.0397419 5.32645 190 233 220
-1.08912 -0.0268666 5.56217 149 192 183
-0.331902 -0.00771939 5.41062 122 169 161
1.24239 -0.00418498 5.1978 104 161 152
0.924437 0.0123584 5.26514 101 160 152
2.86391 0.018861 5.02632 175 221 209
0.936948 0.0466489 5.24288 93 152 144
0.490251 0.0576299 5.28282 126 185 171
2.46177 0.0719044 5.13315 106 158 151
-1.32022 0.0815274 5.56532 137 133 122
0.982288 0.0779242 5.24081 108 158 148
-0.217735 0.104161 5.41574 100 175 159
-0.0668051 0.116182 5.38915 160 212 202
0.535805 0.147544 5.31759 140 186 174
1.84912 0.153037 4.77878 154 236 207
1.95213 0.149346 4.78918 93 149 130
0.199175 0.196742 5.35445 105 146 139
1.4066 0.179191 4.75908 50 84 54
2.46857 0.208194 5.08159 141 208 169
0.76501 0.241515 5.32769 107 169 157
2.44561 0.226225 5.04068 145 215 184
0.0655593 0.252745 5.39158 160 227 196
-0.0365048 0.259539 5.4016 82 130 112
1.03796 0.27505 5.33512 168 215 219
2.42491 0.279013 5.03996 129 175 153
0.348494 0.306638 5.41271 85 147 123
1.11315 0.304764 5.28298 118 184 149
1.05924 0.316951 5.27761 146 230 182
1.98352 0.291975 4.89934 134 171 145
0.0820031 0.331094 5.41789 143 211 188
0.052967 0.346997 5.40788 99 163 133
1.12433 0.34315 5.25178 111 156 113
1.11203 0.364252 5.24873 63 85 56
1.10455 0.379313 5.25291 102 146 109
1.09629 0.39827 5.26722 45 76 45
0.0506038 0.429004 5.39893 112 160 136
0.0529733 0.437983 5.43279 84 153 116
1.91585 0.415868 4.90017 159 229 188
0.903807 0.495697 5.39626 157 213 202
2.2215 0.473121 5.09645 66 96 77
-1.41649 0.534293 5.6393 115 152 142
2.23881 0.482536 5.12889 40 53 37
1.06777 0.518273 5.22236 93 114 89
0.119077 0.553084 5.36726 60 101 86
-0.170436 0.622402 5.49823 87 154 139
0.847209 0.638844 5.45397 156 211 214
0.746213 0.648281 5.49276 81 132 125
1.39932 0.585492 4.91232 98 140 115
-2.83058 0.691655 5.7483 121 173 156
1.04667 0.63225 5.28338 129 171 140
1.08939 0.639925 5.31676 137 166 141
1.03457 0.643748 5.26985 67 93 80
1.38507 0.64761 5.04698 91 113 89
1.63704 0.626391 4.81725 117 168 134
0.706414 0.741086 5.48151 123 172 164
1.68932 0.666568 4.79777 130 166 149
1.25291 0.714822 5.08047 53 72 53
0.389557 0.881658 5.53183 86 146 136
1.25227 0.801565 4.96189 76 120 97
3.28938 0.886378 5.29299 129 186 171
0.25324 0.943758 5.54665 100 145 118
-1.16412 0.976332 5.65846 128 176 177
2.39207 0.91572 5.17082 158 220 184
-0.281636 1.03199 5.65929 167 221 214
-0.0437375 1.04315 5.62581 91 136 120
2.45444 1.08506 5.28876 77 131 124
-0.300857 1.2801 5.7398 97 155 144
-1.07038 1.37787 5.83797 132 165 161
-0.644544 1.39212 5.85349 101 154 144
0.847819 1.45129 5.71962 136 185 177
1.06157 1.75479 5.82175 174 215 217
1.23888 1.81828 5.73977 50 76 60
1.1322 1.86608 5.83826 51 96 77
1.19155 1.86406 5.81489 146 210 168
1.43249 1.85977 5.62523 101 148 122
2.37112 1.89998 5.68171 59 99 71
1.64596 1.92879 5.7472 151 212 178
1.33027 -2.01413 5.10947 119 162 159
-2.00958 -2.21293 5.6399 133 200 173
2.10986 -1.93252 4.98301 64 102 84
-1.86074 -2.14057 5.58504 97 136 128
0.60013 -1.8653 5.19469 184 221 217
0.633116 -1.84155 5.20097 109 135 122
-0.641802 -1.76645 5.37972 173 223 211
0.182355 -1.71356 5.24197 100 157 148
0.158066 -1.64284 5.26153 102 145 134
0.0346955 -1.62311 5.28453 88 144 131
1.90733 -1.53919 5.02521 94 156 142
1.87646 -1.50461 5.01658 103 162 148
0.132943 -1.52969 5.22286 83 130 114
0.160399 -1.4658 5.16541 144 204 180
2.25634 -1.39874 4.93344 85 151 140
2.31164 -1.38723 4.93153 93 150 142
0.219387 -1.44103 5.20126 156 194 172
0.30486 -1.43533 5.18102 89 120 111
0.347743 -1.44191 5.25571 107 147 136
0.246575 -1.42474 5.23195 80 106 93
-0.477981 -1.44675 5.35359 116 178 164
0.305068 -1.40411 5.20439 92 114 102
-0.000281763 -1.42425 5.31401 92 135 122
-2.88033 -1.466 5.6054 104 169 153
0.222527 -1.36184 5.27132 84 134 116
1.9936 -1.19948 4.99791 72 140 139
-0.000793672 -1.23643 5.27694 103 160 145
-1.42126 -1.2411 5.43467 92 129 119
-1.55145 -1.19583 5.48398 86 108 114
-0.270068 -1.08357 5.33836 97 150 137
2.93955 -0.931713 4.84697 99 156 141
0.301548 -0.931684 5.26025 79 125 112
0.673431 -0.90307 5.11972 145 198 188
0.295023 -0.899099 5.23743 103 159 146
-1.53154 -0.912965 5.48057 108 173 158
1.50558 -0.833232 5.05731 69 119 107
0.18991 -0.851105 5.27733 138 210 190
0.266295 -0.807769 5.27714 107 166 138
1.32216 -0.750754 5.01271 103 156 142
1.42288 -0.767539 5.13129 60 102 85
1.27597 -0.711357 5.09932 94 150 137
1.381 -0.698332 5.10902 145 211 200
1.45067 -0.693864 5.06563 56 70 59
1.38484 -0.651474 5.09108 127 186 172
0.443261 -0.615997 5.2293 120 173 164
0.380537 -0.564812 5.25506 111 163 156
-1.69209 -0.582074 5.52169 76 128 121
-3.08384 -0.571046 5.60851 110 170 152
1.51179 -0.505865 5.10393 64 89 75
1.78511 -0.509044 5.08104 99 146 138
0.876979 -0.493744 5.18481 105 149 143
-1.21424 -0.482973 5.44833 111 153 142
0.795835 -0.442245 5.20351 131 156 158
1.47091 -0.421514 5.09817 99 135 129
-1.56435 -0.443834 5.54434 99 133 132
0.380748 -0.395514 5.27738 114 148 138
-0.292905 -0.393263 5.38069 223 249 249
1.89129 -0.363795 5.04225 110 163 149
0.946322 -0.358498 5.20624 110 161 154
1.92628 -0.358814 5.12328 84 123 115
-3.07259 -0.37361 5.54682 109 154 135
0.453823 -0.359433 5.28793 89 126 118
2.54889 -0.339732 5.00238 92 136 135
1.84391 -0.336145 5.07783 109 158 150
0.937658 -0.311586 5.20663 127 181 168
1.84765 -0.298984 5.10522 84 146 134
0.464929 -0.27237 5.27707 113 143 138
0.489629 -0.273495 5.23807 121 169 163
-2.39976 -0.265756 5.37773 84 129 110
1.98438 -0.231308 5.12829 57 100 97
2.8153 -0.19552 5.0056 130 166 160
1.33058 -0.167219 5.1798 92 156 137
0.404225 -0.15109 5.2782 110 172 160
0.965639 -0.142619 5.19465 111 153 142
-1.01197 -0.146938 5.46532 105 151 138
0.428745 -0.110737 5.316 101 167 148
-2.33001 -0.102736 5.44639 136 206 183
0.101618 -0.10289 5.32714 113 165 158
-2.26908 -0.0722777 5.51347 70 109 94
1.00413 -0.073545 5.24112 97 147 145
2.73565 -0.0602482 4.99652 109 170 144
-3.06851 -0.0638235 5.65143 108 155 133
2.90631 -0.0605129 5.00343 113 156 143
-1.41009 -0.0395122 5.61045 96 120 112
0.912871 -0.0398392 5.24773 103 172 152
2.3791 -0.00982446 5.057 114 143 140
2.87216 -0.0115263 4.99969 92 145 112
0.92559 0.0132435 5.26972 109 166 158
1.21541 0.022095 5.20753 99 155 144
1.22341 0.029107 5.2433 80 127 119
0.061507 0.0483523 5.35332 107 155 143
2.91777 0.0476926 4.99938 93 129 107
-2.66494 0.0553043 5.59715 94 150 129
-2.6948 0.0678746 5.66376 114 167 154
0.196778 0.0654183 5.37433 103 135 130
1.17439 0.064189 5.23064 75 100 90
0.983359 0.0811704 5.2431 117 164 155
-0.217442 0.105265 5.42114 100 175 159
-3.31708 0.128585 5.63611 99 127 121
-1.51291 0.128462 5.59068 107 137 126
-3.31585 0.132869 5.64395 119 146 137
0.812504 0.127384 5.30267 111 168 160
0.425014 0.144155 5.32698 182 239 218
-0.455719 0.160518 5.46285 117 174 166
1.95226 0.150801 4.79673 68 129 109
1.92049 0.153438 4.79333 162 225 209
-1.69984 0.196331 5.5996 136 184 178
0.264104 0.181494 5.35475 166 225 205
2.43131 0.174318 5.09002 75 115 90
-1.56247 0.209709 5.60332 108 130 125
0.373529 0.207622 5.37296 99 137 131
-0.402117 0.22232 5.4543 83 139 128
0.0116407 0.220683 5.36735 150 214 184
1.04906 0.219694 5.29584 158 210 210
-0.246886 0.234046 5.47858 99 151 141
2.32665 0.215211 5.03457 97 162 146
-2.37103 0.24578 5.62183 85 115 104
0.926666 0.241603 5.29333 98 157 143
-3.45598 0.27337 5.65218 113 151 139
-0.407457 0.266554 5.47131 112 158 146
0.639107 0.26194 5.3972 90 134 128
-2.24858 0.278939 5.66228 103 152 138
-1.70063 0.279628 5.59857 102 157 148
2.38241 0.256 5.08968 142 219 185
-1.78543 0.283455 5.60317 100 132 121
0.0707192 0.282968 5.3888 88 120 109
0.791187 0.283469 5.31981 92 135 120
-2.25774 0.306842 5.72342 84 141 126
0.528842 0.287563 5.3554 155 208 195
-0.680997 0.308631 5.48586 102 146 133
1.07922 0.290219 5.27082 62 95 88
-0.282068 0.321391 5.47134 80 131 117
0.0564013 0.308908 5.41364 95 136 115
1.66692 0.284277 4.83047 50 89 67
-0.690815 0.322663 5.54479 99 154 135
0.0823325 0.330287 5.41459 139 206 185
0.0847371 0.331115 5.41788 158 220 204
2.41421 0.31703 5.07805 138 213 181
1.91697 0.337874 4.9173 41 60 45
-1.24711 0.401526 5.53799 127 179 169
1.10695 0.381846 5.26254 96 137 100
1.93913 0.376784 4.89132 100 160 130
3.1473 0.393631 5.13134 100 150 138
-0.710254 0.428036 5.52942 115 168 159
0.0537976 0.428156 5.39562 86 141 114
-0.01418 0.431123 5.4195 169 222 195
2.35649 0.399683 5.01148 29 60 51
0.410619 0.446521 5.45528 75 127 104
1.10307 0.42954 5.23112 129 164 137
0.311815 0.451586 5.42012 98 137 129
2.27819 0.424883 5.00878 139 199 139
-1.45594 0.483471 5.62213 99 159 149
-0.0320522 0.481532 5.42086 95 137 130
0.852607 0.476409 5.40556 117 161 160
1.89273 0.431208 4.8951 73 108 94
1.92994 0.430109 4.89379 74 128 98
1.07693 0.47273 5.23634 127 176 132
2.29928 0.453289 5.00411 46 105 74
1.39606 0.437667 4.73831 72 90 59
2.475 0.467249 5.0754 106 150 149
1.0699 0.521762 5.23437 78 98 75
0.907879 0.537473 5.40255 141 185 184
-2.37085 0.610265 5.69981 121 177 164
3.11582 0.562281 5.21095 95 149 136
1.065 0.575525 5.26423 98 116 85
2.55473 0.563652 5.12938 89 120 113
0.860184 0.606618 5.43605 73 98 84
0.958941 0.615063 5.42482 104 141 131
0.054742 0.61533 5.3987 158 223 201
1.05554 0.617814 5.26026 110 146 129
0.703519 0.65415 5.46358 109 171 159
-2.83295 0.693979 5.75617 110 163 149
-0.0216066 0.719859 5.50007 75 108 87
-2.12173 0.759533 5.74104 112 162 144
1.19804 0.674985 5.0612 111 159 130
0.938289 0.742744 5.43952 67 108 93
0.902661 0.76547 5.48339 79 128 114
-0.356624 0.786429 5.58854 109 153 136
0.00186303 0.782234 5.53368 86 115 100
1.16792 0.707063 5.03741 55 74 47
1.17534 0.711352 5.04991 80 113 76
-0.115877 0.796797 5.54518 166 225 194
1.76976 0.687048 4.81234 95 150 117
1.7497 0.721632 4.85263 120 129 108
-0.100105 0.831941 5.53267 71 116 100
0.914149 0.838216 5.49248 68 105 95
2.5049 0.792767 5.19087 130 189 169
0.283475 0.862502 5.53467 139 190 170
0.852179 0.849513 5.43073 99 136 132
-1.27581 0.900009 5.68503 138 197 177
1.10178 0.811144 5.05762 53 77 59
0.153886 0.952729 5.57906 171 221 209
0.990308 0.935316 5.50706 124 165 150
-1.16481 0.978387 5.66433 115 165 165
1.21745 0.867815 5.0284 161 215 180
-0.294468 1.00031 5.67542 102 159 144
0.0670065 0.985673 5.58645 144 234 191
-1.14823 1.02458 5.65427 120 176 165
0.0706893 1.02548 5.64138 76 136 102
0.570709 1.04968 5.58628 116 167 163
1.21472 0.99772 5.09946 66 78 66
1.31472 0.966249 4.93691 69 105 69
-2.65692 1.15439 5.81604 109 135 129
0.306555 1.14111 5.64834 104 156 149
2.45702 1.08689 5.29337 77 131 124
1.23057 1.03493 4.93876 77 103 87
0.860261 1.24188 5.63674 130 148 147
-0.300809 1.2816 5.74356 96 156 145
-0.210823 1.29517 5.69901 84 131 115
1.85914 1.16383 5.04594 165 225 214
1.90144 1.18931 5.06627 93 138 119
-1.74632 1.37988 5.86598 119 148 139
0.878449 1.43377 5.72743 125 161 149
0.851083 1.46005 5.74006 139 192 183
3.31341 1.40373 5.51055 109 169 151
0.908443 1.55673 5.75441 120 152 141
0.110686 1.64477 5.81908 108 144 132
0.770436 1.6758 5.8209 141 200 185
1.73827 1.55947 5.40232 128 186 161
0.83606 1.69171 5.81966 120 172 162
-0.822146 1.72898 5.928 133 164 161
1.14728 1.73859 5.74815 104 123 106
0.738043 1.7859 5.88623 97 143 131
1.24467 1.70267 5.59869 33 54 32
2.88669 1.72155 5.67179 127 169 168
1.12577 1.79672 5.84515 115 129 127
0.96167 1.82507 5.86591 128 168 167
-0.808509 1.86088 5.97409 125 154 151
1.28727 1.80113 5.71696 121 200 157
1.93003 1.85474 5.64977 101 177 143
1.10851 1.90111 5.79216 75 120 103
0.313919 1.93977 5.89154 105 168 158
1.33281 1.87469 5.65026 61 81 58
1.07091 1.91754 5.77265 157 221 185
2.20024 1.86459 5.60876 82 102 83
1.02545 1.99504 5.95226 190 234 228
1.648 1.93158 5.75267 161 227 186
1.95047 1.9554 5.74992 59 109 85
1.7058 1.94817 5.67935 115 163 137
1.97234 1.96926 5.73599 140 232 185
1.07961 2.04803 5.90257 148 221 189
-1.41806 2.14861 6.05412 137 175 179
0.530982 -2.1047 5.21794 93 145 122
0.58156 -2.09637 5.26301 88 134 121
-1.82774 -2.18494 5.55432 84 116 111
1.46217 -1.87336 5.06707 106 149 136
2.58429 -1.75834 4.86733 102 151 135
0.590783 -1.8534 5.16517 159 203 196
1.95203 -1.7614 4.97913 68 93 83
1.93001 -1.74039 4.97713 98 147 133
0.642187 -1.78261 5.20948 97 153 142
-0.785727 -1.79372 5.38878 112 149 139
-1.1431 -1.72205 5.45157 104 159 144
-1.70745 -1.68132 5.50393 99 144 127
1.35867 -1.51251 5.07328 93 132 130
-2.56469 -1.67335 5.75123 89 118 102
0.170727 -1.49475 5.19154 103 135 124
-2.72404 -1.60445 5.67391 132 182 172
0.142881 -1.43883 5.24496 71 88 67
0.338384 -1.43939 5.24607 111 146 136
-0.0303881 -1.44296 5.32324 106 156 146
-1.95209 -1.49307 5.52986 104 170 159
0.00511685 -1.43323 5.3211 105 145 127
0.303598 -1.40419 5.20523 97 119 107
-2.843 -1.49178 5.64269 89 141 123
0.113017 -1.37624 5.28016 171 227 214
1.84924 -1.27916 5.01861 82 143 123
0.0880168 -1.33238 5.26479 106 156 146
0.319984 -1.28616 5.22415 99 155 144
-1.42119 -1.24103 5.433 92 129 119
-0.438249 -1.22158 5.34363 115 161 155
-1.4644 -1.21871 5.46836 88 131 118
1.18737 -1.07796 5.06588 92 135 122
-0.2336 -1.02338 5.34392 94 146 136
0.288639 -0.898972 5.26178 132 195 185
0.262591 -0.874184 5.21264 140 198 187
1.53346 -0.792276 5.04866 65 93 70
-1.61406 -0.815611 5.48142 114 148 138
1.33981 -0.74743 5.07968 101 153 136
0.219353 -0.764768 5.2543 156 207 199
-1.62823 -0.783139 5.48169 97 133 121
-1.79049 -0.760456 5.52721 117 150 146
1.42269 -0.688067 5.08645 106 156 146
1.35931 -0.619678 5.07757 88 122 115
0.446682 -0.615049 5.24187 123 176 167
0.449679 -0.584175 5.16373 64 97 83
1.37065 -0.580537 5.12231 180 215 218
1.71262 -0.565126 5.02159 166 214 208
0.127056 -0.561035 5.23349 83 122 107
0.82129 -0.55906 5.20255 97 146 144
0.373554 -0.556894 5.2255 132 184 177
2.07548 -0.525366 5.00103 134 181 173
-1.60276 -0.558714 5.51084 89 134 125
0.133256 -0.522221 5.19258 111 171 153
1.29133 -0.517618 5.074 88 116 110
1.44837 -0.505722 5.16647 126 191 176
0.666553 -0.493516 5.19849 73 117 104
2.20438 -0.470022 5.03444 96 138 127
1.19978 -0.471563 5.1185 61 95 78
-1.53043 -0.49454 5.55046 97 126 110
-1.21273 -0.483957 5.43066 100 146 134
1.28004 -0.456165 5.0942 62 86 76
-2.61031 -0.48155 5.46309 96 145 129
-2.92561 -0.483357 5.61863 79 123 100
0.36137 -0.453003 5.24551 186 225 223
1.22251 -0.438654 5.12869 154 206 199
2.34195 -0.40976 5.00022 96 149 139
0.186773 -0.423544 5.29267 96 121 107
-0.225629 -0.417403 5.32272 77 136 116
0.467859 -0.408174 5.25158 101 172 155
0.373354 -0.397334 5.23732 102 143 128
1.53912 -0.367928 5.10231 70 84 73
2.43633 -0.370248 4.99961 107 161 144
1.91921 -0.356077 5.10296 89 128 120
-2.36685 -0.379916 5.44903 87 135 129
0.48853 -0.354555 5.27844 151 198 196
0.343576 -0.346494 5.22139 84 94 88
0.454142 -0.354981 5.24103 89 126 118
0.624833 -0.320702 5.19011 75 95 82
1.29314 -0.325446 5.14883 75 116 108
1.29219 -0.325311 5.14998 80 121 113
0.30374 -0.323228 5.27046 91 138 130
0.705626 -0.314479 5.23277 90 148 124
1.32 -0.30832 5.15022 54 73 56
1.32392 -0.308037 5.15202 50 65 51
1.24262 -0.304775 5.09442 122 201 180
-2.22871 -0.291006 5.41076 163 229 210
-1.79374 -0.290125 5.51479 95 124 133
-2.10665 -0.275458 5.47597 147 209 191
0.564988 -0.256457 5.28101 119 157 145
1.9681 -0.230639 5.11263 64 110 104
1.22698 -0.218501 5.19553 159 220 210
0.0214862 -0.214639 5.34093 111 166 157
-2.44418 -0.194348 5.42657 213 247 240
2.05087 -0.175222 5.06267 146 208 192
-2.77215 -0.178007 5.6085 97 123 109
0.957915 -0.134109 5.21695 104 142 136
2.03609 -0.1306 5.06986 87 126 118
1.03264 -0.112794 5.2204 110 167 159
2.78623 -0.110338 4.98436 83 124 93
1.0071 -0.104644 5.31643 137 196 188
-2.93547 -0.100746 5.6144 84 126 108
2.93966 -0.0520236 5.05142 117 167 157
2.74771 -0.0524332 5.0267 129 184 157
1.27276 -0.0358402 5.22346 87 129 118
2.2318 -0.0296884 5.04506 114 176 164
-2.00367 -0.0150692 5.54055 104 145 140
-1.39933 -0.00707914 5.50777 154 215 201
0.162405 -0.0121683 5.3399 94 129 115
2.89402 -0.00187634 5.0549 99 166 134
-1.59216 -0.00517394 5.51939 99 143 130
0.102538 -0.00223578 5.36075 116 157 149
1.25546 -0.0103153 5.20102 161 213 213
-2.04471 0.0167258 5.60186 90 146 135
2.58373 0.0102668 5.05771 83 129 116
-3.39541 0.0313258 5.66459 119 177 159
-1.47015 0.0244376 5.50427 113 152 137
0.225913 0.0264337 5.30006 168 205 201
1.21826 0.0288115 5.24064 97 141 134
-1.84207 0.0455251 5.62249 106 152 139
-2.16955 0.0576435 5.49501 106 148 141
2.93638 0.0546456 5.03264 93 131 109
-2.88771 0.0888415 5.65703 105 161 140
-2.55117 0.0910241 5.64972 192 230 224
-2.73581 0.0962876 5.65496 110 160 142
0.304099 0.0931877 5.30486 97 143 120
0.926989 0.0944404 5.26373 101 144 133
0.178155 0.103249 5.34658 156 219 199
2.51266 0.0989512 5.11975 87 117 112
2.96118 0.10705 5.0567 95 149 119
-3.30936 0.129923 5.62934 116 143 134
-1.03698 0.144535 5.54362 102 150 138
-3.09045 0.155992 5.61838 76 119 106
0.500646 0.158052 5.36405 85 114 105
-1.53188 0.161181 5.60176 140 199 184
1.4633 0.169466 4.72776 87 131 92
-1.56166 0.208216 5.59644 110 137 128
-0.009064 0.203395 5.39223 99 138 123
1.90613 0.181272 4.79652 54 81 71
-0.140823 0.215222 5.42317 103 148 129
1.92952 0.195402 4.85389 29 55 42
-1.53016 0.248534 5.63571 149 206 198
1.78347 0.205221 4.79073 116 207 168
0.0319113 0.243184 5.40027 92 120 100
0.494131 0.243499 5.37491 118 163 146
1.33002 0.219866 4.7698 115 182 137
1.04123 0.252637 5.27648 94 130 124
-1.35693 0.279968 5.57254 117 168 140
1.97697 0.241199 4.89663 41 55 44
-0.390023 0.285405 5.45817 90 154 135
1.32764 0.253532 4.73492 60 83 61
2.40049 0.279084 5.09727 74 128 121
2.63456 0.281006 5.13253 87 149 119
-0.686423 0.313875 5.50961 94 146 129
1.09398 0.30467 5.24165 134 211 177
-2.15549 0.33347 5.6171 139 180 173
1.66246 0.27931 4.81168 44 66 42
3.09568 0.30063 5.12304 102 163 143
0.751502 0.327706 5.36284 100 144 137
1.09128 0.323433 5.22423 148 217 172
1.90446 0.302025 4.88066 144 220 196
2.38752 0.310737 5.04888 157 224 192
-1.9785 0.358702 5.67142 130 173 162
1.15675 0.338816 5.32131 46 61 47
1.75125 0.303874 4.8481 34 71 51
1.06449 0.344518 5.29069 59 97 67
-0.0363334 0.392445 5.46562 123 162 146
-3.02532 0.41679 5.7013 112 159 143
0.0228683 0.391869 5.43971 74 123 101
0.195739 0.402226 5.31441 71 116 90
1.39332 0.366104 4.72902 135 226 170
1.94019 0.376058 4.88864 133 187 158
0.198489 0.426812 5.40764 81 127 104
2.00232 0.401065 4.95162 44 89 63
-3.38981 0.45689 5.68268 126 169 154
-3.28572 0.477004 5.76084 109 163 146
0.733983 0.462892 5.44543 104 154 144
1.42242 0.403105 4.76067 54 92 56
0.937382 0.469157 5.38539 147 214 205
-0.217991 0.501208 5.4909 95 131 119
-0.00113244 0.498276 5.45851 164 231 204
1.07262 0.472058 5.23111 120 164 127
-1.11112 0.53257 5.5803 121 183 169
1.06111 0.496761 5.24391 57 77 58
2.23352 0.482083 5.08072 37 50 36
-3.43443 0.566838 5.71992 89 125 103
0.905653 0.541001 5.41393 118 153 149
2.09907 0.495942 4.99782 95 134 108
2.29814 0.497978 5.07225 107 175 152
0.842663 0.544283 5.39362 73 93 81
0.845786 0.545041 5.39617 65 85 73
-0.0872704 0.563557 5.48368 78 125 109
2.90041 0.53912 5.21855 88 120 109
1.27119 0.550395 5.03876 113 153 118
-0.662805 0.631778 5.59316 88 135 119
0.958355 0.616047 5.42816 80 117 107
0.832888 0.635246 5.43483 154 209 212
1.33654 0.579835 4.97579 83 96 72
3.13094 0.6205 5.23093 104 155 141
0.447593 0.648425 5.43504 126 163 155
1.05876 0.629493 5.2705 144 187 154
2.59627 0.607698 5.12705 81 122 115
-3.37735 0.717724 5.74234 148 195 179
-0.559894 0.698926 5.58645 102 139 131
-0.558075 0.693409 5.5683 108 139 130
0.913951 0.684138 5.45526 38 82 65
2.59637 0.637776 5.1288 69 120 113
1.01452 0.67345 5.40163 113 144 115
0.356238 0.710272 5.51493 82 128 109
0.952175 0.698446 5.45693 103 166 150
0.761444 0.727082 5.51543 102 158 147
0.936765 0.741623 5.43605 67 107 95
1.76887 0.662479 4.81327 153 216 190
-0.195181 0.777305 5.60945 110 154 131
1.06803 0.734173 5.32289 137 184 168
1.69701 0.667604 4.80861 127 164 148
1.82122 0.672029 4.79229 82 135 115
-2.8717 0.827097 5.80248 141 184 169
0.0653471 0.779911 5.54403 94 129 115
1.17412 0.713271 5.07388 72 100 71
2.50964 0.74364 5.2225 150 209 181
-0.384045 0.810366 5.639 101 144 123
-0.115236 0.797229 5.52122 164 224 193
1.00469 0.767918 5.34977 120 158 130
0.995456 0.806433 5.51687 45 62 53
0.2047 0.889459 5.58803 88 137 115
0.965482 0.87815 5.41575 175 205 206
0.977393 0.895133 5.46463 166 201 204
1.15944 0.837254 5.03756 159 210 182
1.23538 0.837952 4.96074 47 59 39
0.848726 0.938681 5.48647 77 94 85
0.918414 0.962007 5.45879 152 200 176
-0.292122 0.994115 5.65781 87 140 126
1.07893 0.89447 5.05009 50 59 46
1.10276 0.914863 5.00869 146 208 172
1.03368 1.01653 5.52887 127 152 156
-2.98118 1.11972 5.84012 87 118 111
0.849743 1.07286 5.55902 96 123 119
1.14641 1.00875 5.08961 55 58 36
2.38059 1.0756 5.26864 152 236 194
-1.97772 1.18872 5.77942 105 138 124
0.890675 1.1509 5.58565 155 208 194
-2.82863 1.21091 5.83965 118 151 136
1.15844 1.05372 5.04101 138 172 141
0.2711 1.18688 5.65305 110 149 141
0.821512 1.20183 5.66781 149 189 188
-2.15438 1.24211 5.80113 113 150 134
2.58593 1.13704 5.32633 137 199 175
-0.111556 1.22752 5.67955 106 151 132
0.746692 1.22342 5.6914 109 150 143
2.80927 1.21206 5.44736 122 156 145
0.778636 1.26844 5.65637 175 217 210
-0.216737 1.31823 5.76273 100 146 133
0.839055 1.29841 5.63212 116 132 125
2.76816 1.28184 5.48525 69 119 109
-1.96244 1.38346 5.87423 130 169 167
0.807663 1.35726 5.68629 90 93 84
-1.00386 1.4881 5.83092 88 110 98
2.23916 1.39661 5.41425 63 106 91
0.890461 1.5376 5.71226 114 145 138
0.0989633 1.65356 5.831 98 130 119
0.762346 1.67261 5.82036 141 209 192
0.833551 1.69013 5.81628 126 173 164
0.107937 1.76449 5.97631 95 154 139
1.0537 1.7601 5.85079 163 212 214
2.01269 1.6729 5.55327 50 67 56
1.24573 1.72424 5.65525 39 56 35
0.963645 1.8228 5.86115 121 160 158
1.39308 1.7809 5.63137 52 58 47
1.16506 1.83419 5.79002 65 69 57
1.5314 1.79014 5.60238 177 228 194
2.42859 1.80976 5.66981 91 154 122
-0.819001 1.94923 5.9885 112 165 151
0.3131 1.98465 5.97356 121 178 163
2.18288 1.9287 5.7924 28 36 25
0.318331 2.01715 5.95972 85 139 122
0.995416 2.00234 5.89815 101 122 119
3.16768 1.99105 5.77223 69 101 84
