ply
format ascii 1.0
element vertex 1252
property float x
property float y
property float z
property uchar blue
property uchar green
property uchar red
end_header
-0.874538 0.657601 3.67647 163 209 203
-1.14596 0.659864 3.66761 117 154 144
-0.84075 0.663247 3.68969 87 133 111
-1.31965 0.661324 3.6621 115 176 166
-0.806846 0.664983 3.68629 131 186 169
-0.502671 0.667539 3.70254 131 194 184
-0.809268 0.667507 3.69188 143 195 178
-0.573782 0.666849 3.6888 85 124 116
0.0235763 0.674025 3.70278 139 188 172
-1.16597 0.671771 3.6659 154 207 193
-0.00118397 0.67775 3.69329 110 169 155
0.159314 0.679517 3.68654 131 189 161
-0.847615 0.680398 3.68447 136 193 178
0.618494 0.685775 3.70365 100 137 129
0.876189 0.682836 3.69682 84 107 99
-0.0254112 0.696162 3.70287 96 169 153
0.733758 -1.75833 3.59109 82 138 115
-0.650006 -1.69015 3.46653 113 158 155
-0.368675 -1.69362 3.48574 118 149 148
0.715265 -1.74112 3.57979 94 154 130
-0.721169 -1.68239 3.46268 122 154 160
0.0474788 -1.71347 3.52856 132 190 185
0.921505 -1.72569 3.60601 107 152 136
0.0436522 -1.68324 3.5307 125 171 172
-0.001284 -1.65653 3.52585 102 150 154
-1.14478 -1.60683 3.43081 102 162 152
-0.642899 -1.61988 3.46243 130 185 182
-0.349185 -1.63892 3.50185 125 174 158
-0.292658 -1.63767 3.51146 102 166 154
-0.58406 -1.61953 3.48386 88 143 134
-0.604349 -1.60891 3.47239 119 170 163
0.564831 -1.64087 3.5709 137 171 170
0.928221 -1.6583 3.61399 127 180 166
0.246572 -1.61939 3.56032 200 244 238
0.685229 -1.62766 3.59458 133 162 159
-0.631809 -1.57276 3.48718 119 163 156
-0.165312 -1.58586 3.51594 133 176 163
-0.425924 -1.57447 3.49937 96 143 121
-1.31717 -1.53891 3.42968 115 165 155
1.06294 -1.62378 3.61349 134 191 183
0.544924 -1.60577 3.58375 126 169 166
-0.916146 -1.54729 3.45355 124 164 162
-0.130103 -1.57248 3.52635 151 196 179
0.750052 -1.60675 3.60274 106 143 135
0.740309 -1.59947 3.59976 115 156 148
1.37085 -1.62267 3.65499 111 182 155
0.135766 -1.57525 3.56152 117 149 144
1.40997 -1.61601 3.66483 127 192 171
-0.224721 -1.54131 3.50161 65 101 84
0.542232 -1.58288 3.59316 117 184 169
-0.923894 -1.50721 3.43382 109 147 147
-0.386657 -1.53316 3.4937 147 204 183
0.335611 -1.55559 3.56605 168 223 206
1.13617 -1.58257 3.63778 106 152 133
-0.12735 -1.53451 3.53284 87 113 97
-0.0815066 -1.53597 3.53951 145 185 174
-0.402674 -1.51352 3.49166 151 226 198
-0.362201 -1.52126 3.50857 224 252 253
-1.10771 -1.48587 3.44926 113 173 163
-0.756489 -1.49285 3.48525 112 152 147
-0.0488185 -1.51155 3.54146 107 147 135
0.851996 -1.53698 3.61383 131 163 158
1.18708 -1.54623 3.63932 131 167 167
0.101175 -1.50288 3.54143 175 222 214
1.02679 -1.53261 3.61347 143 177 176
-1.05592 -1.44715 3.45024 101 161 155
-0.0395179 -1.48393 3.5373 123 182 167
0.0977499 -1.48725 3.55468 152 193 186
1.31892 -1.51738 3.64576 133 174 159
-0.0663771 -1.46551 3.54089 113 165 148
0.429074 -1.48318 3.58154 102 136 125
-0.107082 -1.45757 3.53995 80 94 82
-0.0907517 -1.45591 3.53956 144 197 188
0.564223 -1.48158 3.59528 139 210 190
-0.114557 -1.44134 3.53589 168 213 204
-1.03513 -1.40897 3.4606 122 154 149
-0.967537 -1.4021 3.45831 105 128 123
-0.140012 -1.43101 3.52702 74 93 76
1.28128 -1.47911 3.64513 139 170 169
0.385324 -1.44728 3.57679 142 182 177
0.399144 -1.44182 3.57539 161 195 194
0.943081 -1.45591 3.61187 138 183 180
-0.112083 -1.4201 3.53802 88 120 109
-0.0652653 -1.4297 3.55578 93 110 97
0.00691971 -1.42728 3.55307 113 154 146
-0.767562 -1.39415 3.48132 179 223 216
-0.070079 -1.40868 3.53007 87 123 107
-0.0542787 -1.41594 3.55162 107 143 137
0.444402 -1.43258 3.58802 96 120 112
0.282152 -1.41633 3.55994 146 191 182
0.481132 -1.42507 3.58593 109 135 135
1.56161 -1.45502 3.66987 107 181 153
-0.791356 -1.38198 3.49244 201 232 235
0.617187 -1.41182 3.59733 115 161 142
-0.0966541 -1.39045 3.55074 109 146 136
-1.00042 -1.34721 3.4429 101 150 142
-0.0800868 -1.38446 3.55227 117 160 157
-0.947656 -1.33949 3.46423 76 110 116
-0.951291 -1.34081 3.47762 84 120 128
0.71936 -1.39356 3.61269 131 165 158
-0.841271 -1.33936 3.48477 100 147 144
-1.83278 -1.30494 3.40997 158 213 204
-0.0764771 -1.3637 3.54926 90 106 95
0.26588 -1.36554 3.55774 118 151 147
0.762423 -1.3849 3.62201 137 180 171
1.37047 -1.39019 3.65314 145 158 166
-0.164087 -1.34704 3.54446 74 111 91
1.04743 -1.3757 3.62408 129 167 161
1.05485 -1.37625 3.62539 117 146 143
-1.78283 -1.28946 3.4099 132 201 186
-1.27466 -1.31166 3.46525 118 170 176
-1.49468 -1.30019 3.43925 102 168 157
-0.145987 -1.33951 3.54832 89 135 113
0.106144 -1.34277 3.55535 159 216 201
-0.451623 -1.32304 3.5214 114 155 140
0.743977 -1.36186 3.62262 122 147 137
-1.86424 -1.26969 3.39583 129 158 143
-0.117066 -1.32744 3.54972 91 175 140
-0.966959 -1.30655 3.50029 96 128 127
-0.475739 -1.31243 3.52372 93 140 131
-0.450693 -1.31589 3.5276 98 142 125
0.428822 -1.33772 3.59099 123 162 154
-1.44004 -1.28223 3.45251 97 113 106
-1.00686 -1.28415 3.45492 114 142 142
0.179873 -1.32338 3.57281 93 130 122
-0.977623 -1.2816 3.48475 151 208 207
-0.0843814 -1.30257 3.55163 123 173 161
0.546609 -1.31571 3.59661 116 171 152
-0.994469 -1.26503 3.4662 97 144 141
-0.0473779 -1.30299 3.56327 137 184 176
0.240449 -1.30033 3.56725 111 159 141
0.107532 -1.2937 3.56899 167 231 219
-1.63358 -1.24229 3.44252 151 194 185
-0.103705 -1.2832 3.5598 172 229 220
-0.138434 -1.27563 3.54804 81 148 117
-0.00693746 -1.27912 3.559 73 113 101
0.0849277 -1.28513 3.56198 115 168 154
-0.72133 -1.25895 3.51403 121 173 180
1.31392 -1.30917 3.65675 129 160 163
0.0947342 -1.2703 3.55965 113 154 157
0.0247141 -1.26579 3.56409 81 106 102
-0.0152549 -1.26111 3.56125 76 107 100
-0.230089 -1.25258 3.54441 190 234 227
-0.958789 -1.22804 3.49238 85 138 135
0.0303647 -1.24765 3.55897 71 99 79
-1.97007 -1.16873 3.34088 131 207 175
-1.95734 -1.16773 3.3477 120 185 159
0.577137 -1.25427 3.59774 131 151 152
-0.503204 -1.22195 3.52099 133 166 159
-1.26709 -1.20009 3.47222 90 140 140
0.250745 -1.23318 3.57458 189 246 221
-0.0543117 -1.21482 3.53898 114 155 150
0.235541 -1.22852 3.57511 87 124 104
-1.40417 -1.18556 3.46418 96 139 130
-1.86263 -1.16782 3.42137 90 140 130
-0.257148 -1.20357 3.53859 177 224 216
0.231758 -1.21119 3.56929 184 231 223
-0.166232 -1.20043 3.55158 100 139 124
-0.567852 -1.18976 3.52866 170 230 222
-0.362676 -1.18341 3.51142 176 235 220
-1.72397 -1.15263 3.44059 89 149 139
-0.891099 -1.17375 3.50371 103 157 157
-0.20092 -1.19103 3.55496 144 211 196
-1.22724 -1.15982 3.47101 104 138 137
0.27516 -1.19352 3.59826 196 231 227
0.427808 -1.19539 3.59813 132 173 166
-1.18532 -1.14528 3.47856 190 227 231
0.898798 -1.18433 3.63328 135 186 179
-1.96097 -1.10443 3.39923 50 67 56
-1.6232 -1.1167 3.45198 148 205 196
-0.944012 -1.13326 3.50316 97 166 156
-0.472792 -1.13722 3.52375 131 162 159
-0.0741957 -1.14944 3.5677 159 209 197
-0.0641369 -1.1425 3.57034 118 153 143
-1.346 -1.11056 3.47723 101 148 146
-0.611176 -1.12215 3.5226 104 148 141
-0.288523 -1.12538 3.54334 76 123 114
-1.03442 -1.0997 3.50663 131 182 175
-0.618518 -1.10998 3.52861 178 229 221
-0.617244 -1.10902 3.53317 171 219 207
-0.482398 -1.10839 3.53618 213 238 240
-1.10523 -1.08891 3.4963 110 174 168
-0.53099 -1.09206 3.52027 148 186 174
-1.30082 -1.07302 3.48004 100 145 136
0.690241 -1.10717 3.62077 119 174 165
-0.953177 -1.06861 3.50933 122 175 166
-1.22591 -1.05453 3.48111 115 170 161
-0.982892 -1.05772 3.52056 111 159 147
-1.51644 -1.04083 3.4751 98 165 162
0.376962 -1.07336 3.59326 123 166 163
-0.258235 -1.05384 3.5446 101 137 131
-1.01232 -1.03611 3.50673 79 133 120
-0.296178 -1.05336 3.5609 101 128 119
-1.09699 -1.03533 3.50321 99 151 151
-1.38398 -1.01695 3.45328 78 127 113
-0.287009 -1.04273 3.55362 173 220 217
-0.301901 -1.03751 3.55764 83 117 111
0.535465 -1.05331 3.61771 100 151 137
-1.27351 -1.01263 3.48859 165 224 209
-0.281281 -1.03155 3.56445 101 138 130
-0.500781 -1.02446 3.55124 73 97 85
0.348958 -1.03534 3.60156 188 221 217
-2.02091 -0.979299 3.42811 88 160 147
-1.57814 -0.98715 3.47278 81 141 133
-1.2139 -0.980874 3.49541 148 205 196
-1.93163 -0.96193 3.439 103 146 137
0.333965 -1.00602 3.59971 102 133 130
0.0524587 -0.989314 3.57328 98 137 122
-0.564158 -0.971269 3.53539 187 222 212
0.19956 -0.984463 3.5962 116 156 151
0.452922 -0.990998 3.60376 117 152 156
0.352163 -0.989198 3.60954 114 147 150
-0.515342 -0.962223 3.5307 116 159 150
0.221181 -0.986284 3.61558 97 147 137
-0.571605 -0.953504 3.53784 168 214 201
-0.486289 -0.954244 3.55212 183 219 213
1.23268 -0.984037 3.65603 92 121 112
-1.21002 -0.933961 3.49184 98 129 120
0.423659 -0.961764 3.60419 122 166 159
0.0244989 -0.933446 3.58654 77 123 110
-2.00993 -0.894832 3.44402 79 132 122
-0.19527 -0.928622 3.5823 124 162 164
0.247921 -0.935839 3.60066 217 250 243
-0.484056 -0.911885 3.54816 119 158 150
0.273713 -0.926385 3.60576 116 160 153
0.276167 -0.92632 3.60948 125 170 161
-0.601494 -0.904445 3.55384 151 212 216
-2.01936 -0.868675 3.44618 93 144 137
-0.573938 -0.885696 3.5621 90 150 140
0.868895 -0.893521 3.63564 120 160 149
-0.417355 -0.870054 3.5692 110 178 161
-0.00749061 -0.856066 3.57501 97 147 135
-0.0436955 -0.857527 3.58295 169 216 214
-1.52202 -0.825341 3.49544 89 130 122
-0.0752559 -0.842969 3.57432 67 91 89
0.0201969 -0.845352 3.5887 78 122 115
-1.45352 -0.815479 3.479 191 238 230
0.147191 -0.844366 3.603 110 152 151
1.90948 -0.870736 3.72467 112 181 171
-1.44882 -0.808869 3.49502 108 149 142
-0.728446 -0.820737 3.5481 87 125 107
-1.75357 -0.796411 3.48183 146 206 205
-0.674945 -0.809687 3.56616 79 154 146
-0.11462 -0.801252 3.5812 105 151 139
1.11723 -0.818094 3.65289 132 189 180
-0.720356 -0.795276 3.55285 52 92 80
-1.35779 -0.775566 3.50901 98 167 156
-1.4602 -0.771455 3.50436 117 157 155
-0.709083 -0.780139 3.55885 81 138 129
-0.745414 -0.771951 3.55657 89 136 127
0.0411478 -0.763954 3.59196 200 223 219
1.33541 -0.779822 3.68722 140 198 187
-0.811227 -0.745178 3.54836 131 164 160
1.17414 -0.770133 3.67077 123 165 154
0.939324 -0.757572 3.64586 140 171 168
-1.86821 -0.717195 3.48767 91 144 134
-1.84208 -0.716667 3.4854 83 148 139
0.0793688 -0.734094 3.60647 99 148 140
-1.36172 -0.711111 3.51968 154 217 208
-1.6921 -0.698392 3.49583 104 166 154
-0.663725 -0.706168 3.57435 82 148 129
-1.70479 -0.69111 3.50374 171 227 216
1.32785 -0.726419 3.686 125 191 166
-1.49646 -0.68225 3.50854 86 146 135
0.0559251 -0.692402 3.60398 79 122 109
-1.96482 -0.661739 3.49003 107 167 157
-1.87913 -0.661523 3.4919 111 161 151
0.00142626 -0.682028 3.59451 119 171 161
-1.27766 -0.664323 3.52084 194 230 224
-0.115837 -0.674002 3.60495 100 157 149
-0.356325 -0.672749 3.60283 110 164 157
-1.6701 -0.645777 3.50659 176 228 221
-1.52468 -0.645669 3.51939 124 163 161
-0.139615 -0.655414 3.6002 104 157 148
-0.0770661 -0.645684 3.62544 162 222 214
-0.338476 -0.622083 3.58512 127 164 154
-0.0625559 -0.629114 3.62374 143 200 192
-0.49645 -0.61861 3.58801 82 133 119
-0.584275 -0.611946 3.57785 69 123 116
-0.268244 -0.612051 3.58977 149 200 202
1.08151 -0.62387 3.66402 132 167 163
-0.236954 -0.610299 3.59323 119 156 148
-0.545167 -0.603095 3.58428 78 131 121
-1.78675 -0.58391 3.50713 104 155 148
0.419343 -0.604657 3.63132 136 178 177
0.864049 -0.60297 3.64525 111 171 153
-1.28111 -0.58316 3.54309 67 113 101
-1.26624 -0.568437 3.53671 87 147 141
-0.592445 -0.575959 3.57864 90 147 139
-1.75491 -0.561887 3.51843 113 160 157
-0.761535 -0.557769 3.58454 74 126 116
-0.513396 -0.562407 3.58908 145 214 204
0.154679 -0.565246 3.62472 109 148 150
-0.257781 -0.552774 3.58763 162 223 209
-2.17779 -0.528531 3.4878 127 189 177
-0.26742 -0.546234 3.60219 82 123 115
-0.217832 -0.541368 3.59777 94 144 126
-1.18423 -0.531776 3.54914 46 122 104
-0.842272 -0.530119 3.56021 62 103 95
-0.813733 -0.530743 3.56866 95 129 122
-1.87365 -0.515948 3.50889 113 171 160
-0.881187 -0.522447 3.56595 76 123 127
-1.25081 -0.517249 3.5512 68 126 115
1.09448 -0.532376 3.65616 127 173 161
-0.543536 -0.513931 3.58732 64 128 116
-1.49852 -0.505902 3.53537 88 140 133
-1.20511 -0.507107 3.5513 60 121 107
-1.59976 -0.499779 3.52957 118 164 158
-0.73728 -0.486073 3.59035 77 139 121
-0.0684211 -0.487237 3.61878 89 148 144
-0.432211 -0.481818 3.59583 75 173 131
-0.0929406 -0.48564 3.62232 78 144 132
-0.94836 -0.474132 3.57741 77 129 106
-0.0761983 -0.481501 3.62916 92 156 150
-0.895718 -0.471795 3.57596 118 163 154
-1.64235 -0.456217 3.53691 101 133 128
-1.24581 -0.460333 3.56032 81 144 135
-0.70286 -0.460863 3.59874 119 181 175
-1.20891 -0.451646 3.5584 72 132 121
-1.38591 -0.445682 3.55114 162 215 206
-0.806392 -0.450827 3.58032 76 116 104
1.18832 -0.464812 3.68676 91 143 136
-0.624365 -0.441143 3.59641 171 218 209
1.12443 -0.44476 3.68035 184 227 224
-0.601648 -0.430244 3.59402 81 139 121
-0.625866 -0.425196 3.59913 51 85 68
-1.15547 -0.414366 3.57353 94 125 116
-1.01081 -0.417077 3.56287 101 149 137
-0.508229 -0.422083 3.60183 83 129 116
-1.67105 -0.398412 3.5375 116 158 151
-1.50032 -0.401124 3.53894 105 149 142
-1.13638 -0.403104 3.56737 90 127 119
-0.408361 -0.406541 3.6127 97 154 139
-0.518017 -0.403266 3.59877 72 136 114
-1.30077 -0.396599 3.55796 173 210 206
-2.12588 -0.382413 3.51126 78 133 116
-1.27583 -0.383152 3.55809 97 128 121
-0.65441 -0.38843 3.59282 114 141 137
0.044854 -0.391489 3.63148 90 159 149
0.859178 -0.395911 3.65642 111 177 165
-1.08654 -0.378484 3.57764 187 227 225
-0.198334 -0.379786 3.6186 98 132 121
-1.16382 -0.37228 3.56573 96 133 129
0.364966 -0.375921 3.64184 97 147 135
-0.776383 -0.364227 3.59817 100 162 150
-1.14364 -0.35973 3.56605 77 134 125
-0.137297 -0.367925 3.62293 74 140 121
-1.73768 -0.346736 3.54812 71 132 118
-1.27978 -0.348264 3.55509 160 208 209
-0.932017 -0.351168 3.58285 124 155 148
-0.227882 -0.354419 3.60996 100 155 140
-0.485629 -0.350194 3.6161 77 131 114
-2.07124 -0.339014 3.51957 45 100 83
-1.6435 -0.334824 3.53785 101 130 127
-0.731236 -0.341845 3.60119 177 229 222
-0.59574 -0.345183 3.60751 73 92 83
-1.75076 -0.334085 3.54905 86 146 135
-1.47407 -0.333768 3.5423 167 206 198
-0.407009 -0.337269 3.59116 164 212 200
-0.210519 -0.341786 3.60878 68 94 81
-1.77486 -0.325624 3.54979 153 206 196
-1.59948 -0.327636 3.54742 114 148 147
-0.887601 -0.327355 3.59294 102 149 140
-2.07015 -0.318815 3.52907 85 152 137
-1.23681 -0.315008 3.57479 162 203 195
-0.548302 -0.318233 3.61186 164 221 212
0.70357 -0.317093 3.66524 96 164 153
-1.62261 -0.304728 3.54759 173 214 207
-0.684563 -0.300005 3.60035 156 213 198
-0.614652 -0.298888 3.60507 203 244 237
-0.155707 -0.298003 3.62221 85 112 103
-1.82105 -0.292494 3.55101 84 133 131
-1.7567 -0.291227 3.54968 50 95 79
-0.556821 -0.29296 3.6058 168 220 210
0.526481 -0.300777 3.6517 84 152 135
-1.61722 -0.283317 3.55756 103 144 137
-0.735065 -0.286451 3.61087 96 152 147
-1.81385 -0.27047 3.55603 96 147 133
-1.48752 -0.272599 3.56279 98 146 134
-1.45984 -0.271991 3.56498 112 155 144
-1.19569 -0.271597 3.58037 94 147 133
0.632703 -0.278274 3.65749 104 169 154
-1.7581 -0.268725 3.55049 80 143 127
-1.75282 -0.267783 3.55432 71 141 124
-1.72211 -0.266956 3.56308 96 133 117
-1.56373 -0.244668 3.56725 91 144 131
-1.41741 -0.240749 3.57132 133 170 166
-0.509708 -0.237343 3.61057 108 153 134
-0.455571 -0.236734 3.61075 117 169 159
-0.699208 -0.233225 3.61323 204 240 234
0.397875 -0.236894 3.65147 115 165 161
-1.54755 -0.223483 3.56997 113 164 150
-0.712595 -0.226813 3.58903 168 212 205
-0.828378 -0.2247 3.60622 107 156 148
-1.26497 -0.220634 3.57408 99 139 127
-0.701149 -0.221001 3.61343 95 110 106
0.0737331 -0.222769 3.64702 53 108 93
-2.20748 -0.213543 3.52754 93 150 141
-0.691237 -0.217947 3.62107 113 147 137
0.398095 -0.221274 3.65541 94 167 157
-1.28356 -0.212163 3.56839 173 224 216
-0.509663 -0.217081 3.61757 160 212 202
-1.93291 -0.207144 3.54608 95 134 126
-0.48187 -0.209527 3.62091 215 235 240
0.311926 -0.213688 3.6568 82 148 136
-0.869076 -0.205886 3.60727 179 232 223
-0.73611 -0.205613 3.59222 166 218 208
1.7338 -0.211296 3.73054 106 168 150
-1.3983 -0.197854 3.57557 103 140 132
-0.893539 -0.200151 3.60506 97 143 131
-0.682098 -0.200581 3.61664 151 196 187
-1.25476 -0.194138 3.59303 95 147 137
-1.20861 -0.190942 3.59168 183 236 223
0.465899 -0.197272 3.66652 208 247 239
-0.805841 -0.187195 3.61134 99 155 144
-0.698849 -0.18644 3.61201 69 91 79
-1.41114 -0.180593 3.57687 92 128 122
0.150684 -0.177378 3.65522 127 175 169
-1.16486 -0.176093 3.6005 216 239 241
1.5343 -0.179218 3.71556 85 146 118
-0.816766 -0.17021 3.6138 97 142 133
-2.01475 -0.16525 3.54731 78 125 117
-0.660056 -0.169002 3.62546 140 210 193
-0.454759 -0.16847 3.60819 92 130 118
-0.989277 -0.164815 3.60806 162 216 211
1.55202 -0.17289 3.71318 107 171 149
-2.14273 -0.156515 3.5339 99 131 126
-0.498247 -0.16019 3.61867 104 133 137
-0.485044 -0.160847 3.62067 184 210 216
-0.0850446 -0.165595 3.63731 109 156 148
-0.561704 -0.158152 3.61682 193 216 211
-0.160177 -0.160689 3.63384 221 242 244
0.0048911 -0.161937 3.63751 134 202 185
-2.19106 -0.14974 3.54234 109 161 151
-2.07008 -0.14315 3.53893 149 209 201
-0.583552 -0.146475 3.61147 189 225 219
0.44267 -0.14806 3.64879 118 175 160
-1.88966 -0.140694 3.55674 80 120 109
1.55396 -0.146577 3.71999 107 187 158
-1.20241 -0.139434 3.59183 70 116 103
1.534 -0.144048 3.71715 92 169 142
-2.16707 -0.132729 3.54012 98 143 134
-1.56764 -0.134463 3.5788 106 163 154
0.52929 -0.134384 3.6421 138 213 185
0.0726198 -0.133071 3.65577 83 126 115
0.551261 -0.132572 3.64436 173 215 208
0.582286 -0.131591 3.66745 73 148 140
0.241123 -0.127972 3.65723 68 144 132
-0.729015 -0.125631 3.61416 193 233 228
-0.307409 -0.123579 3.61038 108 150 149
-1.90285 -0.116182 3.56458 121 171 159
0.0974287 -0.11804 3.65018 79 146 141
-1.00052 -0.107774 3.6052 91 118 109
-0.313671 -0.106901 3.61508 191 223 228
-2.1481 -0.101631 3.53837 100 127 124
-1.65862 -0.103847 3.57855 157 226 213
-0.866965 -0.103586 3.60169 154 211 202
-1.09256 -0.0993596 3.61132 126 192 181
-0.814399 -0.100171 3.61694 93 133 121
-0.642733 -0.0972749 3.61858 160 213 199
-0.598636 -0.103394 3.62919 67 127 119
-1.11412 -0.0895414 3.60159 170 227 218
-0.407648 -0.0892378 3.63077 103 130 126
0.638872 -0.0916507 3.67593 71 137 125
-0.722871 -0.0847485 3.6064 113 180 165
-0.707428 -0.0841669 3.60567 49 83 77
0.405297 -0.0838382 3.66846 176 242 231
-2.04616 -0.0753345 3.56164 108 159 152
-0.683512 -0.0786382 3.62241 149 186 176
-1.88173 -0.0746002 3.55989 95 146 126
0.300683 -0.0705303 3.65741 98 143 134
0.421276 -0.0710917 3.65894 95 166 156
-1.20914 -0.0659775 3.59606 67 101 91
-0.46345 -0.0681994 3.62671 48 72 62
-0.0922233 -0.0674667 3.64764 100 173 157
-2.1837 -0.0595309 3.54592 102 147 138
-0.866721 -0.0604589 3.61764 95 112 108
-0.491564 -0.0637426 3.6303 147 221 191
-0.255049 -0.0618997 3.63694 108 150 143
-1.88132 -0.0561797 3.57519 97 165 148
-0.974638 -0.0554199 3.6095 146 198 180
-1.55315 -0.0519498 3.58341 104 159 156
-1.11509 -0.0545185 3.60109 78 138 127
-0.375251 -0.0517157 3.62854 107 133 140
0.0354155 -0.0550804 3.63707 103 135 130
-1.9301 -0.0448351 3.54985 86 113 97
-0.37298 -0.0485109 3.63829 114 144 155
-1.01778 -0.0431939 3.61844 92 121 112
-0.340633 -0.0418561 3.63374 134 163 172
-0.247627 -0.0447808 3.63437 125 142 139
-0.368384 -0.0394542 3.64189 192 223 220
-0.677332 -0.034766 3.63343 75 104 95
-0.347793 -0.0357334 3.63459 181 224 215
1.68715 -0.0320395 3.73981 134 199 178
-1.56832 -0.0273128 3.59543 90 153 143
-0.134066 -0.0251959 3.64996 71 115 102
-1.26568 -0.0239036 3.6009 76 113 105
-0.246335 -0.0213672 3.65251 85 122 114
0.257522 -0.0166263 3.6689 83 157 145
-2.10418 -0.0111093 3.55773 93 127 110
-0.811903 -0.0115723 3.63442 161 204 201
-0.913523 -0.00704168 3.61188 142 185 174
-0.547241 -0.00582304 3.63752 98 131 124
-0.41142 -0.00971782 3.63108 130 167 165
-0.858757 -0.00272957 3.61275 102 123 120
1.6415 0.00158792 3.72642 105 180 164
-0.9329 0.00526711 3.60966 71 113 90
-0.513733 0.0035002 3.6393 81 115 108
0.396876 0.00425751 3.66993 88 149 151
-1.31626 0.0121826 3.59071 160 206 194
0.575072 0.0126561 3.66878 182 232 228
-2.2001 0.0148926 3.56418 165 232 205
-2.18286 0.0180559 3.56284 100 150 132
-0.712095 0.0198484 3.62328 111 169 144
-1.16365 0.0198721 3.60916 176 227 220
-0.869574 0.0189942 3.61716 71 81 75
-0.36412 0.0223802 3.62252 161 238 210
0.154367 0.0226347 3.66576 105 181 169
0.346343 0.0212584 3.66535 94 163 152
0.0690661 0.030843 3.6539 91 126 106
0.665335 0.0352192 3.66881 111 171 160
-2.17698 0.0372019 3.56975 93 126 111
-2.15298 0.0386667 3.55636 85 129 112
-1.49491 0.0390716 3.59785 92 142 132
-0.419177 0.0410236 3.63399 90 124 114
-0.800259 0.0452259 3.62355 99 126 123
-0.689559 0.0431407 3.63884 141 205 183
-0.0606858 0.0423391 3.65261 106 148 131
0.0410937 0.042524 3.65266 93 136 121
0.395953 0.0436602 3.66807 102 144 137
-1.32556 0.048979 3.57993 77 115 103
-0.491973 0.0460606 3.64518 69 114 98
-0.335312 0.0475659 3.64135 91 134 123
-0.156369 0.0502756 3.65212 92 120 127
1.04151 0.0464252 3.68917 107 159 149
-0.820324 0.0559869 3.6381 69 93 85
0.394552 0.065625 3.67738 121 157 157
-1.46458 0.0638853 3.60661 98 145 129
-1.40455 0.0644404 3.60157 86 130 117
-0.862605 0.0653015 3.63185 126 152 146
-0.487358 0.0646131 3.64333 91 128 126
-0.401867 0.0632272 3.63828 102 141 126
-1.38132 0.0683569 3.59543 97 136 128
-1.14516 0.0676637 3.62692 154 214 204
-0.226316 0.0708319 3.65396 93 165 145
-2.01028 0.0731365 3.55717 133 175 168
-1.88289 0.0758176 3.58684 113 176 166
-1.85668 0.0735463 3.58506 92 147 132
-1.93071 0.086688 3.56247 150 202 178
-0.618156 0.0911416 3.65012 177 230 221
-0.401328 0.0981881 3.66123 165 216 209
-1.40001 0.106484 3.61662 156 209 200
-1.74414 0.112272 3.59847 80 124 107
-1.42463 0.110953 3.59208 144 197 183
-0.029372 0.113541 3.64571 166 215 193
0.467483 0.117462 3.66765 97 152 143
-1.89504 0.117382 3.57907 57 86 71
-0.899811 0.119691 3.63247 143 187 174
-0.543789 0.122973 3.64997 173 226 217
-1.80114 0.125363 3.59624 97 132 122
-2.21868 0.131939 3.55759 162 209 183
-1.70927 0.139547 3.60358 93 131 119
-0.491136 0.144756 3.6507 101 158 143
-1.79678 0.146326 3.60074 91 139 127
-1.37231 0.14576 3.60847 99 130 127
-0.596137 0.15444 3.64741 93 136 133
0.642901 0.158274 3.67581 84 159 137
0.765316 0.159909 3.67547 183 224 216
-1.45615 0.16463 3.61404 209 243 236
-0.387694 0.167066 3.65226 83 135 118
0.747296 0.167453 3.67518 138 180 173
-1.36752 0.170384 3.61111 192 238 232
-1.36764 0.170312 3.61088 192 238 232
0.400069 0.174634 3.67006 103 168 152
-1.89915 0.176776 3.5813 91 135 122
-1.27395 0.17862 3.61463 175 219 213
-1.7687 0.180059 3.60221 157 221 209
0.966068 0.185197 3.69254 90 159 146
-0.512727 0.187717 3.65437 112 158 145
-0.616471 0.209548 3.64044 174 223 215
0.983549 0.211293 3.68209 118 158 153
0.243929 0.216556 3.68187 164 219 204
0.512437 0.215556 3.66349 183 239 216
-1.98972 0.215732 3.57676 65 106 78
0.546607 0.222714 3.68133 209 250 243
0.763863 0.226688 3.68503 117 146 137
-2.09046 0.219996 3.57185 153 210 179
0.880139 0.222817 3.67818 105 143 137
-0.528303 0.23187 3.66475 182 230 224
0.682923 0.230241 3.67368 207 241 234
-0.46563 0.237037 3.65715 58 119 105
-2.10097 0.234778 3.55186 113 157 126
0.837766 0.242213 3.66978 90 124 117
-0.179819 0.243595 3.65995 60 111 97
-0.790248 0.246848 3.63289 159 194 190
0.929379 0.245312 3.68653 116 166 164
-1.79188 0.248293 3.60995 94 147 133
-0.514459 0.249558 3.65785 79 129 111
-1.71948 0.255249 3.6187 85 131 119
0.0437991 0.260265 3.67782 107 133 127
0.87599 0.258071 3.67881 111 139 140
-1.86824 0.260469 3.60907 144 198 185
-0.788251 0.26701 3.64721 92 126 120
-0.305638 0.269528 3.65843 108 163 148
0.949969 0.272689 3.6979 190 236 230
-0.169904 0.270989 3.67367 182 221 219
0.937993 0.274276 3.70167 123 146 142
-0.524478 0.280982 3.65722 201 228 238
0.115096 0.278897 3.65983 187 227 222
0.0519964 0.281918 3.67361 139 181 174
-1.45436 0.28342 3.62331 93 152 137
-0.130002 0.287965 3.6678 99 152 138
-0.177035 0.293774 3.66351 96 130 113
-0.229164 0.293913 3.66074 97 137 125
-0.107078 0.294955 3.66268 85 144 124
-0.0218717 0.297204 3.68226 106 150 137
0.497457 0.296018 3.67301 134 185 171
-0.751907 0.29389 3.64878 87 123 117
-0.659426 0.298229 3.65079 71 117 105
-0.551017 0.305269 3.64916 81 104 100
-0.859861 0.311088 3.65361 157 216 208
-0.391824 0.309213 3.66824 106 169 149
0.595061 0.323526 3.67377 65 125 101
0.217978 0.332698 3.66911 101 128 124
0.562726 0.331448 3.68065 112 148 136
0.964594 0.333423 3.69138 104 141 131
-0.592656 0.329762 3.65262 97 149 132
-0.235916 0.33687 3.66611 135 210 178
-2.11719 0.333176 3.58284 123 161 143
0.0501966 0.3442 3.67784 78 118 107
0.932209 0.344858 3.68566 132 170 164
0.106452 0.350075 3.68265 165 216 202
-1.86408 0.345393 3.6159 148 219 192
-1.68375 0.34533 3.62117 61 98 90
0.569274 0.350607 3.67812 98 139 124
0.91264 0.352464 3.69679 77 98 95
0.339045 0.351718 3.65548 201 238 228
-2.10434 0.349308 3.57222 121 159 147
-0.576638 0.359855 3.66554 83 141 130
-0.517496 0.360547 3.66655 77 114 104
-1.56149 0.36121 3.63249 68 107 91
0.881323 0.364305 3.67889 80 105 101
-1.88178 0.364071 3.62315 89 127 109
-1.92667 0.370037 3.61692 127 195 172
-0.362124 0.3744 3.65735 103 146 133
-0.592813 0.383268 3.67208 71 103 92
-1.81891 0.381261 3.61556 115 154 146
-0.724259 0.384346 3.65619 69 120 113
-0.452885 0.386435 3.68275 88 150 136
-0.169665 0.386617 3.67282 99 161 147
0.18462 0.389036 3.67052 165 225 207
0.386783 0.390211 3.67575 79 129 117
-1.5625 0.387672 3.62558 68 97 88
-1.5371 0.390124 3.63767 81 118 110
-1.93712 0.393108 3.6261 160 225 210
-0.75411 0.396907 3.66441 127 182 167
0.868974 0.397673 3.67581 115 148 134
-1.69446 0.401644 3.62111 89 144 129
-1.65321 0.402577 3.63722 148 208 198
0.462408 0.403221 3.66903 130 172 155
-0.31163 0.413098 3.67536 96 147 127
0.193933 0.413064 3.6801 148 231 193
0.869089 0.415843 3.68044 159 229 189
-1.97195 0.417188 3.63511 76 108 97
-0.803003 0.426017 3.66783 108 168 158
0.437787 0.429443 3.6693 110 132 127
0.532996 0.430369 3.68273 159 211 194
-0.337856 0.435617 3.67658 76 123 114
0.436218 0.429867 3.67038 115 138 134
-1.73693 0.438907 3.64075 117 210 189
-0.33209 0.446085 3.68131 183 231 232
-1.76841 0.438818 3.62028 161 208 200
-0.75495 0.445427 3.66023 164 217 207
0.38519 0.449156 3.67572 93 136 121
-1.8706 0.447801 3.62892 96 155 140
-1.59644 0.445757 3.63173 83 128 111
-1.47186 0.44565 3.63785 101 176 160
-1.34683 0.447093 3.63974 104 169 154
-0.806146 0.452292 3.67424 171 222 224
-2.21197 0.451441 3.59517 73 107 90
1.19752 0.463858 3.71121 106 166 142
-1.72994 0.457906 3.63646 71 108 100
-0.378709 0.468662 3.69231 87 125 119
0.909309 0.473825 3.69786 196 237 230
0.26463 0.476665 3.68056 59 107 89
-0.50019 0.483636 3.68715 187 234 226
-0.327276 0.483196 3.67527 144 202 184
0.685278 0.487124 3.69059 125 158 154
0.896091 0.487643 3.69032 104 118 112
-1.9805 0.48356 3.62829 85 137 120
0.349183 0.489674 3.69364 89 152 126
0.760831 0.491635 3.68003 123 168 159
-2.05063 0.486811 3.61688 69 100 79
0.216409 0.50002 3.69501 88 145 124
0.390001 0.500293 3.68009 170 233 217
0.178685 0.507842 3.69227 169 223 200
0.724942 0.509444 3.68716 101 155 142
1.00429 0.511097 3.70702 115 169 162
1.77303 0.517595 3.73347 105 166 152
0.644746 0.519239 3.69873 111 151 133
-0.863133 0.519737 3.6747 63 100 96
-0.733932 0.521921 3.67417 102 158 145
-0.606274 0.523511 3.68636 85 144 130
0.740466 0.522827 3.68416 101 153 146
0.455413 0.528413 3.67882 103 158 141
0.656235 0.523977 3.68965 102 126 114
-0.778066 0.530837 3.68171 99 151 141
-1.58602 0.531701 3.64718 106 163 154
-1.97342 0.535688 3.64363 138 173 163
0.551228 0.539535 3.67369 85 105 100
0.809931 0.544384 3.69506 64 96 77
-0.858497 0.542823 3.6755 73 127 114
-1.59352 0.542574 3.64511 180 227 224
-0.112877 0.55469 3.68415 156 201 192
-1.11107 0.552949 3.66238 66 115 99
0.813918 0.556227 3.68981 163 201 201
1.61214 0.57067 3.73422 101 156 137
0.169896 0.567906 3.6958 146 215 178
0.221192 0.567027 3.68463 66 128 98
0.159211 0.575309 3.69366 46 94 76
-1.90188 0.569211 3.63955 150 210 204
0.909441 0.577433 3.69457 80 126 114
-1.72611 0.573442 3.63081 108 145 135
-0.438758 0.577316 3.67761 53 90 74
0.336585 0.582067 3.67939 71 118 92
-1.86826 0.578813 3.65344 111 176 161
-1.48346 0.583493 3.65511 94 134 122
-1.05356 0.585669 3.66666 102 151 137
1.11953 0.593326 3.71908 102 160 149
-1.86605 0.589112 3.65403 79 117 105
0.992582 0.600135 3.71219 162 231 216
1.02752 0.603225 3.70681 83 111 92
-1.65678 0.596599 3.65008 126 198 185
-0.380564 0.602368 3.68043 125 178 165
-0.780415 0.610391 3.69244 96 167 151
-0.173398 0.608162 3.69444 154 238 213
0.185043 0.607346 3.69248 74 127 114
0.847739 0.610647 3.68263 88 123 109
-0.0923885 0.617753 3.69261 95 140 131
0.586626 0.621221 3.6922 89 124 114
1.25322 0.622439 3.71357 112 165 152
-1.10704 0.618397 3.6702 105 161 150
-1.86684 0.618927 3.64589 63 104 96
0.120493 0.6276 3.6885 179 241 225
0.549421 0.626307 3.6882 164 207 196
0.193979 0.629976 3.69589 67 105 99
-0.764423 0.633027 3.69339 111 162 154
-0.278901 0.634546 3.68393 82 128 115
0.154246 0.638427 3.69303 80 112 88
-0.563088 0.643068 3.69192 75 116 108
-0.218348 0.642556 3.6761 168 237 204
-0.143742 0.645993 3.68778 78 156 139
0.794683 0.647071 3.68418 188 234 221
-0.987944 0.648734 3.68269 93 164 144
-1.9003 0.646123 3.65074 101 129 129
-0.848986 0.65034 3.68133 82 140 122
-1.14546 0.658879 3.66543 117 154 144
0.229803 0.667678 3.69604 79 130 110
-0.833578 0.667903 3.69218 130 182 165
0.0125132 0.670255 3.69537 75 128 114
0.116716 -1.7253 3.53362 128 172 165
0.923266 -1.72656 3.61032 114 157 146
0.187248 -1.66195 3.54333 129 173 166
-0.580291 -1.612 3.47073 105 159 152
-1.14534 -1.58126 3.44001 104 162 161
0.773762 -1.64853 3.60226 107 137 138
0.135794 -1.61757 3.54413 131 178 175
-0.804835 -1.57925 3.47586 117 170 167
-0.254769 -1.59925 3.5124 108 162 145
0.133633 -1.61951 3.5553 140 177 173
0.677185 -1.63127 3.58089 123 144 145
-0.830139 -1.56369 3.46566 201 243 236
-0.425768 -1.57488 3.50187 93 146 126
-0.131149 -1.58671 3.5243 117 158 143
-0.271461 -1.57881 3.52393 132 176 169
-0.135794 -1.58662 3.53012 112 148 132
0.462451 -1.6033 3.57083 174 229 220
0.410354 -1.59428 3.56959 106 146 135
0.459201 -1.59293 3.57126 105 146 141
0.701453 -1.60474 3.60127 116 152 130
-0.20403 -1.54954 3.49632 213 244 223
0.416167 -1.57901 3.55946 180 222 215
-0.178728 -1.54385 3.48898 93 116 101
-0.108484 -1.56158 3.5391 105 135 116
-0.73582 -1.53124 3.46982 109 133 145
-0.277495 -1.53172 3.4923 80 117 107
-0.767849 -1.51629 3.47487 114 155 158
1.07268 -1.58669 3.63331 116 169 160
-0.298405 -1.52442 3.50137 96 152 131
1.13696 -1.58311 3.64114 109 160 140
-0.757095 -1.49354 3.49011 110 147 145
0.449408 -1.52465 3.57207 99 148 134
-1.08806 -1.44751 3.45289 88 142 129
-0.774447 -1.4596 3.46846 166 219 216
-0.747612 -1.46104 3.47682 155 199 206
0.0240245 -1.49105 3.56115 190 230 225
0.568203 -1.49926 3.60068 104 145 130
-0.501042 -1.45546 3.50523 176 230 223
0.431059 -1.48196 3.57716 121 148 138
0.735294 -1.48968 3.60677 109 146 138
1.17641 -1.50174 3.63424 132 175 166
0.565216 -1.47788 3.59061 162 234 212
-0.823828 -1.42889 3.48275 134 164 169
-0.0903177 -1.45688 3.5471 161 215 202
0.273577 -1.46873 3.60042 119 163 156
-1.01288 -1.41151 3.45861 99 151 144
1.11038 -1.47325 3.62004 108 113 116
-0.139545 -1.43194 3.53462 71 104 83
0.559539 -1.46213 3.59295 95 147 130
1.42706 -1.47766 3.6562 117 164 155
0.268794 -1.43716 3.57232 204 246 239
-0.0254226 -1.41984 3.54538 98 121 117
-0.424363 -1.3877 3.4723 151 216 200
-0.118544 -1.40981 3.52984 154 222 199
0.445796 -1.43111 3.5841 90 113 105
-0.774614 -1.39232 3.49636 191 231 226
0.305536 -1.42204 3.58297 96 151 136
0.479927 -1.4237 3.57441 130 154 154
-0.133707 -1.40037 3.53737 93 134 113
-0.801064 -1.36228 3.48816 94 113 110
0.263012 -1.39483 3.5752 74 95 92
0.267691 -1.39499 3.58468 114 136 141
0.295685 -1.38865 3.57625 201 237 237
-1.95173 -1.29807 3.3606 140 204 185
-0.951938 -1.34144 3.48403 89 127 132
-0.0798138 -1.36487 3.55249 92 111 102
0.64544 -1.38645 3.61183 133 170 166
0.898385 -1.39261 3.63129 131 177 171
-1.82547 -1.29988 3.40847 167 213 207
0.764122 -1.38545 3.62712 139 184 175
-0.0916914 -1.35237 3.54872 142 215 193
-0.949614 -1.32205 3.47705 138 188 188
1.05703 -1.37667 3.62935 137 168 165
-1.95438 -1.27128 3.35691 58 91 84
-0.987103 -1.30336 3.45301 159 221 207
-0.960664 -1.30401 3.47142 75 110 106
-0.017199 -1.3422 3.56617 125 164 156
-1.09221 -1.29592 3.45099 117 168 161
1.38368 -1.37046 3.66211 127 152 154
-1.46501 -1.28502 3.44511 204 235 236
-0.967002 -1.30653 3.50007 96 128 127
-0.861469 -1.30459 3.49856 113 169 164
-1.19189 -1.27076 3.44621 148 191 188
-0.680987 -1.29751 3.50981 95 146 142
-0.642413 -1.29934 3.5209 120 166 160
0.265169 -1.31036 3.56672 131 165 158
-1.41448 -1.26053 3.44867 75 102 93
-1.19868 -1.27237 3.46664 118 154 154
-0.00128412 -1.30161 3.54941 71 86 82
0.0642394 -1.2983 3.54245 71 113 102
0.503443 -1.31983 3.5964 119 146 143
1.3331 -1.34102 3.65714 133 149 155
0.0815523 -1.29657 3.56175 140 202 188
0.124716 -1.30919 3.58083 186 238 231
-1.0698 -1.25679 3.47231 132 176 169
0.15514 -1.29777 3.57543 90 121 114
-0.667773 -1.26833 3.51792 95 145 145
-0.0578382 -1.28197 3.55155 192 225 221
-0.323758 -1.26469 3.52701 120 173 164
-0.188384 -1.26841 3.53012 92 135 122
-0.0845054 -1.25688 3.54822 172 231 211
-0.229886 -1.25269 3.54588 191 233 226
-0.0888944 -1.24311 3.54137 193 236 227
1.23872 -1.28123 3.6485 117 159 142
0.774233 -1.26645 3.62684 122 165 154
-1.87326 -1.18535 3.40576 136 184 166
-1.40711 -1.19815 3.4557 96 139 130
-0.0853416 -1.229 3.53511 161 221 203
0.235325 -1.22857 3.5758 87 124 104
-0.372999 -1.20852 3.52686 108 142 131
-1.99684 -1.1352 3.33123 99 158 127
-1.37952 -1.16808 3.46734 107 170 161
-0.56794 -1.19008 3.53444 168 228 222
-0.00423594 -1.1956 3.56582 110 156 150
-0.0818293 -1.17955 3.54902 185 239 222
0.0508275 -1.18986 3.56851 70 86 75
-1.97227 -1.11295 3.37481 51 55 43
-1.44762 -1.14018 3.45323 96 143 134
0.332306 -1.16086 3.59242 110 160 150
-1.07924 -1.12396 3.49891 89 143 138
-0.0646995 -1.14174 3.57516 85 123 111
-0.618696 -1.10994 3.52743 181 232 224
-0.546671 -1.09725 3.53588 72 106 82
-0.568155 -1.09517 3.54517 111 146 136
-0.500428 -1.08053 3.51779 152 169 165
-1.09792 -1.06349 3.49883 84 131 128
-0.492152 -1.07776 3.53011 113 125 119
-0.462517 -1.0742 3.54624 124 148 146
0.379502 -1.0778 3.60636 134 174 172
0.424152 -1.07282 3.6002 110 150 149
0.724462 -1.07531 3.62804 113 185 172
-2.05005 -1.01317 3.42911 95 158 142
-1.01172 -1.03609 3.50434 78 128 116
-0.294999 -1.05332 3.5578 112 141 132
0.112329 -1.05977 3.58783 208 233 235
-0.940535 -1.0345 3.52046 102 151 137
-0.486566 -1.03553 3.52889 160 201 193
-2.00298 -1.00057 3.43694 179 238 224
-1.06553 -1.01444 3.49851 116 163 160
-1.9318 -0.988265 3.43787 103 134 131
1.24915 -1.04974 3.67138 126 175 167
-1.93365 -0.97563 3.43985 158 210 200
0.725956 -1.0248 3.61725 118 172 159
0.334408 -1.00603 3.60103 95 132 128
1.29023 -1.02942 3.66384 122 175 166
-1.98931 -0.954685 3.43577 59 106 97
-0.265825 -0.992239 3.56074 100 118 119
-0.497151 -0.977434 3.53608 178 209 210
-0.340837 -0.982953 3.557 113 144 141
0.0524665 -0.989312 3.57402 98 137 122
-0.821399 -0.973013 3.52943 92 146 133
-1.67278 -0.949468 3.46276 63 104 97
0.353188 -0.9892 3.61031 129 162 165
0.779055 -0.992 3.63193 98 140 129
-0.515825 -0.962188 3.534 109 148 140
-0.474172 -0.95827 3.54417 96 133 123
-1.33801 -0.931491 3.48218 70 107 99
-1.91684 -0.918584 3.44938 76 130 123
0.232161 -0.954079 3.6006 100 139 131
-0.218339 -0.944321 3.58619 106 143 133
0.256838 -0.944936 3.60321 114 166 156
0.867439 -0.952676 3.63769 135 185 175
1.332 -0.960985 3.68401 80 135 120
-2.0108 -0.894774 3.446 68 121 111
-0.598674 -0.900052 3.55388 162 217 220
-0.656005 -0.895872 3.54903 88 134 121
-0.337599 -0.881064 3.56458 133 173 168
0.160546 -0.893394 3.60056 113 131 130
-1.95621 -0.852766 3.4571 78 129 121
-0.177288 -0.882389 3.57963 105 138 141
-1.79068 -0.849238 3.4691 146 201 204
-0.417307 -0.869978 3.57132 115 180 164
-1.72947 -0.841607 3.47222 61 106 103
-0.302703 -0.855699 3.56914 104 151 135
-0.00719946 -0.855982 3.57714 109 162 149
0.88129 -0.871332 3.63642 190 231 223
-1.77842 -0.827618 3.46647 97 133 133
0.628186 -0.862202 3.62411 109 163 146
-1.45587 -0.816381 3.48909 191 233 226
0.147577 -0.844274 3.60516 110 152 151
-0.711764 -0.82237 3.54499 46 67 52
-0.476237 -0.822219 3.569 110 174 155
-0.723512 -0.78267 3.52062 99 145 133
0.0669927 -0.802597 3.60471 115 158 155
-1.76103 -0.771034 3.49011 186 233 230
-1.5481 -0.771668 3.50137 108 168 160
-0.730021 -0.781247 3.54353 105 157 147
-0.710217 -0.779761 3.56498 82 136 129
-1.72052 -0.743583 3.48354 108 160 150
0.543782 -0.770516 3.63575 117 165 169
0.0784083 -0.737564 3.61666 106 154 148
-0.593109 -0.718492 3.57061 110 155 146
-0.243468 -0.722057 3.58627 118 168 156
0.0758547 -0.724244 3.61327 166 217 210
-0.478635 -0.71654 3.57742 100 152 142
-0.664729 -0.707256 3.57507 82 149 128
-0.456969 -0.698837 3.58412 103 140 136
-1.50919 -0.676382 3.51462 191 231 229
-1.36184 -0.671801 3.51894 81 130 116
-1.5142 -0.660933 3.51606 127 179 172
-1.27848 -0.663867 3.52567 178 216 210
-0.356718 -0.672648 3.60393 110 164 157
-0.787583 -0.65881 3.56487 90 130 118
-0.27204 -0.664269 3.59006 93 150 141
-1.36156 -0.649285 3.52422 103 165 153
-0.0952793 -0.65775 3.6124 82 135 121
-1.90233 -0.633789 3.49967 112 160 154
-1.4959 -0.638612 3.51734 105 142 134
-0.296678 -0.654131 3.58456 109 165 154
-0.135871 -0.654235 3.59938 104 164 153
-0.083483 -0.647001 3.61428 164 224 214
-1.47187 -0.623926 3.52442 174 229 226
-0.59099 -0.631894 3.58523 84 153 142
-0.301393 -0.627865 3.58564 163 223 205
-0.0791494 -0.631399 3.60702 77 109 104
1.23926 -0.641796 3.67315 130 179 171
-0.339638 -0.621921 3.58661 115 152 142
1.15518 -0.637055 3.66629 114 142 136
-1.789 -0.593963 3.5086 162 216 209
-0.972728 -0.584043 3.44009 71 113 96
-0.54546 -0.60243 3.58898 63 120 111
-1.46427 -0.588454 3.5214 93 147 134
-0.804661 -0.593328 3.58019 150 213 203
-0.369587 -0.595824 3.59226 143 184 176
-1.42174 -0.585262 3.53594 85 142 133
-0.895347 -0.5855 3.54624 66 99 92
-1.77614 -0.558587 3.51093 102 149 140
-0.141322 -0.573846 3.60276 117 164 148
0.154838 -0.565852 3.62058 103 142 140
0.243338 -0.570572 3.62834 120 175 172
-0.900551 -0.552784 3.57186 48 86 74
-0.763026 -0.556758 3.59274 76 126 116
-0.915675 -0.546649 3.56214 47 79 62
-1.46289 -0.537585 3.53235 104 151 135
-0.862779 -0.544298 3.56816 170 226 221
0.161882 -0.548691 3.63038 120 189 176
-0.849783 -0.528027 3.55635 90 130 119
0.213636 -0.535931 3.63673 115 167 157
1.0947 -0.532254 3.65711 127 173 161
-0.437224 -0.518357 3.58565 60 101 86
-0.543563 -0.513642 3.58946 70 138 127
0.361934 -0.513642 3.63911 99 156 147
-0.752838 -0.504806 3.58795 82 129 113
-0.911339 -0.497961 3.58628 184 232 226
-0.250057 -0.498717 3.595 78 131 117
-0.481426 -0.493396 3.60341 83 155 135
-0.2345 -0.496751 3.60385 91 153 139
-1.64624 -0.467365 3.53821 104 149 140
-0.94604 -0.468506 3.56993 71 123 105
-1.71311 -0.461877 3.53535 84 132 126
-1.43029 -0.456304 3.55086 213 243 218
0.598572 -0.47077 3.65282 116 178 172
-1.50731 -0.451629 3.55093 107 131 123
-1.51081 -0.43763 3.54401 196 224 225
-0.994446 -0.440848 3.56438 101 156 141
-1.50831 -0.426018 3.53888 126 166 161
1.02344 -0.43122 3.67102 113 171 170
-1.53448 -0.413083 3.55087 95 148 135
-1.01111 -0.416733 3.56498 101 149 137
0.149078 -0.426602 3.62655 101 166 157
0.914444 -0.427781 3.6535 86 131 112
-1.57573 -0.408664 3.53597 113 150 142
-1.28194 -0.409481 3.55882 98 144 131
-0.390859 -0.417685 3.60918 85 126 118
-1.88559 -0.403168 3.52884 88 130 119
0.45247 -0.415189 3.64553 83 136 127
-1.60967 -0.390763 3.55134 106 146 135
-0.339198 -0.389985 3.60824 97 114 110
-0.966395 -0.385992 3.58377 79 119 108
-1.12182 -0.376135 3.56754 99 125 119
-2.08311 -0.364038 3.52237 79 123 106
-0.219137 -0.376053 3.60974 105 145 134
0.834815 -0.379031 3.66027 113 169 164
-2.11548 -0.357381 3.51115 54 85 76
-1.18938 -0.360833 3.56595 71 103 92
-0.338251 -0.370279 3.59957 184 224 212
-1.53633 -0.349247 3.54465 100 121 118
-1.43463 -0.341652 3.54109 114 140 134
-0.255853 -0.351752 3.61708 103 145 128
-0.596111 -0.3447 3.61018 75 93 86
-1.46691 -0.336024 3.55543 104 117 115
-0.571957 -0.328327 3.58202 172 215 204
-2.02127 -0.305803 3.53216 105 164 156
-0.215338 -0.312454 3.61064 197 221 219
-1.62323 -0.304525 3.54862 170 211 204
-1.41473 -0.301799 3.552 118 145 142
-0.624454 -0.301592 3.60185 80 122 115
-1.67144 -0.293031 3.54148 109 161 144
-1.66385 -0.292767 3.55522 170 221 214
-0.224191 -0.296379 3.62542 81 100 91
-0.55635 -0.290387 3.61722 169 222 212
-0.237696 -0.270458 3.62665 178 212 212
0.637978 -0.277249 3.65854 118 183 168
-1.75305 -0.267964 3.55343 68 139 122
-1.71991 -0.263645 3.56815 84 119 105
-1.906 -0.256425 3.55234 94 136 119
-0.502768 -0.261599 3.60784 191 225 225
-0.384372 -0.254204 3.59886 84 111 108
0.158385 -0.256047 3.65376 116 170 163
-0.103566 -0.242577 3.63297 93 136 123
-0.510148 -0.236368 3.61519 95 144 124
0.814364 -0.237765 3.66116 121 182 168
-1.5492 -0.223539 3.56967 106 156 138
-1.46438 -0.222437 3.56756 126 167 159
-1.26638 -0.222829 3.56493 102 145 130
-0.826334 -0.224491 3.60801 104 156 146
-1.01634 -0.215969 3.60724 247 251 252
-1.2323 -0.205475 3.58751 186 232 226
-0.47605 -0.208156 3.6205 229 244 247
-0.169401 -0.202446 3.62575 102 146 133
-1.2501 -0.196456 3.57955 94 147 137
-2.14846 -0.188191 3.54627 167 220 217
-0.917602 -0.193066 3.59917 84 138 121
-0.667575 -0.185583 3.61806 67 112 93
-0.112384 -0.182485 3.60959 76 126 116
0.56409 -0.184148 3.66812 136 192 181
-1.18037 -0.178139 3.59682 96 145 131
-1.15784 -0.180874 3.57961 214 245 246
-0.83416 -0.176433 3.60996 66 115 101
1.53591 -0.178096 3.72062 90 157 126
1.78801 -0.178842 3.72776 106 159 150
-0.190559 -0.17223 3.63035 93 120 110
-0.471609 -0.160358 3.62529 90 118 112
0.329207 -0.168374 3.66172 86 152 140
-1.0974 -0.158519 3.59904 107 149 138
-0.467369 -0.154757 3.60343 89 120 111
0.564022 -0.153119 3.68056 104 159 140
0.0894473 -0.150341 3.65721 105 168 158
-1.60075 -0.139121 3.57899 99 136 132
-0.647279 -0.143724 3.61943 69 118 104
1.76075 -0.145641 3.72722 94 150 131
-2.20708 -0.129737 3.5337 97 145 133
-2.08722 -0.134198 3.55741 151 203 193
-0.895632 -0.135614 3.61752 158 218 208
-0.840603 -0.132352 3.6221 80 131 117
-0.698305 -0.127139 3.61898 90 133 118
-2.02629 -0.12746 3.53651 152 195 192
-1.94981 -0.124691 3.55814 158 211 198
-1.21026 -0.124232 3.60042 151 214 194
-0.729153 -0.125108 3.61633 193 233 228
0.241662 -0.126035 3.65674 71 151 138
-2.09362 -0.118107 3.5402 133 185 168
-2.07703 -0.118978 3.54529 104 147 134
-1.11564 -0.118134 3.60176 147 207 197
-0.662161 -0.120838 3.6191 131 192 172
0.131919 -0.119898 3.63521 100 150 140
-1.25947 -0.117166 3.58664 108 145 135
-0.544428 -0.118058 3.61451 71 96 86
-1.93278 -0.108821 3.55901 61 86 72
-1.00003 -0.106571 3.60898 88 118 113
-0.675908 -0.109563 3.62342 67 99 88
-1.92734 -0.101655 3.57042 104 151 129
-1.90619 -0.10539 3.58163 70 103 89
-1.66038 -0.102284 3.58481 164 226 214
-0.84736 -0.106766 3.61851 172 222 218
0.183549 -0.101842 3.65275 187 226 224
-0.6446 -0.0964064 3.62204 153 206 193
-0.500068 -0.0935666 3.63509 73 91 84
0.168056 -0.0927214 3.64034 90 125 121
-0.307879 -0.0876033 3.62247 64 81 84
-0.281021 -0.0874939 3.62378 77 100 108
-0.662133 -0.0844183 3.63374 89 125 119
-1.83591 -0.0788804 3.55703 57 110 97
-0.50364 -0.0817164 3.64427 121 146 136
-0.466409 -0.077527 3.63922 63 87 77
-1.19838 -0.070705 3.5764 111 143 138
-1.71546 -0.0676154 3.58428 102 147 130
-0.832147 -0.06964 3.61473 155 209 192
-1.86654 -0.0648294 3.57099 68 114 102
-0.852198 -0.0602369 3.61901 137 180 167
0.060447 -0.0639408 3.65041 94 137 122
-1.27792 -0.0574644 3.56352 87 127 116
-1.15472 -0.0604833 3.60001 72 101 92
-0.629548 -0.0580574 3.62376 182 222 220
-0.805276 -0.0547088 3.62871 164 219 202
0.208329 -0.0482374 3.63679 103 134 125
-0.133169 -0.0451359 3.65159 97 166 146
-1.41229 -0.0393225 3.59901 84 118 108
0.117084 -0.0413231 3.64836 82 138 133
-0.677439 -0.0341852 3.63562 75 104 95
-0.231308 -0.0311734 3.65011 200 233 229
-2.18965 -0.0230882 3.56068 72 114 103
-2.12335 -0.0238621 3.55041 166 219 210
-0.852866 -0.0208684 3.6203 74 86 86
-0.478886 -0.0144824 3.63772 88 131 118
0.106143 -0.0117071 3.66575 116 161 152
-1.25433 -0.0130968 3.59572 91 125 114
-0.980345 -0.0108925 3.61969 85 116 101
-0.481354 -0.0135828 3.64101 124 160 148
-0.0192752 -0.0117676 3.65419 107 147 135
0.63268 -0.00770477 3.66637 95 136 129
-1.2074 -0.000922857 3.6161 96 131 117
0.00861463 -0.000533865 3.6561 110 144 133
-1.86549 0.00450497 3.57157 74 149 128
-0.753727 0.00420379 3.62737 69 110 103
-0.454999 0.00279321 3.62907 198 236 230
-1.24677 0.016049 3.56228 69 90 81
-0.95853 0.017519 3.61944 61 103 85
0.654747 0.0138032 3.67447 74 112 106
-0.988667 0.0196095 3.61671 65 95 84
-0.870012 0.0205271 3.62261 70 79 76
-0.786128 0.0168566 3.60746 79 123 106
-1.52656 0.0217734 3.59884 172 222 212
-2.12644 0.0269064 3.55799 172 233 207
-1.99441 0.0250968 3.56812 146 201 186
-0.777971 0.0267453 3.63269 71 115 102
-2.17215 0.0373924 3.56658 83 122 106
-1.09675 0.0370454 3.59505 60 95 85
-2.0124 0.0380845 3.55467 68 104 90
-0.309962 0.0479326 3.64281 94 135 130
0.60943 0.0508633 3.66925 108 140 129
-1.94285 0.0502353 3.56469 137 185 159
-1.3248 0.0486163 3.5787 76 116 104
-0.822255 0.0463135 3.62644 61 81 69
-0.44853 0.0521817 3.63248 118 170 152
-2.17444 0.0549586 3.56749 138 194 171
-0.596672 0.0556992 3.62753 53 79 66
0.36327 0.0565868 3.67259 88 131 122
-1.97645 0.0613056 3.55906 144 185 170
-1.90418 0.0582614 3.57386 132 198 186
-1.89954 0.0573446 3.57082 126 188 174
-1.89843 0.0689444 3.59005 77 113 99
-0.774284 0.0625172 3.64093 70 99 90
-2.05861 0.0753526 3.56916 94 128 117
-1.8833 0.0765501 3.5893 109 172 162
-0.389644 0.0713306 3.63904 163 217 210
-2.13638 0.0800806 3.56773 144 226 191
-1.80273 0.0798428 3.58465 72 132 108
-0.876604 0.082418 3.64079 49 85 61
-1.94438 0.0930931 3.58343 164 224 193
-1.9035 0.0893799 3.57906 133 195 177
-0.628274 0.0909112 3.63614 80 112 107
-0.0221802 0.0987517 3.65151 90 126 110
-2.20023 0.111736 3.55895 136 203 182
-0.974866 0.12109 3.58478 37 56 41
-0.834118 0.133267 3.6352 59 78 59
0.264308 0.139057 3.672 82 148 129
0.986181 0.146322 3.69393 82 135 125
-0.794658 0.152534 3.64841 122 155 148
-0.597436 0.157853 3.65712 94 140 141
0.314975 0.155662 3.67685 180 236 225
-0.0986582 0.167362 3.64932 186 220 214
0.30953 0.169012 3.68984 91 140 118
-1.79549 0.16724 3.5934 158 220 204
-0.596489 0.173524 3.66455 180 228 216
1.88973 0.174713 3.72921 120 170 158
-1.90363 0.177341 3.5879 91 135 122
-0.611731 0.179319 3.65529 59 87 68
0.666455 0.179198 3.68704 91 141 131
-1.87616 0.176854 3.5946 67 85 78
-1.77029 0.18133 3.6061 146 215 202
0.966908 0.185013 3.69305 104 168 156
0.254071 0.188577 3.67356 74 107 93
-2.00273 0.192044 3.58812 73 107 90
-1.4883 0.189772 3.61136 229 255 255
0.0273331 0.193587 3.6707 166 225 210
-1.43953 0.198315 3.61645 85 145 127
-0.570158 0.192686 3.65688 163 216 203
0.278361 0.203315 3.66081 141 216 195
-1.95285 0.202784 3.60025 64 112 88
-1.83931 0.208385 3.61099 75 94 79
-1.28298 0.203343 3.61486 130 169 167
0.26419 0.207288 3.6696 107 147 135
-2.09048 0.207407 3.5609 69 104 90
-1.97433 0.214307 3.58974 151 216 184
-0.222312 0.220032 3.6653 113 147 136
0.281917 0.216008 3.69943 195 240 231
-0.44773 0.228452 3.6572 70 115 98
-2.1178 0.22332 3.56041 57 77 58
-1.63135 0.23363 3.62239 96 133 123
0.736476 0.234902 3.67693 163 212 198
-0.154858 0.241353 3.65842 85 115 110
0.612873 0.242753 3.67618 79 129 117
-1.34385 0.243869 3.62127 45 88 75
-1.89179 0.245985 3.6036 83 115 104
-0.736264 0.253382 3.65493 165 202 200
-0.513748 0.248467 3.65466 69 119 101
-0.388791 0.25049 3.65388 98 148 124
-0.270359 0.252321 3.65612 114 166 148
-1.97591 0.250824 3.60229 69 105 88
-1.79628 0.249983 3.61118 92 143 129
-1.72166 0.256283 3.62167 91 137 125
0.134852 0.258271 3.66441 100 131 122
0.51755 0.256869 3.67602 119 143 149
-0.690511 0.258529 3.64757 127 170 167
-0.816274 0.279552 3.64207 175 232 223
-2.09048 0.2756 3.55392 111 147 130
-1.87047 0.279038 3.62207 59 84 74
-1.73323 0.280584 3.61621 137 181 174
-0.0864098 0.278814 3.6578 111 164 144
0.81199 0.289895 3.68739 126 157 154
-1.74419 0.283059 3.61158 81 111 100
