ply
format ascii 1.0
element vertex 1257
property float x
property float y
property float z
property uchar blue
property uchar green
property uchar red
end_header
-1.35831 -0.348658 3.46564 80 145 130
-1.34264 -0.347806 3.46436 52 120 109
-1.57669 -0.345892 3.45077 84 146 134
-1.35177 -0.347066 3.46577 158 225 210
-0.608124 -0.351472 3.54331 151 214 212
-1.97362 -0.337345 3.40116 53 110 85
-1.9442 -0.338346 3.39967 71 138 117
-1.32964 -0.341802 3.46929 74 141 134
1.07858 -0.366566 3.73724 168 239 219
-0.0254129 -0.351631 3.60248 150 211 201
-1.34335 -0.332018 3.4681 69 150 131
0.903922 -0.353492 3.71491 79 158 115
-1.33138 -0.323676 3.46823 78 143 134
-0.122407 -0.335448 3.59417 77 159 140
0.953936 -0.345893 3.72048 89 161 131
1.07804 -0.346237 3.74231 184 228 221
-1.54709 -0.319725 3.45245 68 134 123
-0.457761 -0.327238 3.55772 90 177 143
-0.375309 -0.325957 3.5692 78 152 126
-1.96561 -0.310225 3.3994 66 131 99
0.934391 -0.33917 3.7256 170 238 207
-1.54464 -0.313449 3.45281 77 141 136
-0.430645 -0.322306 3.56262 152 238 204
-0.382831 -0.322047 3.56787 159 225 200
-1.65602 -0.309986 3.44262 71 125 120
-1.34997 -0.30739 3.46607 89 151 137
-1.60799 -0.304787 3.44767 73 150 136
0.725164 -0.326741 3.70034 171 232 222
1.01515 -0.32875 3.73848 73 145 125
2.18919 -0.342795 3.8893 145 181 175
-1.3636 -0.303743 3.46591 69 132 122
0.966116 -0.32634 3.7303 85 152 125
-0.689827 -0.299773 3.54202 163 229 218
1.60537 -0.323524 3.81486 154 223 202
-1.51906 -0.291534 3.45475 87 146 155
0.569305 -0.307273 3.68307 89 152 143
-1.61157 -0.287201 3.44687 79 149 136
2.17811 -0.319402 3.85309 137 216 189
-1.52437 -0.285139 3.4545 95 151 156
-0.114622 -0.29223 3.60054 88 174 156
-1.36302 -0.278924 3.46649 72 123 115
-1.72264 -0.274934 3.43692 78 143 128
-1.77633 -0.271366 3.42637 150 236 202
-1.34302 -0.274562 3.4683 90 141 144
-0.586677 -0.281435 3.56917 84 158 122
-1.37004 -0.272242 3.46029 146 206 195
-0.65028 -0.27751 3.54386 153 224 197
-0.597517 -0.275798 3.56733 140 227 183
-0.59332 -0.275271 3.56515 65 144 101
-0.591144 -0.276462 3.57136 145 224 183
-1.38355 -0.267331 3.4644 153 209 198
-0.673802 -0.270006 3.53884 208 231 223
-0.60653 -0.271524 3.56681 52 134 91
-1.35558 -0.262569 3.46445 149 216 207
2.11348 -0.28974 3.87393 175 221 208
-0.614147 -0.265425 3.56449 149 223 189
-0.594366 -0.265585 3.56908 127 197 157
-0.032229 -0.268179 3.61511 92 184 165
-1.35698 -0.256253 3.46373 84 142 131
-1.87309 -0.251231 3.41407 59 118 104
-1.61997 -0.251717 3.44344 68 134 123
-1.79761 -0.250186 3.42617 81 152 135
-1.63583 -0.250164 3.44027 143 204 190
-0.0448956 -0.260643 3.61661 92 151 123
-0.0397531 -0.260554 3.61639 138 196 161
-0.533879 -0.256111 3.60271 87 156 143
-0.156456 -0.256992 3.61163 161 226 205
-1.36286 -0.246224 3.46437 66 126 116
-0.640389 -0.252502 3.55255 143 222 183
-0.635886 -0.252765 3.5522 122 195 155
-0.181746 -0.257018 3.60686 162 233 190
-0.583558 -0.253651 3.58776 51 137 97
-0.67015 -0.248783 3.54053 70 144 126
-0.598223 -0.251661 3.57288 113 170 131
0.015769 -0.254848 3.6147 74 111 91
1.58117 -0.269809 3.82487 185 242 234
-0.404998 -0.251811 3.60724 159 213 220
-0.569968 -0.249108 3.59412 65 152 119
-0.379596 -0.25008 3.61167 104 168 169
-1.60496 -0.237866 3.44364 80 150 137
-0.742937 -0.243264 3.53536 158 232 214
0.670287 -0.255949 3.70432 111 171 161
-0.59259 -0.245264 3.58491 33 112 73
-0.357028 -0.245723 3.61689 81 153 147
0.0762069 -0.246508 3.62351 185 241 236
-0.637846 -0.239765 3.55295 113 192 143
-0.623589 -0.240519 3.56383 35 105 65
-0.341547 -0.244048 3.61431 76 161 146
-1.985 -0.229041 3.39188 154 210 187
-1.97982 -0.227441 3.39048 95 141 112
-0.563605 -0.241809 3.59532 145 232 188
0.378268 -0.244392 3.66247 177 234 231
0.395244 -0.244832 3.6644 172 230 225
-1.98152 -0.226915 3.39286 95 141 112
-0.594182 -0.238658 3.58487 66 150 108
2.11665 -0.258423 3.88056 134 180 181
-1.31397 -0.229522 3.46514 80 136 123
0.0491639 -0.238148 3.61955 44 94 76
-0.593691 -0.235379 3.58765 114 210 169
-0.584941 -0.236342 3.58504 137 236 190
-0.581844 -0.235655 3.59179 50 151 106
0.415019 -0.239382 3.66631 62 131 118
-0.564886 -0.231587 3.60448 137 226 186
-0.29864 -0.232897 3.62419 167 227 196
0.0515174 -0.232563 3.62405 156 213 204
0.614699 -0.236035 3.69611 160 215 212
-0.596563 -0.228619 3.58559 121 193 157
-0.653374 -0.226008 3.54608 52 125 79
-0.2343 -0.23072 3.63292 98 183 145
-0.645519 -0.224431 3.55365 74 156 113
-0.640527 -0.224925 3.55712 55 136 91
-0.576097 -0.225845 3.59452 68 153 115
-0.225179 -0.228513 3.6297 132 205 173
0.854522 -0.233061 3.72757 83 152 141
0.386322 -0.22827 3.66284 174 232 227
-0.454516 -0.222736 3.61374 53 133 120
-0.651508 -0.217732 3.54685 119 197 160
-0.64757 -0.219192 3.55855 116 193 155
-0.593793 -0.22107 3.59197 137 215 178
0.0521698 -0.22215 3.62899 139 199 181
-1.73817 -0.209049 3.43391 69 137 120
-0.610086 -0.217498 3.57805 136 209 171
-0.374441 -0.219851 3.62156 135 224 205
0.451489 -0.224384 3.67924 173 229 218
2.08946 -0.234592 3.89078 115 174 166
-0.688928 -0.213203 3.54074 163 229 210
-0.651305 -0.211656 3.54715 153 209 166
1.39669 -0.227191 3.80148 108 180 174
-1.43471 -0.207236 3.459 153 210 207
-0.590109 -0.213676 3.58822 157 223 182
-0.597673 -0.213255 3.58751 125 191 149
-1.21468 -0.205542 3.48039 85 140 153
-0.65987 -0.207174 3.54501 38 105 76
-0.582878 -0.210763 3.59285 70 151 106
-0.540484 -0.210187 3.60774 55 118 92
-0.633745 -0.207732 3.56438 32 103 63
-0.548682 -0.209266 3.59892 70 141 108
-1.73345 -0.199207 3.43089 59 131 109
-1.2359 -0.198934 3.47644 105 155 153
-0.628248 -0.20528 3.56933 41 114 76
0.0553005 -0.204355 3.63337 77 147 130
1.55237 -0.214314 3.82704 105 170 154
-0.581603 -0.199993 3.59393 60 128 93
0.190682 -0.202052 3.64291 158 231 209
-0.649102 -0.195888 3.55614 111 176 144
-0.543933 -0.198577 3.60208 144 204 173
0.0547716 -0.198598 3.63428 117 183 164
0.201801 -0.198757 3.63966 144 212 187
-1.77903 -0.186731 3.42425 148 219 193
-0.656287 -0.192466 3.54724 114 180 145
-0.615843 -0.193699 3.57654 50 120 79
0.421446 -0.19931 3.67366 160 217 208
0.0559373 -0.193699 3.6346 46 95 81
-0.623194 -0.189263 3.57128 124 207 168
-0.651196 -0.186514 3.55501 113 178 146
-0.645145 -0.186906 3.55625 55 123 88
-0.350187 -0.189264 3.62022 88 173 165
-0.295937 -0.191617 3.63332 64 141 134
0.129676 -0.189486 3.6343 91 145 156
-0.620178 -0.185405 3.57641 57 133 92
-1.68538 -0.17731 3.43285 61 123 111
-0.666384 -0.182958 3.54534 136 203 176
-0.655946 -0.183344 3.55331 43 92 64
0.0561948 -0.187807 3.63784 125 171 158
0.206788 -0.187757 3.64347 151 220 199
-0.613445 -0.183252 3.57812 35 112 75
-0.584471 -0.182332 3.59907 61 144 105
0.0578826 -0.183123 3.63907 52 103 89
0.72768 -0.186843 3.71438 184 231 229
-0.653231 -0.172261 3.55353 49 99 65
0.0571349 -0.176627 3.64032 113 174 154
-1.56601 -0.165892 3.44875 91 155 143
0.414308 -0.174371 3.67351 93 164 148
-1.62527 -0.162804 3.44011 77 139 125
0.0585186 -0.171546 3.64336 46 96 86
0.183055 -0.172638 3.64261 88 163 142
0.450983 -0.174125 3.6771 142 201 187
1.14611 -0.177645 3.77511 81 125 132
-0.319681 -0.171063 3.63195 158 220 255
1.54548 -0.178218 3.8298 126 166 164
2.13685 -0.181082 3.90721 93 148 133
0.200058 -0.167363 3.64309 80 162 139
2.15983 -0.179203 3.90753 103 175 155
-0.657091 -0.162455 3.55118 113 185 142
-0.637735 -0.162302 3.563 129 191 151
-0.564842 -0.162173 3.60345 45 112 97
-0.675104 -0.158067 3.54347 155 229 201
-1.73772 -0.152501 3.43104 72 141 114
-0.627405 -0.158329 3.56901 123 187 151
-0.559124 -0.158609 3.60416 58 130 118
1.62295 -0.170489 3.84041 94 155 165
-1.28083 -0.152988 3.47544 105 150 183
-0.673605 -0.154039 3.54498 81 148 121
-0.588053 -0.156704 3.59885 67 154 120
-0.502797 -0.157497 3.61461 153 223 223
-0.627039 -0.153805 3.56638 125 188 148
2.15002 -0.169247 3.91176 74 147 125
-0.608283 -0.153778 3.58385 10 70 40
-0.852749 -0.150418 3.52186 158 229 212
-0.590788 -0.153303 3.59365 129 212 180
-0.418958 -0.153131 3.62471 90 148 167
-0.649647 -0.148924 3.5541 112 176 141
-0.549298 -0.14988 3.60554 134 212 201
2.0978 -0.162532 3.90227 107 176 156
-1.28104 -0.141047 3.47581 98 135 173
-0.623384 -0.144833 3.5712 17 87 56
-0.588057 -0.146322 3.5976 143 227 198
-0.630761 -0.144449 3.56667 58 122 86
-0.555801 -0.145222 3.6045 157 217 211
-0.649596 -0.138777 3.5541 35 105 68
-0.605652 -0.140711 3.58461 95 149 120
-0.595138 -0.141189 3.59229 140 193 173
-0.657264 -0.138399 3.54881 51 131 88
-0.597315 -0.134896 3.59167 111 171 147
-0.574085 -0.135479 3.60285 61 141 112
-0.463782 -0.135889 3.6237 159 224 232
0.608103 -0.139048 3.70429 98 164 153
-0.586761 -0.13373 3.59754 35 104 77
-0.463248 -0.135103 3.62683 148 218 211
-0.658076 -0.130823 3.55266 32 111 70
-0.428706 -0.133755 3.62455 63 149 141
-0.659973 -0.13057 3.54804 15 102 58
-0.424625 -0.132545 3.62555 64 151 137
-1.75153 -0.125878 3.42371 145 232 194
-0.643541 -0.128553 3.55738 40 97 66
-0.470887 -0.131021 3.62785 113 174 176
-0.66077 -0.127085 3.54919 122 216 162
-0.458417 -0.12877 3.63055 142 219 215
-1.81535 -0.119131 3.42059 84 149 128
-1.70453 -0.1198 3.43221 51 133 111
-0.631733 -0.122481 3.56758 120 173 146
1.52103 -0.131282 3.83443 205 246 219
-1.82083 -0.117405 3.4193 83 150 123
-1.5512 -0.118179 3.44632 81 138 130
-0.671282 -0.120821 3.54497 141 217 185
-0.611793 -0.121253 3.58353 44 110 91
-0.560427 -0.122777 3.60624 75 155 138
-1.50486 -0.115784 3.44956 215 255 250
-0.65325 -0.119816 3.55544 53 112 81
-0.584984 -0.119325 3.60229 139 215 183
-0.521115 -0.119119 3.61548 90 166 162
-0.656119 -0.117308 3.55395 128 185 160
-0.61631 -0.118023 3.58038 133 197 168
-0.510185 -0.118568 3.61378 165 234 224
2.13439 -0.128245 3.9097 81 149 118
-0.152871 -0.111772 3.43678 76 114 192
-1.60657 -0.112596 3.44156 65 140 118
-0.137828 -0.111246 3.44539 136 164 228
0.786121 -0.119628 3.72855 171 236 220
-0.460371 -0.115939 3.63115 154 201 233
-0.134976 -0.110008 3.44419 75 113 191
-0.656976 -0.113011 3.55287 42 103 77
-0.606027 -0.111885 3.58555 141 205 175
-0.582453 -0.112551 3.60112 66 140 114
-0.458992 -0.112468 3.63338 70 122 145
-1.22888 -0.107959 3.47717 98 150 167
-0.201707 -0.106478 3.42413 110 157 218
-0.588133 -0.10993 3.5997 115 184 157
0.176873 -0.111323 3.64396 83 159 147
-0.416473 -0.108139 3.62487 78 140 156
0.113385 -0.108339 3.63596 69 109 97
-0.604009 -0.105474 3.58441 132 197 158
-0.574195 -0.105523 3.60086 62 144 122
-0.470403 -0.106496 3.63249 84 152 165
-0.61522 -0.10467 3.57895 123 179 158
-0.65669 -0.101563 3.55131 31 92 56
-0.472833 -0.102974 3.63059 145 207 223
-0.61397 -0.100166 3.58147 9 58 30
0.710891 -0.10321 3.72085 99 168 153
-0.627673 -0.0992051 3.57242 58 113 86
-0.433625 -0.0857055 3.10303 180 230 255
-0.158314 -0.0958845 3.43916 190 230 255
1.36981 -0.104799 3.8181 138 170 181
-1.61285 -0.0938143 3.44279 81 142 128
-0.431702 -0.0950503 3.62333 141 225 220
-0.476036 -0.0945091 3.62868 35 75 100
-1.74635 -0.0876742 3.42793 75 150 122
-0.594909 -0.0910551 3.5921 73 132 111
-1.84856 -0.0855831 3.40857 170 225 222
-0.655153 -0.0886123 3.55275 130 179 157
-0.646193 -0.0886882 3.55927 115 169 146
-1.6095 -0.0856667 3.44434 57 128 108
-1.16125 -0.0859626 3.48567 111 163 169
-0.47207 -0.0892648 3.62934 74 139 170
-0.587367 -0.0846297 3.5974 131 214 192
-1.61592 -0.0803216 3.44016 70 132 114
0.113227 -0.0849291 3.63757 143 199 188
2.1442 -0.089315 3.92222 103 182 163
-0.526906 -0.0812525 3.61121 166 233 226
-0.503188 -0.0799181 3.61517 69 153 141
-0.59709 -0.0786058 3.59353 19 79 61
-1.81296 -0.0727715 3.41676 150 213 197
-0.602742 -0.0754843 3.59014 136 193 178
-1.81479 -0.071802 3.42033 144 206 192
-0.606558 -0.0747827 3.58693 18 76 48
-1.65182 -0.0705153 3.43791 134 209 187
-0.826956 -0.0720093 3.52424 191 242 234
-0.475501 -0.0739372 3.63035 147 202 229
-0.70715 -0.0710511 3.53969 201 239 241
-1.62742 -0.0688965 3.4386 49 111 93
-0.73244 -0.0691546 3.53558 66 146 133
-0.595698 -0.0695388 3.59423 54 124 101
0.369551 -0.0705566 3.67249 92 155 146
-0.610865 -0.0670417 3.59067 36 88 64
-1.54991 -0.0636511 3.44581 82 148 143
-0.825586 -0.0644648 3.52624 95 158 148
-0.656227 -0.0648708 3.54823 121 177 164
-0.478282 -0.0663354 3.62889 131 176 190
-0.164472 -0.0563939 3.14658 95 149 232
0.111408 -0.0627829 3.64029 173 228 213
0.972906 -0.064616 3.76056 68 127 112
-1.3648 -0.0601466 3.46205 85 140 137
-0.593087 -0.0605439 3.60338 39 120 95
0.969357 -0.0621812 3.75984 151 219 202
0.977673 -0.0627498 3.76052 147 198 184
1.23301 -0.062278 3.7998 119 174 179
-1.83757 -0.0549133 3.41122 81 146 130
-0.600318 -0.0564699 3.59514 108 171 145
-0.615884 -0.0553661 3.58298 19 87 52
-1.62713 -0.0522885 3.44026 68 138 115
-1.61829 -0.0521883 3.4365 55 117 93
-0.531902 -0.0544914 3.61639 82 159 151
-0.439813 -0.0543833 3.62111 69 118 128
-0.494947 -0.0538926 3.61749 142 181 220
-0.606755 -0.0514624 3.58915 118 179 151
-0.60629 -0.0514183 3.58923 118 180 150
-0.469364 -0.0512578 3.62954 91 143 156
-1.6654 -0.0482988 3.4335 74 146 126
-0.497699 -0.0507815 3.62962 201 243 255
-0.611534 -0.0485844 3.58365 37 81 58
-0.832186 -0.0439258 3.52397 173 238 222
-0.653336 -0.0455625 3.5528 111 163 146
-0.615642 -0.0432936 3.58458 84 145 111
-0.609814 -0.0434153 3.5906 44 97 70
-0.606563 -0.0433428 3.59353 120 184 154
-1.62774 -0.0384278 3.44208 66 150 125
-0.651404 -0.0384813 3.55347 102 158 135
-0.604297 -0.0379615 3.58996 37 108 82
0.801489 -0.040305 3.73554 91 162 145
-0.609193 -0.0373475 3.58811 136 193 168
0.193631 -0.0381053 3.65057 174 247 231
0.814926 -0.0388547 3.7393 77 146 126
-0.612157 -0.0349629 3.58697 17 63 44
-0.596512 -0.0337047 3.59871 121 192 166
-0.477116 -0.0341125 3.62809 153 228 214
-0.46424 -0.033483 3.63592 68 147 160
0.94975 -0.034777 3.76072 138 187 171
-0.61747 -0.033418 3.58266 30 95 69
-1.5655 -0.030968 3.44371 78 144 143
0.679708 -0.0317236 3.72142 96 171 155
-0.590897 -0.0294503 3.60101 136 202 183
-0.616482 -0.0231081 3.58033 117 173 152
-1.85294 -0.0212311 3.40929 197 242 225
-0.597821 -0.0218046 3.59404 66 137 111
-0.444446 -0.0224206 3.61873 42 119 116
-1.68438 -0.0187108 3.43693 81 150 135
-1.23471 -0.019377 3.48221 118 162 191
-0.556354 -0.0188957 3.60743 225 253 247
-0.483396 -0.0185467 3.62819 56 128 136
-0.366206 -0.0186396 3.45197 185 232 255
-0.60981 -0.0173131 3.59002 25 82 61
-0.439353 -0.0169389 3.62472 42 116 140
0.29479 -0.0178351 3.66479 164 227 211
0.764634 -0.0178567 3.73776 81 154 138
-0.652875 -0.0150697 3.55153 35 90 71
-0.48298 -0.0143439 3.62812 40 107 130
-0.812481 -0.0140462 3.52724 147 210 201
-0.619101 -0.0136708 3.58378 114 166 148
-0.608121 -0.0129052 3.59647 106 160 143
0.828895 -0.0141425 3.74781 79 159 130
-1.286 -0.011384 3.47716 110 152 187
-0.615367 -0.0108513 3.58825 112 170 152
-0.476189 -0.0119013 3.63206 68 132 157
0.324152 -0.0117895 3.66525 81 155 143
-1.60845 -0.0095324 3.44049 69 134 119
-0.649165 -0.0095348 3.56011 98 149 135
-0.599637 -0.0103776 3.59981 43 112 97
-1.40466 -0.00830014 3.46554 181 224 243
-0.466747 -0.00982359 3.62822 158 225 226
-0.159291 -0.00750478 3.44153 151 177 237
0.828746 -0.00862668 3.74349 156 231 203
0.909107 -0.00881029 3.75641 137 191 168
-0.0361417 -0.00725792 3.50135 181 198 237
-1.39731 -0.00548468 3.4658 192 232 255
-0.642079 -0.00539065 3.56091 38 83 67
-0.61033 -0.00281854 3.59808 19 83 71
-0.0194503 -0.00312015 3.50624 199 209 209
-0.716521 -0.00147865 3.5401 84 158 140
-0.480411 -0.0020092 3.63147 148 236 223
0.800009 -0.000135305 3.73895 80 149 129
-0.473082 0.00104003 3.6215 155 248 219
0.868918 0.00114829 3.74839 136 209 183
-1.3366 0.00232513 3.4731 130 172 217
-0.821837 0.00137088 3.52715 159 225 213
0.749085 0.00156416 3.73549 86 160 132
-0.632721 0.00286922 3.57411 120 166 143
0.833828 0.00397163 3.74364 86 167 128
-0.644796 0.00532588 3.56444 107 165 147
-0.590873 0.00577011 3.6051 156 208 208
0.860735 0.00581834 3.75207 137 204 172
-0.634348 0.00807992 3.56867 118 183 157
-0.616042 0.00850637 3.59054 35 97 73
-0.467099 0.00874835 3.63034 53 137 155
-0.594963 0.00966272 3.60223 64 127 117
-0.594944 0.00949737 3.60165 64 127 117
-0.658484 0.0112065 3.55527 61 108 92
0.287194 0.0122687 3.6682 188 245 236
0.823952 0.0118288 3.74169 58 137 96
-1.56239 0.0112898 3.44275 173 230 221
0.834838 0.012907 3.74273 144 226 183
0.830756 0.0141917 3.74215 70 149 106
-0.829622 0.0149473 3.52826 86 152 140
0.817186 0.0160699 3.74186 73 150 113
-0.613978 0.0165116 3.59187 44 96 79
-0.486106 0.0164112 3.61901 103 157 150
0.883834 0.0169764 3.75513 155 220 195
-0.26816 0.0169143 3.43405 81 106 170
0.825177 0.0187657 3.73935 154 225 185
0.880876 0.0184488 3.75535 88 144 123
0.927969 0.0189313 3.76085 159 217 199
-0.633156 0.0198323 3.57255 117 173 154
-0.487468 0.0200968 3.63211 49 112 102
0.831705 0.0210097 3.7418 77 140 98
-0.665676 0.0201148 3.5491 152 214 202
-0.660309 0.0216152 3.54883 134 196 182
-1.66432 0.0236076 3.43994 69 138 118
-0.612614 0.0251418 3.59027 39 86 70
0.784763 0.0263174 3.73812 176 247 220
-1.86088 0.0243767 3.40662 68 131 115
-0.321309 0.0239724 3.44511 64 113 183
-0.656068 0.0265414 3.5558 135 192 177
-0.636636 0.0263108 3.57234 125 190 165
-1.34582 0.0271487 3.4698 120 162 207
-0.736097 0.0273356 3.53838 141 214 192
-0.483655 0.0287601 3.63378 155 231 220
-0.279393 0.0277136 3.43796 70 112 181
0.816065 0.0286578 3.7336 152 237 187
-1.2208 0.0275328 3.47892 111 173 179
-0.662479 0.0286168 3.5521 139 204 188
-0.655725 0.0298657 3.5571 34 81 65
-0.219552 0.0337277 3.88043 165 193 247
0.197428 0.0312663 3.65625 75 147 127
-0.612645 0.0326118 3.59171 94 157 141
-0.609578 0.0323175 3.59443 33 107 89
0.856413 0.0350961 3.7509 144 196 159
-1.35854 0.0322312 3.46794 153 208 223
-0.635527 0.0352932 3.5708 118 184 155
-0.628409 0.0358333 3.57687 132 196 166
0.803907 0.0381374 3.73761 81 164 126
-1.37239 0.0350437 3.46679 203 240 254
-0.654855 0.0375039 3.55765 115 165 147
1.53446 0.0409389 3.85352 164 231 222
2.16574 0.0409924 3.94909 91 170 156
0.116496 0.040388 3.64775 160 222 206
0.157492 0.0396511 3.6516 166 231 209
-0.729642 0.0403182 3.54285 148 219 193
-0.127187 0.0393251 3.46042 161 196 255
0.805119 0.0425145 3.73204 70 151 126
-0.0932466 0.0406854 3.47769 184 212 255
-0.0881757 0.040221 3.47782 170 210 255
0.184382 0.043395 3.65392 162 226 204
-0.929638 0.0424762 3.51495 179 234 225
-0.68495 0.0433727 3.54624 151 225 207
-0.0270168 0.0429089 3.50501 132 171 245
-0.71244 0.0467832 3.54284 153 212 197
0.19099 0.0475593 3.65399 148 214 189
-1.511 0.0489234 3.44707 158 203 236
-1.61643 0.049583 3.44214 68 140 127
-0.233551 0.0500781 3.43002 201 243 255
-0.379799 0.0491225 3.24421 68 90 148
-0.297179 0.0558655 3.68182 156 184 218
0.763432 0.0567088 3.73951 80 157 120
0.98743 0.0566522 3.77556 171 234 218
1.5167 0.0577932 3.85376 163 226 217
-0.480439 0.055843 3.63304 158 216 245
1.5454 0.0611 3.86084 100 168 157
-0.631514 0.0581304 3.58081 106 173 152
-0.304864 0.0564567 3.44203 185 225 255
-0.642272 0.0623011 3.57109 25 86 60
-0.251481 0.0613261 3.43315 177 224 255
0.548998 0.0664065 3.70986 88 165 151
0.956717 0.0676347 3.77135 77 163 139
1.52976 0.0685288 3.8582 88 146 135
-0.569202 0.065092 3.60727 75 153 136
-0.273453 0.0620643 3.43832 161 196 240
-0.242896 0.0624492 3.43102 188 223 255
-0.185718 0.0643465 3.5797 121 159 224
-0.419111 0.0651831 3.55041 38 56 87
-0.47446 0.0689555 3.6301 60 134 128
-1.51619 0.0657007 3.45024 90 149 169
-0.646307 0.0677698 3.56449 45 102 81
-0.0398573 0.0584365 3.09056 73 88 151
-0.598829 0.0695432 3.60308 152 222 205
-0.474219 0.0707006 3.63589 59 137 150
0.151637 0.0715277 3.65266 76 140 128
-0.290926 0.067293 3.43712 67 103 167
-0.057232 0.0689278 3.49403 176 213 255
-0.652333 0.0712982 3.56451 30 85 68
-1.31791 0.0711999 3.4741 149 173 203
-0.657662 0.0730893 3.55663 54 110 97
-0.607439 0.0758235 3.60246 49 123 95
-0.660939 0.0759343 3.55787 163 219 200
0.142761 0.0789856 3.65198 150 222 200
-0.320153 0.0751501 3.44496 86 112 182
0.200836 0.0791995 3.66158 149 221 201
-0.662783 0.0791283 3.55418 76 143 122
-0.654558 0.0788622 3.56114 45 90 71
-0.911738 0.0778496 3.51872 145 224 203
-0.639658 0.0802947 3.57461 120 185 163
-1.86808 0.0767889 3.40531 79 144 118
1.53117 0.0882855 3.85817 68 103 89
-0.692063 0.0818937 3.54884 159 230 213
-0.291964 0.0820704 3.4373 113 163 235
0.18764 0.0891423 3.65961 168 229 215
-0.59868 0.0874617 3.60336 63 125 109
-0.571086 0.0924404 3.61274 160 221 217
-0.181595 0.0750595 3.0025 142 162 209
-0.111894 0.0729015 2.9289 63 128 209
-0.092546 0.0881781 3.47939 112 135 191
-0.645878 0.0915424 3.5722 121 184 164
-0.0335081 0.0830901 3.20717 54 77 103
-0.0748392 0.0920505 3.48772 139 185 255
-1.38077 0.0930084 3.46539 152 190 225
-0.447964 0.103865 3.86837 80 91 141
-0.631872 0.096982 3.58447 94 155 129
1.50952 0.105014 3.85762 150 224 206
1.00629 0.103442 3.78563 169 234 219
1.05763 0.104099 3.79274 160 233 211
1.54568 0.107006 3.86847 86 148 134
-1.81809 0.0944701 3.41151 60 141 108
-0.639925 0.100613 3.57625 122 188 163
-0.817463 0.100311 3.53637 148 227 213
-0.624645 0.102218 3.58939 118 163 146
0.93168 0.108257 3.77576 82 158 134
-0.372121 0.101479 3.4542 216 243 255
0.799348 0.110779 3.75281 157 252 207
1.53556 0.113623 3.86129 80 151 135
-0.614436 0.107199 3.60262 131 195 176
-0.590946 0.107763 3.60692 149 225 194
-0.145471 0.102141 3.45766 170 219 255
0.136109 0.108541 3.65362 101 163 149
0.896993 0.112374 3.763 127 227 185
-0.61924 0.109476 3.59021 127 190 170
-0.494254 0.11118 3.63176 123 215 196
-0.481363 0.112376 3.64162 36 126 126
-0.0327504 0.112021 3.60641 138 169 220
1.55736 0.120128 3.86963 92 163 153
0.204161 0.114805 3.66391 73 147 129
-0.630254 0.114008 3.58595 121 176 151
-0.487665 0.115636 3.63143 131 221 202
-0.185542 0.108401 3.43765 78 127 197
-0.981469 0.111604 3.50931 71 139 122
-0.656426 0.11417 3.56349 134 180 161
-0.606998 0.115475 3.60243 53 124 98
-0.525093 0.124276 3.84156 98 167 156
-0.273794 0.112012 3.43697 209 243 255
0.111239 0.117854 3.65584 168 229 215
-0.278201 0.114587 3.43998 163 208 242
0.899496 0.127335 3.76866 148 230 195
-0.931879 0.120378 3.52108 228 255 255
-0.661124 0.121312 3.56059 51 109 85
-0.652865 0.121331 3.56966 87 141 118
1.42666 0.130879 3.84957 175 235 225
-0.179598 0.119696 3.43903 97 137 212
-0.0337591 0.134191 3.81339 139 181 248
-0.533577 0.128653 3.61649 146 226 203
-0.961596 0.125927 3.51505 64 133 118
-0.655731 0.128954 3.56273 121 163 138
-0.26216 0.123682 3.43274 74 114 189
0.150318 0.13119 3.65658 83 153 136
1.51476 0.138926 3.86354 81 139 128
1.5963 0.139898 3.87783 96 175 162
-0.612979 0.134556 3.59939 114 198 164
-0.696832 0.136948 3.55382 55 131 113
0.123616 0.13975 3.65348 80 149 134
-0.609266 0.138841 3.6022 44 118 90
-0.607397 0.139302 3.60398 40 114 90
-0.0345739 0.144163 3.71108 116 156 214
1.76949 0.152846 3.90563 88 167 140
-1.10373 0.137425 3.49303 209 255 255
-0.659716 0.141307 3.56259 32 107 79
-0.660081 0.141763 3.56403 40 121 88
1.08824 0.152459 3.80511 168 235 214
1.81205 0.157356 3.91549 89 154 129
-0.307267 0.115643 2.88334 70 118 190
-0.246522 0.138691 3.43347 68 123 190
1.50875 0.155556 3.86677 153 230 202
1.87073 0.159107 3.9272 94 166 146
-0.645072 0.146682 3.57438 97 156 128
-0.69011 0.146538 3.55307 148 219 199
-0.955549 0.146067 3.51344 166 244 233
-0.630826 0.149364 3.59109 124 207 168
-0.615546 0.15054 3.59964 53 133 102
-0.635605 0.150302 3.58097 100 155 130
-0.662974 0.150761 3.56471 124 202 171
1.79257 0.166205 3.90625 81 154 132
-0.632439 0.153292 3.59248 49 110 84
-0.533068 0.155291 3.61824 40 124 106
-1.92811 0.147335 3.38869 132 206 178
-0.562817 0.156865 3.61366 68 133 117
1.81755 0.169739 3.91716 70 140 109
-1.88971 0.149217 3.3977 136 216 181
-0.593371 0.158899 3.60766 168 228 218
-0.499467 0.1611 3.63156 120 166 173
-0.228495 0.152166 3.42924 123 160 222
1.8364 0.175633 3.9149 160 232 209
-0.63062 0.163914 3.58931 122 177 150
-0.501213 0.165867 3.63515 38 78 96
1.4718 0.17844 3.86633 163 234 224
-1.71371 0.158116 3.43298 175 219 220
-0.500752 0.169383 3.63117 165 209 233
-0.49472 0.170757 3.6354 152 211 207
-0.179897 0.160932 3.44442 49 85 161
1.78562 0.183109 3.91115 93 170 143
-0.235513 0.182697 3.8279 42 67 131
-0.184287 0.164464 3.44574 168 211 255
-0.629946 0.172624 3.58863 85 153 128
-0.279202 0.164817 3.43792 207 242 255
1.96235 0.190055 3.94547 79 156 142
-1.41809 0.166347 3.45869 149 181 224
-0.636866 0.173227 3.58377 110 164 141
-0.525975 0.175444 3.61844 156 210 241
-1.35664 0.16797 3.46222 96 143 170
-0.67067 0.174533 3.56166 109 199 170
-0.66304 0.174515 3.56994 125 195 165
-0.0652547 0.172686 3.49925 66 115 193
-0.567574 0.181488 3.60996 138 212 194
0.195778 0.18452 3.66809 159 225 214
1.79857 0.196256 3.90594 93 178 150
0.934306 0.190996 3.77943 93 165 142
0.105328 0.186327 3.65803 74 143 128
-0.279926 0.176829 3.43866 193 238 255
-0.267268 0.176132 3.4371 74 113 192
-0.501994 0.188033 3.63913 54 112 111
-0.0427709 0.181579 3.50851 105 129 175
-0.615368 0.188068 3.60615 51 120 100
-0.686559 0.18641 3.55736 73 141 124
0.103667 0.190641 3.65786 168 230 212
-0.626641 0.188849 3.59501 31 99 74
-0.626106 0.188594 3.59418 31 99 74
-0.0413065 0.184424 3.50884 37 47 71
-0.782717 0.187303 3.53734 176 236 226
-0.629668 0.190232 3.58841 117 175 151
-0.605477 0.19171 3.61091 56 125 110
0.168055 0.194697 3.66279 157 229 207
1.39605 0.205555 3.86111 82 156 144
1.90279 0.20927 3.93396 93 155 141
-0.783498 0.18971 3.54442 194 236 229
-0.503198 0.195082 3.63226 43 83 102
-0.538834 0.199 3.61487 67 142 121
-0.269862 0.188384 3.43748 67 129 193
0.109479 0.201211 3.65698 158 232 208
1.38994 0.211848 3.8573 163 226 216
1.86385 0.21657 3.9284 81 158 137
-0.58957 0.199565 3.60976 81 150 147
-0.486557 0.201904 3.63605 79 152 172
-0.538752 0.203186 3.61697 151 230 203
1.77879 0.220666 3.91329 82 163 138
-0.627843 0.203072 3.58954 119 172 152
-0.506016 0.208866 3.63029 124 160 170
0.633524 0.215794 3.73938 72 156 132
-1.00398 0.20259 3.50948 75 132 124
-0.656971 0.207589 3.56912 118 187 160
-0.653488 0.209346 3.57382 27 83 62
-0.300934 0.2015 3.44304 213 249 255
-0.668355 0.208812 3.56515 53 137 102
0.106126 0.215248 3.65891 166 235 202
-0.654046 0.210354 3.571 27 86 66
-0.614875 0.214903 3.6004 37 100 80
-0.0438341 0.254885 4.24705 44 63 108
-0.501074 0.219523 3.63406 70 126 155
-1.51486 0.209384 3.45161 100 144 197
1.74065 0.239136 3.91256 93 155 139
-0.653329 0.219075 3.57188 40 102 80
-0.605993 0.221283 3.60476 63 132 119
-0.0428213 0.249041 4.0529 152 172 237
-0.650531 0.222552 3.5787 127 172 155
-0.622275 0.224781 3.59775 38 104 85
0.328428 0.231344 3.69527 162 226 221
1.7505 0.244752 3.91679 61 123 105
-0.643432 0.226629 3.58188 137 179 162
0.0890864 0.231106 3.65875 29 71 53
-0.218669 0.198977 3.14082 120 170 223
-0.658652 0.228684 3.56881 128 199 173
1.75519 0.251057 3.917 79 144 129
-0.506825 0.235515 3.63511 122 181 196
-0.308132 0.225737 3.44651 88 135 217
0.369449 0.242063 3.70804 156 226 220
0.863185 0.2472 3.7796 178 244 232
-0.633472 0.235484 3.59276 29 88 67
-0.602086 0.236012 3.60558 162 225 215
-0.507878 0.238478 3.63458 55 114 124
0.0853206 0.23925 3.65302 82 113 92
0.0908102 0.239883 3.65862 123 184 158
0.64134 0.24571 3.74188 69 146 119
-0.540591 0.238397 3.61842 46 132 114
-0.86417 0.233663 3.52978 69 144 123
-0.652972 0.236186 3.57488 104 168 146
1.37311 0.256486 3.86229 78 147 134
-0.622411 0.239786 3.59771 132 190 172
-0.643707 0.242947 3.58252 122 177 152
0.620376 0.253787 3.74309 82 159 138
0.129427 0.250367 3.66477 153 223 210
0.212407 0.251235 3.67818 175 243 220
-0.509084 0.249379 3.63298 80 150 150
0.194789 0.251528 3.67392 88 165 138
0.232147 0.253591 3.68183 79 146 131
-0.0790735 0.241415 3.49779 189 211 255
-1.77837 0.23916 3.42169 86 149 129
-0.462903 0.254115 3.63607 46 118 112
0.522885 0.260057 3.72414 92 161 148
-0.0448049 0.249233 3.55508 224 247 242
1.81228 0.276236 3.92902 98 180 158
-0.66555 0.251173 3.568 121 179 161
-0.154201 0.245871 3.4637 165 197 255
-0.0480902 0.248867 3.51273 36 53 72
0.611583 0.266202 3.74002 83 154 134
-0.495759 0.258366 3.63574 82 147 145
-0.0883954 0.24963 3.49596 57 80 136
-0.650688 0.254919 3.57421 121 180 160
-0.631284 0.258101 3.59197 94 140 127
-0.109651 0.251284 3.48513 181 218 255
-0.605423 0.260603 3.60563 155 223 212
1.89423 0.285311 3.94333 103 174 157
-0.623051 0.262025 3.59673 113 174 154
-0.634705 0.264032 3.59173 99 154 137
-0.473138 0.267233 3.63052 47 110 144
0.506177 0.274328 3.72382 171 233 219
-0.575204 0.268919 3.6182 243 252 255
-0.469462 0.270047 3.62708 65 142 168
-0.260405 0.256175 3.43444 72 95 170
-0.19956 0.257678 3.44488 162 194 255
1.3472 0.290601 3.86208 159 222 213
1.36117 0.291895 3.86473 101 168 161
0.637293 0.283996 3.74537 68 146 122
-0.671547 0.271112 3.56314 71 141 128
0.0893862 0.279271 3.66277 76 141 126
1.46419 0.295662 3.87945 87 154 145
1.74035 0.299135 3.92254 91 156 140
0.569746 0.286452 3.73595 93 162 142
-0.665356 0.275115 3.56586 138 202 180
-0.659454 0.275349 3.57375 133 198 173
-0.476931 0.283307 3.63701 67 137 136
-0.238165 0.301391 3.84082 143 155 227
1.35681 0.304212 3.86761 162 218 213
-0.797904 0.279634 3.5423 83 152 131
-0.651841 0.281514 3.57573 133 188 171
-0.631966 0.287324 3.59068 106 155 135
0.244579 0.294116 3.69056 166 233 212
-0.465462 0.293335 3.63071 67 138 121
-0.457967 0.294996 3.63064 57 132 130
-0.587625 0.348623 4.25133 132 184 196
0.243657 0.301368 3.68946 166 236 219
-0.513647 0.297863 3.639 82 131 145
-0.496974 0.298443 3.63935 74 156 167
-0.202408 0.283791 3.44521 160 171 221
1.76217 0.324197 3.92993 97 166 153
-0.802659 0.295234 3.53972 87 146 125
-0.625307 0.301072 3.59517 134 211 183
-0.64012 0.302161 3.58295 104 153 137
-0.542532 0.30646 3.62065 70 150 143
0.669525 0.320401 3.75625 158 234 202
-1.5283 0.293756 3.44728 92 153 155
0.0843322 0.313314 3.66808 159 213 208
-0.706926 0.304414 3.55349 66 134 111
0.624506 0.322336 3.74922 92 165 143
-0.631902 0.308797 3.58961 96 164 141
0.0833977 0.318903 3.66407 141 203 187
-0.513685 0.318732 3.63402 68 113 140
-0.515336 0.318206 3.63309 38 69 94
0.0841784 0.322694 3.66571 85 156 139
0.359014 0.328617 3.71693 150 216 205
-0.516898 0.321856 3.63056 90 123 142
-0.478379 0.322431 3.63095 67 131 156
0.474689 0.331159 3.72767 157 228 212
-0.731429 0.317633 3.55043 92 154 148
-0.62753 0.322595 3.59971 81 151 134
0.0814666 0.32871 3.665 156 217 203
1.32833 0.351379 3.86864 152 220 209
0.081335 0.333183 3.66462 69 129 119
-0.137398 0.309133 3.38803 122 143 218
-0.0662583 0.412945 4.52505 82 132 215
0.080186 0.336611 3.6624 99 146 138
-1.86634 0.31437 3.406 70 135 103
-0.647292 0.331349 3.5802 91 149 125
-0.50359 0.338341 3.63835 71 146 148
-0.193384 0.321062 3.45181 140 170 225
-0.138289 0.356702 3.83375 40 79 164
-0.517611 0.340946 3.63617 135 209 197
-0.187109 0.323766 3.45688 173 197 255
-0.701038 0.334164 3.55179 54 110 97
-0.669025 0.336462 3.56847 128 184 171
-0.624874 0.341448 3.60162 137 199 177
-0.472493 0.343701 3.62809 45 132 118
0.157176 0.349462 3.67652 63 137 113
1.84923 0.375502 3.9527 85 155 138
-0.518124 0.350359 3.63438 41 87 88
-0.652341 0.346411 3.57614 112 163 136
-0.609381 0.354108 3.60956 156 214 213
-0.146459 0.339495 3.47348 161 212 255
-0.366246 0.340804 3.45361 199 244 255
-0.160294 0.342404 3.46864 84 95 163
-0.854431 0.351273 3.53796 52 123 107
-0.506045 0.363485 3.63872 56 133 130
-0.767781 0.357646 3.5437 73 135 121
-0.673129 0.359422 3.56162 153 211 193
-0.510522 0.369033 3.64059 145 230 202
-0.666751 0.360524 3.56384 70 122 104
0.40246 0.377776 3.72486 80 162 150
1.76329 0.399943 3.94732 91 173 155
-0.618359 0.367122 3.59882 102 164 146
-0.61152 0.367552 3.60688 132 199 190
0.324548 0.378204 3.71031 157 226 199
-0.654574 0.367332 3.574 136 188 170
0.139623 0.37769 3.67609 86 160 154
-0.887088 0.363905 3.532 177 225 226
-0.630287 0.371781 3.59754 122 195 155
0.33156 0.384981 3.71173 155 228 202
2.20347 0.41633 4.02006 97 159 137
-0.665802 0.371373 3.56693 55 106 98
-0.62706 0.375929 3.59791 67 135 100
-0.55167 0.406383 3.8766 52 118 106
0.308328 0.388724 3.70903 148 232 204
0.243573 0.388082 3.69559 159 228 208
-0.66914 0.375956 3.56365 140 202 186
-0.603238 0.379768 3.60799 72 151 137
0.274745 0.390013 3.70268 59 135 117
-0.521675 0.384079 3.63208 94 150 139
-0.259979 0.384269 3.62852 98 158 218
-0.132584 0.368834 3.48443 179 215 255
0.481906 0.397426 3.73497 157 224 203
0.795081 0.404427 3.79239 146 224 193
-0.477183 0.389089 3.62673 161 221 243
-0.674678 0.385394 3.56082 138 209 189
-0.415179 0.375147 3.45876 206 229 255
-0.624729 0.391235 3.60302 125 191 166
-0.627228 0.393452 3.59851 22 98 74
-0.515216 0.396726 3.63822 137 216 203
0.202713 0.402555 3.69155 87 163 132
0.2726 0.405485 3.70374 84 159 137
-0.061287 0.37142 3.38543 139 174 240
0.92322 0.418359 3.80853 89 157 150
-0.478825 0.399785 3.63165 69 127 156
-0.123236 0.383407 3.49211 157 208 255
-0.630158 0.398008 3.59609 82 158 134
-0.616475 0.399297 3.60641 151 220 200
0.321295 0.410417 3.71219 152 232 203
0.318078 0.412042 3.71456 61 150 117
-0.510957 0.405452 3.63841 75 148 138
-0.625415 0.402988 3.60256 133 197 167
0.209642 0.416698 3.6945 147 223 199
-0.664694 0.404485 3.57063 134 198 162
-0.626484 0.407874 3.60427 47 98 78
1.45318 0.443443 3.90418 164 238 212
0.520541 0.426485 3.74695 155 229 205
-0.632652 0.410167 3.59336 79 112 97
-0.299857 0.394501 3.44239 143 173 220
0.109696 0.421352 3.67298 86 149 147
0.319078 0.426901 3.71221 166 240 210
0.594569 0.435576 3.75473 161 233 211
-0.651818 0.416794 3.57763 104 162 134
-0.643947 0.419778 3.59259 94 158 128
-0.522362 0.424497 3.6348 81 145 145
-0.657948 0.418537 3.57717 27 82 57
-0.639844 0.420391 3.59212 47 106 78
0.954623 0.450946 3.81785 74 152 129
-0.518899 0.431693 3.63985 64 131 124
2.09322 0.47603 4.0054 95 151 140
-0.638475 0.426811 3.58997 53 104 77
-0.483436 0.394086 3.31561 62 117 114
0.310904 0.44146 3.71237 162 232 202
-0.670666 0.425551 3.56796 131 198 171
-0.618552 0.429673 3.60431 62 139 118
0.246431 0.443497 3.70534 145 227 198
1.48593 0.469179 3.91367 59 151 126
1.17954 0.464798 3.85926 97 165 142
-0.522523 0.43821 3.63472 42 117 96
-0.77523 0.429427 3.54801 90 155 140
-0.143504 0.420339 3.48043 174 215 255
0.238103 0.449666 3.7019 49 96 74
0.230117 0.449749 3.70006 169 213 190
0.324144 0.451791 3.7148 164 229 197
0.538745 0.456241 3.74708 168 235 206
-0.645641 0.436463 3.58424 143 191 165
-0.493768 0.442122 3.62632 178 216 250
0.240579 0.45259 3.70152 166 222 193
1.07746 0.473303 3.84438 85 160 139
-0.633372 0.445432 3.60143 53 129 111
-0.491244 0.447507 3.62888 61 122 132
0.230065 0.458202 3.69937 143 203 179
-0.937301 0.43737 3.53331 57 134 113
-1.12203 0.433509 3.4959 100 159 155
0.50859 0.464562 3.74346 158 232 206
-0.644837 0.447009 3.58862 99 156 131
-0.632636 0.448115 3.59819 128 195 174
0.211655 0.460776 3.70001 117 143 127
0.0730808 0.458617 3.6747 164 219 216
-0.479544 0.45516 3.6332 52 135 120
-0.633311 0.451551 3.59958 40 112 92
0.226484 0.46453 3.6993 104 152 123
-0.667553 0.450889 3.57031 39 95 76
-0.528141 0.458801 3.63439 44 109 100
-0.0657032 0.468355 3.71147 196 222 239
0.342825 0.468795 3.71851 147 224 196
-0.642641 0.454813 3.59045 89 142 122
-0.474966 0.459446 3.63137 68 117 131
-0.174816 0.439092 3.46781 42 61 136
0.228262 0.468469 3.69989 62 107 80
0.297233 0.470393 3.71233 148 222 186
-0.529086 0.46158 3.63193 97 157 151
-0.487425 0.461297 3.62728 78 149 176
-0.381446 0.440611 3.45067 65 95 172
1.30815 0.495613 3.88312 154 222 199
0.302873 0.475372 3.71448 156 240 198
-0.626028 0.462159 3.60314 147 226 207
-0.641147 0.463501 3.59602 100 148 130
-0.634393 0.464229 3.59994 119 194 173
0.192498 0.475832 3.69009 51 104 90
0.218686 0.47751 3.70007 126 165 143
-0.637965 0.465867 3.59629 37 86 70
0.169426 0.478407 3.68222 99 159 141
-0.458154 0.469162 3.6049 223 247 255
0.245763 0.480692 3.70325 134 194 163
0.523708 0.486876 3.75008 167 244 210
-0.63256 0.467034 3.59524 51 132 113
-0.863185 0.462725 3.54164 156 221 212
-0.658751 0.46624 3.57663 102 157 138
0.216075 0.482831 3.69731 136 206 166
1.288 0.507033 3.88308 155 229 205
-0.500741 0.421813 3.22239 83 159 165
-0.639325 0.473157 3.59811 42 112 82
-0.519654 0.478998 3.63547 92 151 166
0.322538 0.489218 3.71662 141 215 181
0.355362 0.490033 3.72568 170 234 204
0.243706 0.487592 3.69976 129 180 146
-0.183185 0.446271 3.37527 163 176 222
1.24229 0.515081 3.87837 82 149 122
1.03079 0.510738 3.84198 69 138 118
0.428546 0.498466 3.73577 130 197 166
-0.927909 0.470902 3.52984 144 220 208
0.245363 0.49445 3.70321 32 80 52
-0.64453 0.481849 3.59373 38 98 80
-0.560793 0.484992 3.61434 142 226 198
0.21907 0.498697 3.70082 145 203 178
-0.629812 0.489631 3.60323 50 127 106
0.237253 0.502485 3.70068 126 191 166
0.24916 0.503995 3.70746 145 199 169
-0.124957 0.474887 3.49354 166 208 255
0.22359 0.50422 3.70078 135 190 165
0.51747 0.511304 3.75148 163 241 204
-0.67408 0.491228 3.57273 60 122 104
-0.585454 0.495612 3.61334 58 127 107
0.352228 0.513147 3.72268 53 133 102
0.238472 0.51257 3.70028 148 212 177
0.259224 0.51338 3.70724 144 207 167
0.482369 0.521617 3.74843 143 209 180
0.4913 0.521861 3.75263 161 228 201
0.382942 0.520219 3.73066 152 229 192
0.293931 0.518966 3.71528 128 196 165
0.5013 0.52519 3.75413 156 221 196
-0.0768559 0.492852 3.51958 164 209 255
0.257912 0.520421 3.70643 132 202 162
-0.913338 0.497404 3.53623 67 141 129
-0.644972 0.505552 3.59629 48 115 94
-0.529838 0.510901 3.63586 141 208 205
-0.519184 0.511908 3.63668 53 135 152
1.7625 0.557291 3.9694 168 238 221
-0.585213 0.50782 3.60855 162 233 216
-0.527742 0.513769 3.63629 65 144 141
-1.2783 0.49141 3.47917 85 142 133
-0.672285 0.506355 3.57837 118 184 159
-0.533541 0.516958 3.63196 111 165 165
-0.649517 0.513345 3.59684 18 74 61
0.0689917 0.525541 3.67655 162 217 224
0.144329 0.528028 3.69035 160 228 211
0.221033 0.529608 3.70372 38 84 61
0.291575 0.531743 3.71529 76 148 106
-0.151933 0.498677 3.48074 165 199 255
0.227071 0.531873 3.70269 117 173 150
0.414266 0.537015 3.74272 167 229 217
-0.651774 0.516522 3.59638 24 75 61
-0.670491 0.51569 3.5786 33 99 80
-0.071845 0.507639 3.51813 192 230 234
0.253327 0.534456 3.70552 156 204 175
-0.66333 0.518673 3.58216 36 114 83
0.227501 0.535939 3.70353 125 198 172
-0.0788244 0.596132 4.10699 46 61 107
-1.98536 0.491991 3.37652 88 139 131
-0.414734 0.47354 3.25124 206 243 255
0.486867 0.547118 3.75345 65 130 105
-0.850515 0.517906 3.5443 51 136 122
-0.625292 0.52711 3.60501 80 155 141
-0.68201 0.523904 3.5728 107 172 157
-0.853373 0.520281 3.54304 158 243 229
0.486817 0.550985 3.75216 143 213 190
-0.141017 0.513208 3.48909 176 206 255
0.066869 0.54231 3.67527 58 120 114
0.142297 0.547085 3.69285 153 230 203
0.0609242 0.546273 3.66968 123 182 154
0.229834 0.551478 3.70635 151 202 174
0.0647496 0.548796 3.68192 51 120 93
-0.645784 0.537654 3.59543 123 199 168
0.248249 0.554862 3.71066 119 167 139
0.455601 0.561562 3.74763 151 220 199
-0.52882 0.544988 3.63974 56 142 124
0.47615 0.563013 3.74882 72 150 119
-0.147224 0.524819 3.48677 156 216 255
0.233566 0.557525 3.70733 108 153 134
0.243749 0.558089 3.71128 126 159 132
0.370344 0.5627 3.73228 153 235 200
0.060703 0.554425 3.67207 90 140 122
0.0696725 0.554704 3.67871 152 222 209
0.225541 0.558838 3.70361 138 191 177
0.258248 0.56035 3.71127 125 194 167
-0.665976 0.543094 3.58385 133 203 173
0.49402 0.569635 3.75583 67 136 116
1.08016 0.588211 3.87388 104 160 149
1.13619 0.589072 3.87822 89 149 155
-0.902477 0.54106 3.53945 50 87 71
-0.689932 0.545313 3.57249 56 131 115
-0.663004 0.549519 3.58529 121 193 170
2.16798 0.623224 4.05236 86 152 133
0.362376 0.57666 3.73159 60 133 101
-0.816802 0.550709 3.54852 180 237 216
0.419736 0.580569 3.7398 87 155 138
0.252513 0.577829 3.71349 66 153 117
-0.650191 0.559819 3.59475 128 202 178
0.23418 0.577567 3.70958 144 229 197
-0.354834 0.539929 3.45007 191 240 255
0.461543 0.58615 3.74901 155 229 201
-0.911855 0.554452 3.53374 94 125 110
0.477944 0.588722 3.75069 162 238 196
0.516878 0.590047 3.75867 164 236 206
0.413972 0.589248 3.74347 149 220 193
-0.602182 0.646558 4.09325 87 127 132
-0.968363 0.557605 3.52776 146 219 203
-0.247333 0.583432 3.68625 101 143 208
-0.685352 0.566575 3.57618 54 128 98
-0.573061 0.5739 3.61472 129 209 186
-0.924299 0.561741 3.53632 111 138 122
-0.633166 0.57292 3.60741 85 157 145
-0.572744 0.572979 3.6126 129 209 186
-0.539333 0.577638 3.6369 37 88 98
0.414401 0.594667 3.74372 78 143 122
-1.32454 0.552444 3.47415 116 163 190
-0.685286 0.568246 3.57026 131 201 171
-0.0781568 0.520374 3.26671 78 84 137
0.253932 0.593826 3.71614 157 233 201
0.33557 0.595546 3.73024 52 133 86
0.376616 0.596695 3.7348 141 212 185
0.466487 0.599229 3.74871 82 156 126
2.18764 0.648268 4.05195 92 174 145
0.386804 0.5983 3.73563 140 208 173
-0.576764 0.579914 3.61527 152 226 198
-0.252757 0.609391 3.79363 127 175 255
0.292369 0.596493 3.72036 85 161 119
0.339524 0.599401 3.72866 147 223 181
0.356793 0.599476 3.73516 154 222 191
0.343113 0.600578 3.72746 50 128 87
-0.672197 0.582367 3.58581 37 107 77
0.0574696 0.595406 3.67604 56 95 87
0.417749 0.608143 3.7417 75 146 119
0.3307 0.608689 3.72409 76 147 107
-0.0893542 0.729452 4.45109 34 54 102
0.239183 0.609357 3.71144 68 134 99
0.41624 0.614836 3.74412 154 230 198
0.136084 0.611082 3.69426 142 219 198
-0.653626 0.59695 3.59973 140 211 184
0.524126 0.623918 3.76369 151 221 191
0.479951 0.623411 3.75041 148 222 192
0.148504 0.615687 3.69415 145 222 195
0.0834647 0.617823 3.68542 75 147 127
0.31113 0.624872 3.72624 159 222 190
-0.974143 0.592782 3.52532 110 140 121
-0.675623 0.60285 3.58519 127 199 163
0.249258 0.625757 3.71442 153 226 186
-0.744498 0.601022 3.56424 152 218 206
-0.665664 0.607231 3.59122 115 184 157
-0.220382 0.638258 3.77001 174 213 255
-0.111606 0.693879 4.09943 149 204 255
1.05426 0.657722 3.88419 81 144 124
-0.975626 0.599102 3.52628 55 98 71
-0.675548 0.608724 3.58538 136 207 180
-0.5699 0.614046 3.62018 44 128 133
0.97737 0.657052 3.85826 90 152 146
0.350056 0.639364 3.73652 144 216 180
0.243184 0.636946 3.71433 75 174 126
0.465016 0.643128 3.75397 68 136 101
-1.03012 0.603208 3.51474 62 113 93
1.1902 0.670821 3.90493 79 148 115
-0.107897 0.603878 3.51135 67 97 174
1.24192 0.673832 3.91758 101 136 102
-0.656097 0.620499 3.59868 138 206 175
-0.695607 0.616476 3.57107 22 91 64
0.103365 0.638201 3.69084 194 255 239
0.827467 0.659494 3.81702 82 165 133
-0.455313 0.599361 3.46633 172 197 247
0.102984 0.638476 3.6915 187 252 236
0.144793 0.640382 3.69887 151 230 197
-0.467386 0.618358 3.55763 91 98 153
0.972194 0.671816 3.86389 82 151 136
1.07653 0.675968 3.8873 88 161 123
-0.44291 0.603398 3.46459 67 105 183
-0.991465 0.616455 3.52004 155 220 198
0.416526 0.655466 3.7428 153 220 183
0.972772 0.676485 3.86453 160 225 210
0.2401 0.651912 3.71442 70 158 112
-0.992835 0.618613 3.52475 139 201 177
-0.112935 0.609054 3.46426 138 173 239
0.451095 0.659378 3.75239 145 216 176
0.911761 0.676518 3.84811 72 155 133
-0.668691 0.63318 3.59285 128 197 170
0.208659 0.654189 3.71214 65 144 111
1.18693 0.687439 3.91129 132 184 147
-0.8205 0.625507 3.55094 110 174 155
-0.245876 0.608232 3.44434 169 212 255
-0.135613 0.618095 3.49812 168 213 255
0.302904 0.659143 3.72372 157 220 170
0.356669 0.661719 3.73558 71 141 104
-0.68488 0.635428 3.58158 118 202 167
0.245327 0.658854 3.71333 67 152 107
0.391562 0.664001 3.74067 166 231 209
0.887425 0.68124 3.84041 85 175 140
1.02306 0.688216 3.87787 65 149 121
-0.457735 0.614917 3.46654 91 107 166
-0.647363 0.641311 3.60151 70 147 119
-0.4438 0.616403 3.46542 96 110 176
-0.685455 0.638883 3.57767 15 71 50
0.437954 0.668903 3.74874 150 234 180
0.225297 0.664532 3.71328 156 245 196
0.445756 0.670012 3.75196 78 165 115
-0.684292 0.640406 3.58013 29 79 61
-0.834773 0.636735 3.54816 98 136 114
0.328155 0.671236 3.73273 149 219 183
0.720514 0.685766 3.80841 144 225 198
1.15756 0.703417 3.90541 136 201 175
-0.655856 0.649087 3.60102 145 221 189
0.151556 0.66691 3.70036 87 150 124
0.422153 0.676331 3.74715 69 156 118
-0.845109 0.643997 3.54941 81 117 103
0.179346 0.671919 3.70511 81 146 114
-0.958229 0.640641 3.52889 54 131 104
0.183893 0.674524 3.71162 139 217 186
0.286361 0.677168 3.72484 50 123 77
0.422167 0.681235 3.74698 74 157 118
-0.833911 0.648041 3.5543 125 207 185
0.238736 0.677603 3.71587 71 148 104
1.12463 0.711681 3.90158 85 168 143
0.410769 0.684824 3.7467 149 229 200
-0.967795 0.646152 3.52441 135 214 175
-0.611436 0.663113 3.61492 165 244 225
-0.85584 0.651317 3.5482 131 182 162
0.248535 0.683501 3.7192 153 230 186
0.15316 0.680801 3.69888 145 213 178
0.190345 0.684731 3.70761 68 156 116
0.800514 0.706277 3.82589 160 234 204
1.06711 0.718312 3.89147 90 162 162
-0.542063 0.672544 3.63759 153 220 193
1.03395 0.721142 3.8958 147 224 196
0.244054 0.689124 3.71917 57 129 86
0.596417 0.700601 3.78297 157 226 199
0.309866 0.693236 3.7296 87 163 122
-0.66367 1.28188 6.87004 76 120 197
0.175305 0.689794 3.70582 51 130 89
0.301227 0.693622 3.72251 139 218 175
-0.699904 0.668362 3.57791 111 197 167
0.451163 0.702206 3.75378 153 236 191
-0.549443 0.680474 3.63289 136 207 191
0.218116 0.69567 3.71324 164 235 195
1.05149 0.730772 3.899 149 221 198
0.203388 0.697871 3.71001 142 224 181
0.237465 0.697726 3.7143 161 230 187
0.278106 0.700495 3.72207 67 159 108
-0.60714 0.681425 3.61371 58 143 111
0.391851 0.70616 3.74854 69 143 117
-0.553853 0.686853 3.63434 141 192 178
0.310414 0.708181 3.72981 56 137 92
-0.541215 0.693835 3.64285 79 151 145
0.17843 0.706952 3.71209 58 137 98
0.512395 0.721605 3.77162 145 233 193
0.534163 0.723555 3.77687 63 137 109
0.880796 0.739178 3.85583 70 148 111
0.525446 0.723341 3.77127 72 154 112
0.178089 0.713242 3.70834 62 143 104
0.728385 0.734803 3.81603 156 221 200
0.215045 0.715936 3.71411 41 95 66
0.542365 0.728993 3.77626 61 147 107
0.18465 0.718505 3.71363 55 125 89
0.210916 0.718822 3.71102 106 186 149
0.532877 0.730375 3.77454 57 138 93
0.564672 0.732502 3.77834 70 137 105
1.00457 0.754529 3.89792 85 166 141
0.170102 0.720981 3.70988 60 137 100
0.655387 0.739583 3.79963 83 164 139
0.682252 0.740719 3.8046 68 142 118
0.256981 0.727559 3.72662 46 128 86
0.166416 0.723902 3.70433 114 155 124
0.694201 0.745482 3.8067 142 219 192
0.260717 0.730201 3.72291 145 226 187
0.182956 0.729942 3.71021 55 128 88
1.00893 0.765311 3.89503 160 226 215
0.181733 0.731234 3.71311 48 119 79
0.256609 0.732882 3.72297 86 169 130
0.183913 0.733146 3.70855 136 205 168
0.263649 0.737087 3.72457 27 113 73
0.285637 0.736902 3.72641 132 210 173
0.445394 0.745944 3.75902 76 158 115
0.49381 0.749122 3.76975 87 168 129
0.989298 0.773735 3.89459 67 121 108
0.696051 0.760177 3.81106 85 162 141
0.493871 0.753653 3.77342 71 153 118
0.968478 0.785 3.88985 132 216 191
0.408693 0.760232 3.75274 146 225 186
0.838046 0.783626 3.85238 84 153 132
0.976828 0.792286 3.89777 140 230 200
0.518583 0.768872 3.77744 163 239 198
0.539178 0.771398 3.78124 72 156 108
0.500972 0.77175 3.77366 132 213 168
0.81429 0.793065 3.84196 72 143 117
0.916649 0.813771 3.89271 105 167 151
-0.259905 1.1578 5.39203 183 210 255
-1.15281 3.48059 13.5493 111 133 215
-1.07652 3.05667 9.52613 99 111 189
1.0622 -8.00405 -24.4541 156 204 255
-0.621758 3.49263 10.5794 40 45 108
-0.450395 3.06119 9.17145 93 103 157
2.0746 -11.5844 -34.2354 82 116 206
0.949172 -7.09815 -19.5688 109 118 191
0.668461 -7.0162 -16.1943 156 207 255
1.48643 -9.21395 -20.9269 172 212 255
2.5657 -15.6378 -33.7573 157 205 255
2.2506 -8.67261 -18.6712 101 118 191
-0.943866 -1.78801 3.51868 70 141 124
0.0200256 -1.78656 3.54566 76 142 123
0.00295638 -1.78548 3.54836 95 168 146
-0.886389 -1.76037 3.52117 82 146 127
-0.604302 -1.7618 3.52593 70 132 116
0.300723 -1.76619 3.55875 111 171 153
-0.543882 -1.74446 3.5263 84 149 128
-0.917951 -1.73501 3.51865 97 157 147
0.088078 -1.74852 3.54346 169 236 215
-0.193296 -1.74197 3.54033 91 154 134
-1.3435 -1.71254 3.50598 79 138 118
-0.633265 -1.71954 3.5255 65 123 112
-0.0805937 -1.72851 3.54406 175 237 219
-0.809699 -1.71067 3.51857 84 155 139
-0.842764 -1.69898 3.51935 87 161 143
-1.30628 -1.68409 3.50346 158 225 210
-0.911283 -1.68793 3.51656 76 130 117
-0.614058 -1.68535 3.52389 88 150 132
0.000386532 -1.69154 3.54801 163 237 207
-0.816723 -1.67679 3.52099 101 169 152
-0.971756 -1.67045 3.51271 153 214 200
-0.963324 -1.66924 3.51527 75 112 102
-0.596001 -1.67233 3.52568 159 217 199
-0.745221 -1.66622 3.51916 152 225 199
-0.994899 -1.65585 3.51407 60 113 100
