ply
format ascii 1.0
element vertex 1258
property float x
property float y
property float z
property uchar blue
property uchar green
property uchar red
end_header
1.33662 0.963966 3.72745 62 101 86
1.07322 0.960442 3.68904 105 160 141
-0.176035 0.909075 3.4871 86 152 151
0.75502 0.976686 3.6403 114 165 145
-0.215025 0.935682 3.48328 196 240 203
0.758776 0.979947 3.63955 175 233 209
1.06718 0.997334 3.68948 91 157 138
-0.0599177 0.952178 3.51804 80 142 106
-0.231906 0.953123 3.48721 248 255 254
-0.237711 0.961234 3.48709 91 142 108
-0.143247 0.972504 3.51224 122 184 148
0.867235 1.0125 3.66268 76 140 121
-0.477217 3.61261 13.0199 203 214 218
1.14102 1.02693 3.70438 81 148 111
-0.231277 0.988293 3.49223 94 140 121
0.757727 1.04101 3.6499 84 154 118
1.18882 1.06195 3.70894 241 255 251
1.18099 1.0751 3.71363 164 244 201
0.917116 1.09546 3.68457 84 146 132
1.46496 1.13543 3.76791 193 241 229
0.146081 -1.70589 -5.36325 97 92 91
0.609163 -5.99671 -11.1903 193 197 226
-0.130748 -1.25018 3.12028 225 237 243
0.469638 -1.27654 3.18767 93 149 136
-0.0192727 -1.24718 3.12438 86 165 124
0.126001 -1.25071 3.14041 188 216 223
0.15597 -1.25223 3.15655 155 189 172
0.0806206 -1.24674 3.14393 63 95 101
-1.092 -1.19121 3.01467 239 249 243
0.153296 -1.24742 3.15809 95 101 96
0.181596 -1.24652 3.15209 125 148 156
0.133375 -1.24215 3.14716 114 115 119
0.392041 -1.25545 3.18536 95 166 146
0.419046 -1.25769 3.18633 75 130 113
-0.0589084 -1.23267 3.12886 90 146 125
0.12963 -1.23526 3.14252 186 204 215
1.15439 -1.29149 3.28229 126 195 185
0.13705 -1.23285 3.14398 88 79 75
0.176176 -1.23787 3.15049 178 228 224
0.839846 -1.27384 3.23868 99 159 149
0.474972 -1.25598 3.19992 100 140 122
0.291978 -1.23506 3.17677 104 164 146
0.0963972 -1.21757 3.14198 100 111 125
0.269538 -1.23109 3.17125 98 152 139
0.148754 -1.22039 3.15412 157 197 186
0.162995 -1.22247 3.16083 143 194 166
0.247613 -1.22533 3.16999 175 245 222
0.475376 -1.23607 3.19668 85 150 134
0.494359 -1.2405 3.20669 108 169 155
0.72343 -1.24819 3.23518 98 174 163
0.150216 -1.21464 3.15713 107 133 127
-0.0435272 -1.19333 3.1407 95 151 122
0.377065 -1.20933 3.19141 110 169 155
1.08694 -1.23839 3.28531 131 183 190
0.674684 -1.21163 3.22683 236 255 255
0.171271 -1.18519 3.17079 120 149 154
0.463178 -1.20018 3.20726 182 247 225
1.01809 -1.21991 3.27459 111 169 174
0.115574 -1.15965 3.15633 144 161 170
0.436503 -1.16664 3.2085 109 170 150
0.132686 -1.14929 3.17614 182 228 222
0.0694102 -1.14295 3.16017 89 100 98
0.145597 -1.1434 3.18013 177 221 215
0.454453 -1.15998 3.21945 90 153 137
0.182487 -1.13687 3.1791 121 139 122
0.217816 -1.1413 3.18715 75 124 110
-0.0965086 -1.12692 3.15336 247 255 251
0.263828 -1.14015 3.1944 118 157 149
0.10541 -1.1286 3.16775 102 117 119
0.127361 -1.13078 3.17608 103 134 127
0.375565 -1.14416 3.21038 94 156 144
0.114035 -1.12935 3.17465 171 206 202
0.195625 -1.13006 3.17784 87 110 102
0.210978 -1.13035 3.18533 111 129 128
-0.12406 -1.11503 3.15205 230 247 250
-0.0815186 -1.11331 3.15664 159 245 203
-0.0907845 -1.10891 3.15626 74 146 124
0.260217 -1.11642 3.20655 87 140 127
0.0786129 -1.0738 3.09067 101 145 138
0.365149 -1.11547 3.21883 111 158 150
0.366748 -1.11349 3.21172 125 171 165
0.576077 -1.12057 3.24137 88 148 140
0.913659 -1.13251 3.27446 77 153 142
0.847805 -1.12973 3.27773 123 196 188
0.0344841 -1.0529 3.06404 190 234 228
0.189955 -1.09515 3.18543 84 89 80
0.356628 -1.09356 3.21916 110 155 146
0.182966 -1.07669 3.19114 144 166 172
0.118572 -1.0556 3.19203 169 178 175
-0.0538164 -1.03844 3.17421 195 253 235
0.628208 -1.06393 3.26201 103 167 155
0.647672 -1.06128 3.26385 111 173 157
0.516568 -1.05425 3.24867 78 144 132
0.116234 -1.03758 3.20075 87 96 109
0.344913 -1.03868 3.23249 103 156 142
-0.0829107 -1.0177 3.17478 136 173 177
0.158797 -1.02418 3.20868 113 170 171
0.172624 -1.01424 3.20783 107 148 140
0.26008 -1.00908 3.22282 141 173 178
0.350507 -1.00695 3.23805 110 177 156
0.577848 -1.00986 3.26848 121 176 167
1.02876 -1.02468 3.32629 128 166 201
0.969451 -1.01888 3.31211 107 172 170
-0.0511366 -0.969499 3.18427 88 170 127
0.467904 -0.987111 3.26168 105 148 139
0.519027 -0.983331 3.26878 99 170 167
0.53296 -0.984546 3.27231 90 165 151
0.562999 -0.982885 3.27317 89 154 145
1.09208 -1.00014 3.3456 99 154 145
-1.11593 -0.916128 3.06834 240 242 243
-0.0520498 -0.950269 3.1874 68 156 120
0.387323 -0.971976 3.25356 125 181 170
0.128693 -0.955874 3.2191 180 205 215
0.46469 -0.970408 3.26432 144 226 208
0.472312 -0.974229 3.26988 101 166 157
0.539992 -0.973227 3.27511 117 188 171
0.128826 -0.955839 3.22165 166 195 200
0.465412 -0.97034 3.27292 118 179 175
0.114479 -0.947144 3.22649 193 211 210
0.196776 -0.951908 3.23872 114 161 165
0.429722 -0.959103 3.26861 77 122 133
1.02332 -0.980798 3.34021 102 141 180
0.556906 -0.957577 3.28806 120 174 175
1.11096 -0.976383 3.35512 105 160 145
1.20084 -0.974612 3.36718 121 181 173
1.06568 -0.968872 3.35148 133 176 197
0.126043 -0.928114 3.22799 128 157 161
-0.124454 -0.911922 3.18662 230 245 254
0.0962515 -0.924752 3.22524 189 224 228
0.423861 -0.935578 3.26981 114 150 180
1.07497 -0.960011 3.35414 105 168 158
0.0663977 -0.921483 3.22813 145 188 177
0.0780749 -0.920104 3.22061 69 71 79
0.442089 -0.9314 3.27493 118 172 202
0.381182 -0.927717 3.27006 184 228 255
-0.0930467 -0.903258 3.19985 97 145 139
0.115513 -0.91009 3.23211 119 157 157
0.267365 -0.915883 3.25827 90 150 142
0.196785 -0.908461 3.24249 114 175 189
-0.116538 -0.895069 3.198 219 238 246
1.09362 -0.938246 3.36221 77 152 136
0.565931 -0.912028 3.29933 100 149 163
1.14623 -0.927268 3.37472 108 160 150
0.580413 -0.904098 3.30134 80 153 143
0.289697 -0.890587 3.26017 178 237 247
0.781325 -0.909326 3.3303 96 156 168
0.567115 -0.896386 3.30072 103 164 174
0.220191 -0.881779 3.25813 113 153 188
0.202408 -0.877429 3.25071 111 161 183
0.280016 -0.880437 3.25937 189 226 240
0.787383 -0.898391 3.33104 88 134 135
-0.0726648 -0.859675 3.21715 201 241 230
0.986598 -0.899176 3.3506 103 170 165
0.16777 -0.867397 3.24525 61 124 108
0.461516 -0.878676 3.29003 110 158 192
0.599002 -0.874081 3.30874 110 157 161
0.415299 -0.86623 3.28661 130 170 218
0.37239 -0.859458 3.28014 97 156 182
-0.111236 -0.832552 3.21105 128 176 164
0.250727 -0.848738 3.26288 165 225 237
0.737859 -0.865697 3.3322 81 142 146
0.185666 -0.843859 3.25775 78 112 141
1.09667 -0.875256 3.37757 74 169 154
0.674739 -0.861657 3.33053 110 187 173
0.173913 -0.826098 3.25692 136 230 205
0.193568 -0.82651 3.26465 158 209 195
0.650495 -0.837305 3.32567 134 180 211
-0.0529779 -0.807171 3.21183 68 127 107
-0.0108777 -0.809622 3.22003 80 170 124
0.158411 -0.816029 3.24753 87 152 153
0.0567242 -0.813936 3.25169 81 137 114
-0.102383 -0.801412 3.21782 151 204 191
0.159971 -0.813554 3.26167 170 222 239
0.286549 -0.815558 3.27777 98 139 161
0.61278 -0.820914 3.32315 102 144 163
0.395197 -0.810811 3.29221 76 127 137
0.366998 -0.804483 3.28839 69 155 145
0.661349 -0.816742 3.3366 86 125 133
0.0485502 -0.792745 3.24495 146 189 178
0.56215 -0.81283 3.31749 95 165 148
0.321978 -0.800274 3.28394 105 147 166
0.624699 -0.813441 3.33091 90 150 144
-0.0823759 -0.780133 3.22018 87 167 124
0.352768 -0.796182 3.29054 129 173 202
0.681396 -0.807695 3.33027 99 139 167
1.13553 -0.82095 3.39812 102 174 184
0.196202 -0.788802 3.27514 85 130 143
0.405692 -0.796041 3.30217 113 158 162
0.663527 -0.80312 3.32887 108 156 160
0.340059 -0.787798 3.28746 130 162 203
-0.07347 -0.770502 3.22125 97 163 114
0.3156 -0.785739 3.28726 113 129 165
-0.0969743 -0.763341 3.21831 95 149 132
0.311507 -0.779404 3.28468 160 201 226
-0.0994158 -0.753987 3.22483 114 175 149
0.4669 -0.774775 3.30892 53 93 88
0.487012 -0.760668 3.30748 155 211 192
0.604495 -0.760117 3.33037 66 108 101
1.20993 -0.768484 3.41031 112 164 157
1.27571 -0.771569 3.42237 115 176 166
-0.0839704 -0.727462 3.2305 222 255 245
1.2224 -0.766981 3.41633 98 145 142
0.750548 -0.750657 3.35887 85 99 98
0.983758 -0.745908 3.38746 92 147 132
-0.0426169 -0.704927 3.243 65 155 109
-0.0275233 -0.706545 3.24047 68 145 108
0.656648 -0.727859 3.34748 109 153 146
0.949153 -0.736506 3.38556 82 132 122
0.853668 -0.730658 3.37138 156 217 219
1.1024 -0.738608 3.40635 91 160 140
-0.0934546 -0.699925 3.24184 105 189 155
-0.0139597 -0.696612 3.23445 90 181 148
0.824004 -0.72717 3.37016 167 237 224
0.996038 -0.731841 3.39369 93 133 128
-0.108416 -0.694064 3.24176 113 169 146
0.97797 -0.722434 3.38892 142 215 199
-0.11503 -0.685515 3.24168 147 178 169
0.947873 -0.716498 3.38584 179 232 222
1.02417 -0.721055 3.39969 96 147 139
-0.292448 -0.67692 3.22144 226 236 236
-0.0676217 -0.681736 3.24287 54 123 78
-0.895157 -0.660152 3.16033 123 174 166
1.11631 -0.711281 3.40764 157 223 211
1.17411 -0.709549 3.41625 171 230 222
1.30726 -0.712749 3.43272 91 150 142
0.0374093 -0.665977 3.26732 70 124 107
-0.105964 -0.657542 3.25098 81 138 113
1.36372 -0.697027 3.44883 53 78 74
-0.0182565 -0.656187 3.2557 101 177 145
0.0369017 -0.658831 3.27374 152 231 198
1.46472 -0.675477 3.46381 173 230 231
0.0299388 -0.627535 3.27419 130 197 158
0.402697 -0.638107 3.32842 124 167 156
1.39617 -0.657526 3.46376 87 114 105
1.40929 -0.654925 3.46265 157 190 175
1.42965 -0.655772 3.47031 145 185 180
0.029772 -0.614604 3.28108 147 215 180
0.0878048 -2.25769 12.116 106 120 139
1.66053 -0.652382 3.49635 125 185 161
0.367299 -0.600382 3.32967 119 164 155
-0.124171 -0.573241 3.26268 70 123 96
-0.0652801 -0.57145 3.26091 86 159 113
-0.15748 -0.569895 3.25966 125 167 160
-0.0985038 -0.549539 3.26587 90 159 109
1.88892 -0.59627 3.54872 150 215 190
-0.0974643 -0.549295 3.2675 90 164 112
-0.0549407 -0.547448 3.26713 174 238 202
-0.02887 -0.523178 3.14819 67 150 128
1.19889 -0.573013 3.441 107 177 141
1.17922 -0.566679 3.43906 98 170 128
2.01431 -0.570544 3.56521 93 121 108
0.383766 -0.526662 3.34735 122 179 188
-0.126191 -0.513633 3.28092 138 184 171
1.0497 -0.538027 3.43318 100 151 123
1.84572 -0.552798 3.53983 128 171 156
1.92419 -0.555923 3.55297 92 143 135
1.98826 -0.553318 3.55641 89 139 129
0.14172 -0.513636 3.31922 91 150 136
-0.0317723 -0.504617 3.27107 82 164 152
-1.09598 -0.483675 3.15844 124 100 78
1.99544 -0.547134 3.56452 169 222 208
-1.15159 -0.48104 3.16432 115 83 70
1.03352 -0.524162 3.4319 87 162 116
2.00261 -0.539328 3.55617 150 209 195
-1.12917 -0.47727 3.1641 196 187 177
0.0791768 -0.495456 3.30668 167 219 212
-0.162844 -0.488965 3.27527 248 255 255
-1.18507 -0.467855 3.1607 121 101 76
1.32154 -0.512673 3.47023 250 255 254
-1.30074 -0.461029 3.14231 127 110 101
-1.22655 -0.461996 3.15539 187 186 176
1.68892 -0.518888 3.5294 99 143 130
-1.45553 -0.456777 3.13727 128 117 113
2.15182 -0.523132 3.58712 122 160 154
1.68634 -0.510442 3.53092 153 218 186
1.8111 -0.511172 3.55066 146 207 187
1.85627 -0.511986 3.55367 139 198 178
1.93813 -0.513264 3.56815 98 150 140
-1.17525 -0.448747 3.16922 151 136 120
0.0115648 -0.466884 3.30169 135 181 145
1.94445 -0.502116 3.5583 103 141 135
1.0155 -0.471857 3.44524 121 185 155
1.178 -0.47303 3.45897 115 174 136
2.14489 -0.48805 3.59514 153 202 194
-1.06181 -0.418569 3.16635 154 143 135
-1.49515 -0.411994 3.13734 175 172 164
1.77199 -0.469249 3.54897 147 206 186
-1.06983 -0.417214 3.18019 162 159 145
-0.956983 -0.416958 3.19267 209 210 208
1.60197 -0.463248 3.53167 99 171 148
1.91904 -0.46689 3.56944 126 183 168
1.96272 -0.470125 3.57412 94 124 113
1.81118 -0.464175 3.55938 157 209 192
1.66657 -0.456595 3.53567 102 154 130
-0.127835 -0.423387 3.28242 165 243 212
-0.965945 -0.40893 3.19263 149 135 123
1.66914 -0.45573 3.54132 99 153 130
-0.947949 -0.40374 3.19641 175 173 165
-0.186961 -0.411657 3.28827 119 164 155
0.21115 -0.415837 3.34086 115 185 172
1.40021 -0.433731 3.50429 168 238 201
-0.739194 -0.39516 3.21015 138 126 114
1.44301 -0.425679 3.50719 74 105 84
1.40648 -0.424555 3.5063 84 129 113
1.4184 -0.426394 3.50615 175 214 222
1.31821 -0.418866 3.49084 99 153 123
-0.174855 -0.392365 3.28613 140 171 168
1.40985 -0.416594 3.51409 168 225 216
1.43272 -0.410944 3.49714 124 174 172
-0.938028 -0.372946 3.20018 111 98 100
-0.751333 -0.364605 3.21067 170 160 153
-0.151239 -0.37217 3.29191 117 154 146
-0.951902 -0.356526 3.20277 132 121 113
-0.165981 -0.368547 3.29013 75 131 108
-0.135043 -0.366588 3.30312 79 128 106
-1.32973 -0.331 3.00438 119 152 115
-1.34667 -0.327427 2.99952 96 165 122
0.00297883 -0.360652 3.31645 133 181 152
0.0602267 -0.359667 3.33517 158 217 209
1.38446 -0.38135 3.51742 90 95 86
0.593938 -0.367058 3.41078 94 165 149
-0.0587869 -0.350242 3.30279 246 255 254
1.03936 -0.369097 3.47077 121 196 158
-0.130323 -0.341774 3.30712 72 158 128
-1.16015 -0.319526 3.16474 242 200 165
0.152016 -0.33883 3.34634 101 162 148
-0.142105 -0.33166 3.29608 113 153 141
-0.0677306 -0.330735 3.304 66 138 92
-0.782571 -0.320846 3.21796 178 174 169
-1.59352 -0.285647 2.95741 33 109 78
1.09854 -0.335814 3.47914 95 159 140
-1.51013 -0.281016 2.94811 52 84 59
-0.743602 -0.308207 3.20966 180 181 171
-0.0752031 -0.316641 3.3076 169 243 195
-1.45572 -0.276795 2.94794 71 138 101
-1.32872 -0.276126 2.94677 83 169 129
-1.17424 -0.293346 3.12827 255 223 167
-0.797518 -0.300702 3.21808 175 166 153
1.26372 -0.324058 3.49863 100 172 142
-1.18211 -0.287151 3.1311 255 234 199
-1.61184 -0.269004 2.95499 33 64 33
0.975435 -0.315042 3.46925 135 194 174
-0.820136 -0.285611 3.21833 183 181 173
-1.2162 -0.275093 3.12982 174 143 112
-1.40294 -0.257317 2.95005 15 33 20
0.278546 -0.29518 3.37614 69 147 130
-1.50037 -0.253669 2.94702 25 59 35
1.43356 -0.301557 3.52987 69 92 77
-1.3086 -0.250731 2.94778 116 173 135
-1.48028 -0.2487 2.94813 31 66 39
-1.45324 -0.244143 2.94246 126 178 148
-0.958909 -0.268083 3.21655 190 196 195
-0.00234678 -0.273952 3.34586 165 218 198
0.0164568 -0.273499 3.34259 79 130 102
-1.38062 -0.237864 2.94013 29 89 55
-0.920868 -0.260173 3.21372 158 153 152
-1.50661 -0.237541 2.94175 84 129 90
-0.809909 -0.259261 3.22431 119 96 81
-0.153941 -0.265008 3.31779 63 115 98
-0.923759 -0.25842 3.22138 168 161 158
-0.0106129 -0.266261 3.33423 123 182 137
-1.36268 -0.234342 2.93787 34 102 67
-0.141754 -0.261846 3.3141 88 144 109
-0.972948 -0.250128 3.21787 184 178 183
-0.0820098 -0.25644 3.31375 72 155 103
0.100699 -0.256806 3.35965 83 167 139
2.03572 -0.274955 3.62168 141 204 184
-1.51942 -0.215829 2.91799 68 110 79
-0.180094 -0.247524 3.31321 119 149 160
-1.25908 -0.218096 2.96998 102 138 102
-0.930062 -0.235597 3.22988 115 98 85
0.499877 -0.250339 3.41757 109 176 161
-0.812708 -0.234674 3.23088 138 127 119
-1.44839 -0.208912 2.93436 134 179 140
-0.928554 -0.229915 3.22615 220 225 216
-1.25302 -0.207133 2.96735 72 121 89
-1.42805 -0.204226 2.93439 85 161 120
-1.02843 -0.221358 3.2207 124 112 106
0.153194 -0.23299 3.37168 157 240 202
-0.996028 -0.221716 3.22414 103 90 82
-0.0129973 -0.227754 3.3486 174 239 190
0.592058 -0.236432 3.43268 103 163 145
1.373 -0.242191 3.53415 100 132 121
-1.35292 -0.201862 2.95326 101 193 150
-0.987873 -0.218385 3.22336 207 210 214
0.0281351 -0.228237 3.35834 98 173 135
1.2074 -0.239171 3.51526 97 157 127
-0.973539 -0.215337 3.22596 197 205 205
-0.0642565 -0.225763 3.32174 117 205 159
0.984411 -0.234184 3.48418 124 179 162
-1.48334 -0.195235 2.91286 99 171 129
-1.49921 -0.191128 2.90972 34 76 51
-1.47236 -0.193279 2.91649 107 186 147
-1.43945 -0.192916 2.9414 90 155 116
-1.02807 -0.213089 3.22325 160 154 147
-1.46818 -0.190251 2.92315 112 171 126
-1.44736 -0.191972 2.93024 105 152 113
-1.33382 -0.193649 2.95752 27 68 36
-1.33186 -0.193668 2.95735 13 29 11
-1.00114 -0.209741 3.22466 205 210 208
-0.9941 -0.208372 3.22473 101 93 86
-0.109645 -0.214174 3.32304 82 158 104
-0.98676 -0.206756 3.22371 194 195 193
0.936718 -0.223434 3.47944 166 237 211
-1.47137 -0.185231 2.92035 27 49 20
0.208985 -0.211987 3.37837 85 153 122
-1.34814 -0.183598 2.95206 110 169 124
1.30845 -0.218928 3.52025 127 153 147
-1.36328 -0.181249 2.95315 20 66 37
-0.200786 -0.20572 3.31921 76 131 114
-0.843263 -0.196118 3.23799 103 88 79
-0.448213 -0.19782 3.29126 222 234 234
-0.99585 -0.193389 3.22562 159 153 154
0.488149 -0.205308 3.42025 108 173 152
-0.888372 -0.192088 3.24067 178 176 168
-0.00969797 -0.195547 3.34777 155 231 200
-1.36363 -0.169962 2.94335 120 154 124
-1.28429 -0.171196 2.97366 101 176 132
-0.169024 -0.192576 3.32265 169 226 211
-1.30337 -0.168987 2.96682 33 56 28
-0.861485 -0.186569 3.24259 200 204 205
1.40594 -0.204278 3.5426 113 175 159
-1.43582 -0.165697 2.93504 116 175 144
-0.909829 -0.178774 3.23658 194 199 200
0.00932588 -0.185182 3.36017 156 245 205
-0.978818 -0.176784 3.23227 166 164 163
0.30482 -0.186247 3.40137 88 148 130
-0.192825 -0.177654 3.32146 99 153 130
-1.4527 -0.15471 2.93121 21 79 50
-1.44333 -0.155319 2.93697 94 186 143
-1.54175 -0.151404 2.91475 43 116 76
-0.918897 -0.168635 3.23939 199 206 203
-1.43695 -0.149635 2.93361 8 68 34
-0.928571 -0.162096 3.23801 127 122 119
-0.768908 -0.163029 3.24552 188 192 193
0.314267 -0.172881 3.40233 93 151 133
-1.38488 -0.144812 2.92673 90 165 133
-0.981764 -0.161786 3.23215 199 206 193
-0.763251 -0.163984 3.24112 174 173 175
-1.40345 -0.143499 2.92338 20 122 80
-0.967974 -0.156842 3.23055 185 195 195
-1.54207 -0.139546 2.91345 33 74 47
-1.53678 -0.140621 2.91772 115 185 145
1.07044 -0.168935 3.51112 108 179 153
0.438095 -0.162277 3.42051 94 163 136
0.190994 -0.153942 3.38817 89 170 137
1.1995 -0.160897 3.52193 83 162 129
-1.54248 -0.13095 2.91007 80 132 102
-0.843128 -0.145728 3.24748 208 209 207
-0.129469 -0.148908 3.33359 80 157 113
-1.60252 -0.122018 2.90858 47 126 93
-1.57264 -0.120618 2.90732 21 79 50
-0.975942 -0.132652 3.23077 176 176 176
-0.190908 -0.13723 3.33173 73 134 120
0.724313 -0.143311 3.46462 89 157 132
-0.894713 -0.131868 3.24756 181 177 176
-0.873717 -0.132307 3.24842 191 199 199
0.702839 -0.13616 3.46305 72 83 57
-0.966345 -0.126552 3.24202 195 200 199
-0.981416 -0.123763 3.23562 102 85 76
0.690464 -0.133447 3.46299 139 193 170
-0.982934 -0.116877 3.23896 145 140 137
0.413926 -0.124303 3.42554 113 185 172
-1.56504 -0.101458 2.89957 9 64 31
-0.977325 -0.109122 3.24414 199 202 200
-0.128591 -0.113415 3.33558 87 165 112
0.170478 -0.114641 3.392 84 172 148
-0.202373 -0.108435 3.33133 220 247 238
-0.0241647 -0.105139 3.36482 138 213 159
-0.954409 -0.099791 3.24845 201 206 207
0.980792 -0.108362 3.50982 100 159 131
-0.0780441 -0.0962203 3.34498 154 234 199
-0.00299755 -0.0942947 3.3613 145 208 176
-0.19837 -0.091893 3.33929 77 132 113
-0.0216392 -0.093153 3.36886 165 232 200
0.67174 -0.0951595 3.46639 156 208 198
-0.79118 -0.0869609 3.2585 134 129 126
-0.00273829 -0.0915289 3.37156 67 134 113
-0.952822 -0.0841443 3.24727 202 212 219
-0.901534 -0.0855979 3.25472 131 122 118
-0.81515 -0.0837078 3.25647 128 121 118
-0.801356 -0.0780988 3.2626 204 209 210
-1.04941 -0.0641124 3.24446 200 214 220
-0.0976396 -0.0665767 3.34955 49 99 69
0.045487 -0.0680585 3.38455 56 95 70
1.02027 -0.0663907 3.52581 127 185 160
-0.0286562 -0.0561644 3.35666 75 130 103
0.383337 -0.0583257 3.43421 115 179 160
-0.00380318 -0.0530725 3.36659 98 157 137
0.0429497 -0.0558137 3.38253 67 99 88
1.37021 -0.0582084 3.5665 112 170 146
-1.00075 -0.0520291 3.25493 208 212 207
-0.182535 -0.0512989 3.34853 64 119 100
-0.154957 -0.0455665 3.35127 213 252 244
0.381418 -0.0470571 3.43536 104 172 155
0.44967 -0.0477675 3.44168 90 164 136
-1.0525 -0.0403329 3.24444 163 165 165
-0.292212 -0.0455766 3.33566 203 222 225
-0.179262 -0.0431336 3.34709 94 131 123
-0.0288375 -0.0428835 3.37362 157 220 200
-1.07543 -0.0397403 3.24449 85 80 79
-0.0623778 -0.0404906 3.34294 188 201 245
0.460339 -0.0385844 3.44301 111 164 144
-0.99022 -0.033098 3.25538 92 79 71
-0.0630163 -0.0341811 3.36495 113 127 149
0.000515946 -0.0361242 3.39414 145 204 176
1.03653 -0.0349233 3.52939 119 179 161
-1.09269 -0.0294177 3.24514 158 175 194
-0.978598 -0.0301888 3.25583 134 140 145
-1.02515 -0.0278379 3.25034 143 151 144
-1.04028 -0.0240884 3.24732 118 115 110
-0.06353 -0.0275225 3.34198 204 220 255
-1.03149 -0.0234605 3.249 72 61 53
1.11235 -0.0226202 3.53935 94 163 142
-0.00501438 -0.0173781 3.37062 90 146 141
0.0219595 -0.0180667 3.38809 104 158 145
-0.00675436 -0.0148597 3.37937 172 228 215
-1.02047 -0.0123754 3.25248 143 131 121
-0.985423 -0.00944462 3.25484 173 166 163
-0.0382722 -0.0112483 3.37587 136 183 144
-0.946076 -0.00930979 3.25537 200 213 215
-1.00266 -0.00534445 3.25618 151 141 134
-0.953963 -0.0060615 3.25906 186 187 183
-0.946067 -0.0027255 3.25623 111 107 106
-0.954928 -0.00106378 3.25495 92 80 74
-0.978047 0.00421355 3.25633 161 156 155
0.204723 0.00378761 3.41792 63 138 110
-0.952738 0.00679331 3.25733 182 187 186
-0.936226 0.00479719 3.26339 121 129 129
-0.042207 0.00880917 3.3713 123 175 135
-0.934844 0.00702442 3.25178 134 140 139
-0.0678032 0.00873494 3.35616 181 209 244
0.278101 0.0115122 3.4334 94 146 129
0.330503 0.0150621 3.43989 92 122 97
-0.0673945 0.0166347 3.35453 97 107 124
1.09371 0.0156821 3.54304 123 180 165
-0.926462 0.0207802 3.26352 138 136 135
0.377504 0.022806 3.44301 86 133 107
-1.04804 0.0244984 3.25692 154 154 148
-0.985011 0.0246133 3.26108 150 146 141
-0.002605 0.0256561 3.39184 95 141 128
0.284027 0.0264203 3.43398 166 233 218
-0.210206 0.0269767 3.35745 228 255 252
-0.0939983 0.0271598 3.36342 60 127 88
0.113077 0.0281164 3.40784 78 151 129
0.352233 0.0281329 3.44378 163 215 208
-0.959781 0.0302841 3.26433 206 205 201
-1.0826 0.0319275 3.251 141 147 146
-1.07442 0.0346994 3.25607 147 144 136
-1.1165 0.037156 3.25263 41 47 58
1.28483 0.0396533 3.56904 255 255 254
-0.960726 0.0406636 3.2679 212 218 223
-0.0371313 0.0429369 3.38275 73 121 93
-1.0167 0.0428256 3.26205 196 207 199
-0.971907 0.0472062 3.27034 179 176 171
-0.0327353 0.0492703 3.38712 61 109 73
-0.985371 0.0504147 3.26857 143 145 145
0.307283 0.0531589 3.43749 161 215 202
-1.07205 0.0541344 3.25779 148 156 155
-0.983736 0.0548589 3.26739 168 173 171
-0.175806 0.0560813 3.36614 94 150 137
-0.097416 0.0540308 3.35975 103 177 125
-1.08637 0.0620956 3.2579 83 75 75
0.295263 0.0661225 3.44663 135 184 182
-1.00441 0.0723518 3.26768 146 140 133
-0.0179949 0.0774279 3.39591 73 142 105
0.353129 0.0780455 3.45191 102 165 155
-1.07234 0.0746921 3.25938 163 169 174
-1.06258 0.077329 3.26082 154 162 162
-0.0162356 0.081718 3.39898 68 124 101
0.273091 0.0824499 3.44185 186 223 213
-0.192088 0.0822534 3.37103 118 161 158
1.41548 0.0898778 3.60029 72 108 86
-1.04276 0.0827391 3.2647 195 198 202
0.0801194 0.0867091 3.41201 82 150 125
0.920016 0.0922698 3.53672 82 155 129
-0.276158 0.0892383 3.35762 129 154 150
-1.01171 0.0902538 3.26899 141 131 124
-0.997359 0.0932863 3.27609 117 129 129
-0.156205 0.0958487 3.36563 168 238 197
1.35248 0.10527 3.59287 80 132 115
-0.183272 0.100743 3.37478 103 144 139
-0.020746 0.102385 3.40191 92 151 130
1.14475 0.107416 3.56105 118 174 163
1.16489 0.109074 3.57225 128 199 182
-1.00616 0.104598 3.27159 210 233 225
-0.310389 0.108602 3.35997 207 234 231
-0.203163 0.107476 3.37367 116 147 156
1.2485 0.114548 3.5802 97 164 133
0.16887 0.110572 3.43299 186 224 226
-0.0450104 0.111044 3.39182 77 126 94
1.18829 0.119681 3.57628 190 248 213
-0.990143 0.114653 3.28443 112 117 115
-0.119398 0.119158 3.37562 76 155 106
-1.0216 0.11743 3.27473 144 145 143
1.39702 0.128552 3.59663 79 138 100
-1.08744 0.115255 3.14917 166 221 188
-0.981964 0.121772 3.27904 198 216 215
-1.02521 0.125227 3.26379 111 108 104
-0.0117906 0.133738 3.40066 171 230 210
0.136692 0.13478 3.42869 79 142 126
1.90785 0.144069 3.68331 116 178 164
-0.994162 0.131199 3.28093 168 171 169
-0.027559 0.142248 3.3976 158 220 190
0.960255 0.15012 3.54272 73 138 106
-0.0595135 0.151758 3.40268 130 164 133
-0.996164 0.152095 3.28485 82 85 90
-0.110654 0.154523 3.37581 58 138 91
-1.01086 0.151991 3.27979 88 77 85
-1.01586 0.155735 3.29053 152 148 154
-0.111465 0.157076 3.38331 96 177 130
0.176012 0.162101 3.44135 189 244 227
1.2582 0.16744 3.58979 179 239 209
-0.0566993 0.162434 3.40327 74 118 89
0.31816 0.164394 3.45948 95 155 144
0.172736 0.167596 3.45691 103 171 148
1.25762 0.173634 3.59585 82 138 119
-0.0595724 0.168127 3.40622 131 177 148
1.42405 0.17748 3.61738 73 134 114
1.44064 0.177185 3.62731 190 240 216
-0.926739 0.164798 3.29328 199 219 214
-0.167122 0.167753 3.37961 87 165 112
0.155363 0.171873 3.43749 165 233 208
-1.06561 0.165805 3.27728 148 136 134
-0.110224 0.169983 3.37421 80 152 105
0.522612 0.183524 3.4941 77 149 137
0.0309124 0.18234 3.42159 75 130 111
-0.968292 0.177635 3.30166 126 129 133
0.529246 0.188068 3.49529 191 240 232
-0.955871 0.179454 3.29393 176 179 183
0.625808 0.190294 3.50695 88 148 137
-0.910331 0.184343 3.30038 113 110 102
-0.162186 0.187662 3.3813 40 106 65
-0.17166 0.188703 3.3771 84 165 116
0.0857312 0.195155 3.42849 141 198 173
0.1695 0.195932 3.43608 161 229 212
-0.910468 0.191073 3.29825 191 201 195
1.41255 0.210056 3.61156 92 158 129
-1.07127 0.192852 3.27795 143 140 142
-0.973738 0.19737 3.29699 167 166 170
-0.960891 0.200101 3.29579 161 173 177
-0.922601 0.197377 3.29635 164 166 166
-0.91271 0.201423 3.30414 115 112 104
-0.0693182 0.205857 3.40416 117 181 139
0.542661 0.209597 3.49464 75 146 120
1.26224 0.216729 3.60226 117 177 143
-1.00209 0.199422 3.29102 190 204 202
-0.995979 0.201999 3.29193 87 86 82
-0.964588 0.20428 3.29982 182 189 186
0.0584306 0.212724 3.43164 152 208 179
-0.988626 0.205073 3.29591 185 198 196
-0.976439 0.204647 3.29502 105 94 90
0.44767 0.220085 3.48764 100 165 144
0.993608 0.224601 3.56724 106 178 155
-0.988292 0.213409 3.29847 107 108 106
0.877921 0.228121 3.54563 80 144 115
-0.950361 0.214308 3.29885 81 69 67
0.504574 0.225948 3.49335 164 233 200
-1.10802 0.219435 3.27687 104 111 108
0.0161622 0.229415 3.42831 97 159 135
-0.214818 0.226722 3.39066 91 108 104
-0.000287671 0.226628 3.41508 97 164 137
-1.06722 0.220667 3.284 127 118 108
-0.233076 0.235424 3.38853 79 131 107
0.018287 0.239698 3.42659 113 164 126
-0.381385 0.237254 3.37103 133 154 151
-0.227601 0.238948 3.3914 229 250 248
-0.295109 0.243217 3.37279 165 251 211
-0.099672 0.244506 3.38822 101 156 137
-1.09177 0.241446 3.28432 147 150 158
-0.987053 0.241651 3.30024 208 225 221
1.22169 0.265405 3.60358 98 173 135
-0.452819 0.250459 3.36345 94 134 133
-0.281889 0.251709 3.38361 62 106 83
0.101491 0.254408 3.44026 81 152 126
0.33908 0.257257 3.47925 104 173 152
0.911383 0.263658 3.55677 176 239 207
-1.00935 0.247073 3.29673 131 138 131
-0.191403 0.252571 3.39456 65 120 103
-0.169538 0.253886 3.39433 56 116 76
-0.989434 0.249457 3.29763 99 93 88
-0.0336747 0.258182 3.41841 72 132 102
0.00929305 0.257355 3.42397 71 93 64
-0.9996 0.251151 3.30016 134 131 123
1.29808 0.277213 3.61336 186 209 205
0.211668 0.268669 3.46379 82 137 112
-1.15404 0.249289 3.16437 166 193 167
-1.00347 0.262991 3.29988 128 135 132
-0.133057 0.273583 3.40099 79 140 104
-0.989144 0.266081 3.30619 94 96 96
-0.0412233 0.274293 3.42236 109 181 145
1.52069 0.295984 3.65426 100 168 145
-1.01977 0.269698 3.29914 125 119 112
-0.187631 0.275146 3.40147 239 255 255
-0.0793846 0.277552 3.4063 160 194 164
-1.00411 0.270438 3.30261 158 154 149
0.0762452 0.285087 3.44349 150 218 187
0.216945 0.289008 3.46671 106 172 147
-0.444565 0.280291 3.36647 207 227 232
-0.283453 0.282706 3.38603 85 140 121
-0.210515 0.286025 3.40949 71 110 102
-0.0121892 0.287246 3.42729 158 230 183
-0.271196 0.288311 3.39279 76 126 116
-1.00518 0.289452 3.30536 140 142 142
-0.246958 0.300658 3.40125 96 141 125
-0.995354 0.295509 3.3072 170 172 180
-0.0420929 0.303936 3.4218 54 94 66
-0.116053 0.307779 3.40985 55 119 97
-0.215761 0.307549 3.40163 135 186 189
-0.0341596 0.315169 3.42282 58 114 73
0.937908 0.331314 3.57315 90 152 130
1.08375 0.335253 3.59612 119 173 160
1.45988 0.341283 3.64957 114 178 159
0.191552 0.325924 3.46478 171 230 215
0.0444702 0.326559 3.4446 72 151 108
1.16746 0.3423 3.60801 155 222 190
-0.192401 0.340982 3.40664 199 255 234
0.412909 0.351077 3.50054 95 169 139
0.000640734 0.351262 3.445 83 155 113
0.774095 0.361967 3.5544 186 248 232
0.0895694 0.357951 3.44926 106 168 138
0.857404 0.382748 3.56591 79 164 132
-1.29174 0.353641 3.27391 104 110 109
-1.05259 0.357951 3.3083 104 116 120
-1.07455 0.358464 3.30626 148 133 124
0.256716 0.379198 3.48384 73 132 117
-1.38663 0.330343 3.00489 48 112 106
0.189524 0.381262 3.47334 88 155 128
-1.3825 0.336871 3.0167 124 191 186
0.0938433 0.38992 3.45782 87 144 113
-0.149599 0.390935 3.41704 36 102 61
-1.39324 0.35113 3.00882 108 193 178
-1.18494 0.374321 3.20056 255 253 222
0.0719119 0.406805 3.46325 186 231 222
0.946634 0.421566 3.59077 107 168 134
-0.00400147 0.409428 3.43999 166 234 181
0.535426 0.421449 3.52856 175 235 217
1.33718 0.434021 3.64655 196 239 228
1.38522 0.437765 3.65106 84 145 131
1.16451 0.436593 3.62291 85 149 119
-1.20011 0.387321 3.20174 251 244 241
-1.06559 0.40015 3.31451 241 249 248
0.0848888 0.419099 3.45934 76 141 109
1.14046 0.440917 3.62132 108 171 151
-1.0991 0.408821 3.30771 217 233 240
-0.128539 0.424197 3.42598 58 139 106
-1.03786 0.41566 3.32155 216 228 230
-1.23332 0.404799 3.22348 246 191 146
-1.18138 0.402883 3.2017 255 233 192
-1.11955 0.415036 3.30792 157 179 185
1.12238 0.4555 3.61944 128 173 154
0.868805 0.452883 3.58167 150 222 192
1.68702 0.470496 3.70513 103 176 150
-1.1245 0.425258 3.3096 77 79 87
0.112481 0.445834 3.47282 88 145 120
1.58189 0.4781 3.69728 104 181 154
-0.14642 0.444612 3.42363 57 113 72
-1.26073 0.42164 3.22204 179 132 94
-1.2502 0.42 3.21386 255 238 217
-1.15018 0.435271 3.31245 147 144 146
-1.14084 0.43816 3.30899 80 76 82
0.938944 0.474155 3.59136 83 139 116
-1.09823 0.444121 3.31541 242 249 252
-0.208121 0.457683 3.4207 115 170 137
0.940329 0.480374 3.59097 147 224 186
-1.25484 0.431889 3.21251 255 255 229
-1.27211 0.448277 3.21735 255 255 255
0.267193 0.486743 3.49859 58 127 112
1.16692 0.509884 3.64131 85 143 119
0.452174 0.497935 3.52342 77 144 113
-1.29487 0.463041 3.21731 187 167 149
-1.2877 0.464462 3.21781 255 255 255
0.62937 0.515308 3.55717 177 242 221
1.0257 0.528289 3.61925 102 161 146
-1.17434 0.484074 3.30749 226 237 241
-1.49314 0.447864 3.03387 35 78 63
0.391705 0.522543 3.52386 170 232 202
-1.44842 0.449086 3.02167 92 184 159
-1.29953 0.485505 3.21451 217 169 141
-0.138748 0.519863 3.4382 56 135 102
-1.49324 0.459101 3.02996 28 80 57
0.0516222 0.528189 3.47268 132 221 181
1.13814 0.550421 3.63261 100 168 133
0.0619428 0.528194 3.47448 94 159 127
0.471119 0.539121 3.53964 96 163 136
-1.4927 0.464579 3.02522 74 148 122
0.401599 0.541208 3.53022 169 241 219
-1.43761 0.467439 3.02424 100 195 174
-0.214342 0.53487 3.44013 228 255 254
2.43989 0.602343 3.83771 137 199 169
0.120204 0.548251 3.48651 159 245 205
0.745856 0.567111 3.5896 111 175 153
1.36536 0.584477 3.67442 67 100 86
0.272744 0.561842 3.51326 168 235 203
-1.44652 0.484672 3.0272 104 190 172
-0.103435 0.559104 3.45316 54 94 66
-0.0405031 0.559588 3.46593 156 222 180
1.17312 0.587505 3.64463 69 122 102
1.54822 0.598685 3.7057 113 174 154
1.21636 0.592192 3.64705 99 150 122
0.000599254 0.568099 3.47656 110 157 141
-0.0352937 0.569787 3.47061 57 74 41
-1.11244 0.547687 3.33244 248 253 254
-0.0153114 0.576813 3.47652 64 109 92
-0.199655 0.57235 3.44095 66 136 95
-0.21045 0.574827 3.43972 81 156 110
0.0899512 0.58396 3.49278 196 236 234
0.532685 0.600435 3.55725 174 243 223
0.684364 0.603523 3.57997 70 132 114
0.918469 0.610236 3.61262 89 156 124
0.181483 0.59587 3.50511 64 131 94
0.182505 0.598607 3.5111 77 137 106
0.165649 0.601306 3.50733 108 169 135
0.0100709 0.60327 3.4848 99 156 123
0.496338 0.618218 3.55193 90 106 88
0.177334 0.61127 3.50946 88 148 114
0.867829 0.627741 3.6037 52 113 85
0.848228 0.63026 3.60767 163 223 193
-0.172733 0.608226 3.45806 54 119 87
0.460332 0.625844 3.54822 157 219 189
-0.146628 0.606749 3.44545 90 163 141
-0.146279 0.609214 3.45072 66 139 143
0.855955 0.636138 3.5958 57 88 51
0.215027 0.626072 3.51466 168 226 191
0.867841 0.642026 3.60613 148 213 174
0.880505 0.645259 3.61134 76 150 114
0.00826345 0.628232 3.49009 80 131 104
0.0738188 0.629264 3.49904 54 118 106
0.0977793 0.627942 3.50043 183 236 209
0.815403 0.646004 3.5958 145 209 179
0.103538 0.631948 3.50012 86 132 110
0.60916 0.652629 3.57342 175 243 208
1.34369 0.674229 3.67904 89 145 126
-0.344387 0.632748 3.43672 139 170 167
-0.163732 0.637205 3.45597 83 140 102
-0.151169 0.635275 3.45162 97 173 132
-0.338971 0.637095 3.43688 221 242 240
0.789301 0.667104 3.60033 88 118 105
0.0596673 0.65301 3.50077 189 243 206
-0.352905 0.643881 3.43631 122 157 160
0.095222 0.657321 3.5051 172 237 211
-0.354541 0.643698 3.43599 141 180 182
-0.00166134 0.657702 3.49088 51 116 90
-0.354022 0.649079 3.44718 133 176 173
-0.338322 0.651091 3.45039 116 176 166
0.416359 0.673457 3.55252 155 238 199
0.868343 0.685823 3.61627 150 213 169
0.886977 0.688068 3.62097 94 149 122
1.35429 0.712676 3.69292 77 107 94
0.776902 0.698659 3.60319 101 166 144
1.31404 0.716882 3.6867 96 166 143
0.12355 0.683896 3.51564 105 155 137
-0.100929 0.679713 3.47548 155 211 182
-0.0274356 0.686392 3.48848 151 217 175
0.165699 0.697843 3.52457 71 134 102
-0.0798117 0.692822 3.47962 73 110 90
-0.0754849 0.694226 3.48558 88 135 109
-0.080304 0.693262 3.48055 79 117 95
0.860013 0.725103 3.61788 131 193 157
-0.234674 0.694068 3.46113 106 174 149
0.866765 0.728895 3.62469 158 228 192
0.780421 0.730643 3.61387 129 198 165
0.241939 0.720034 3.53353 81 151 121
0.326633 0.725823 3.54412 84 149 124
0.703628 0.736005 3.5998 84 137 104
0.49012 0.734392 3.56569 125 175 143
-0.200996 0.716747 3.46031 76 145 112
-0.0560244 0.724358 3.49539 148 205 166
0.510219 0.738126 3.56987 91 158 119
-0.158326 0.719028 3.46299 49 112 92
0.505583 0.742494 3.56574 92 126 96
0.483014 0.751752 3.56633 73 92 77
1.16832 0.775459 3.67517 121 176 151
-0.0800284 0.740313 3.4951 149 202 163
-0.0343818 0.743645 3.50062 185 246 210
-0.0927441 0.753992 3.49088 69 88 69
0.613962 0.777924 3.57256 240 210 175
1.21108 0.803195 3.67769 135 177 159
-0.122206 0.76239 3.4856 132 169 143
-0.243403 0.760323 3.46657 215 243 244
0.979879 0.800175 3.64592 94 153 138
1.35903 0.814484 3.70641 91 151 141
0.654879 0.787718 3.56141 66 68 39
0.476247 0.789096 3.54981 183 165 158
-0.110247 0.777611 3.49034 67 108 87
0.60346 0.799348 3.58288 94 87 68
-0.0424948 0.784386 3.50378 85 143 119
0.503472 0.802003 3.57163 157 213 172
-0.23566 0.779991 3.46721 218 252 245
-0.147784 0.782993 3.46933 199 215 252
0.490697 0.803306 3.55219 91 92 76
-0.24557 0.787074 3.47338 82 143 129
1.34646 0.839801 3.71144 66 109 98
-0.110754 0.794342 3.49738 66 99 85
-1.16713 0.766886 3.35067 249 253 254
1.14448 0.847156 3.68144 98 163 147
0.87356 0.843989 3.63811 95 152 127
-0.150408 0.805368 3.46623 185 194 203
-0.108758 0.813487 3.49566 84 135 107
0.51595 0.833846 3.58396 226 227 207
0.452318 0.831067 3.54176 107 74 55
-0.114448 0.829793 3.49537 76 115 94
0.582207 0.850091 3.56935 67 85 62
0.582239 0.848297 3.56587 61 72 52
-0.0492726 0.839196 3.50772 96 151 118
0.405271 0.841937 3.52851 206 185 164
0.465281 0.84465 3.53751 137 130 127
0.65005 0.855094 3.5717 80 95 81
-0.100303 0.840767 3.50149 89 135 106
0.62876 0.860056 3.54557 139 96 77
-0.257818 0.847755 3.47095 103 134 125
-0.24462 0.855638 3.47826 252 254 254
-0.0358708 0.864242 3.51478 193 235 217
-0.0277247 0.878271 3.51769 174 248 220
1.11478 0.920619 3.68938 105 162 147
-0.161284 0.869328 3.47656 109 132 158
0.440546 0.897291 3.57952 97 106 86
-0.0692104 0.878888 3.50489 97 135 107
0.441497 0.899347 3.58339 94 104 91
-0.182476 0.880234 3.48439 229 255 239
0.481112 0.905528 3.58096 106 92 94
-0.26153 0.884911 3.48305 226 255 251
-0.245542 0.882271 3.47129 206 240 229
-0.181861 0.888701 3.47796 166 241 197
-0.176893 0.895972 3.48251 105 184 151
0.019179 0.913647 3.52771 84 144 114
1.33577 0.964473 3.72628 65 101 87
-0.262343 0.907554 3.48299 220 255 255
-0.137692 0.918819 3.50119 168 220 180
0.783261 0.961543 3.64178 79 143 113
0.152964 0.936805 3.54708 114 159 140
0.799086 0.966283 3.64733 96 162 133
0.81985 0.96779 3.64696 71 121 97
-0.214113 0.934676 3.48408 195 246 218
-1.04998 8.45266 31.4667 194 216 234
0.695095 0.948886 3.51629 213 204 200
1.14036 0.994928 3.69313 82 137 104
-0.13958 0.958538 3.50736 110 167 136
-0.165233 0.954673 3.484 199 220 247
1.04933 1.01503 3.68862 107 169 153
-0.10619 0.970084 3.51695 132 199 172
-0.143451 0.973238 3.51355 122 184 148
1.14059 1.02662 3.70382 81 148 111
0.803117 1.01462 3.65251 88 145 120
-0.185287 0.96849 3.48537 130 206 164
1.78684 1.06395 3.81245 93 154 144
0.53135 0.987698 3.52551 198 195 197
-1.18753 9.1462 32.6325 104 108 127
1.74658 1.07124 3.81023 100 165 149
1.17961 1.06411 3.71209 81 144 118
0.426567 1.04734 3.60604 108 175 148
0.779667 1.06596 3.65548 66 135 108
1.36488 1.09752 3.74743 89 142 129
1.4668 1.13757 3.77168 197 247 235
1.12392 -12.555 -22.9289 126 187 167
0.145269 -1.24158 3.15209 164 200 194
0.83892 -1.27355 3.23522 104 159 150
-1.08763 -1.18282 3.01681 230 235 233
0.106633 -1.23428 3.14897 130 149 156
0.226599 -1.2416 3.16333 85 133 115
0.169508 -1.23431 3.15642 77 92 88
0.515419 -1.25107 3.20538 108 167 153
0.165249 -1.22589 3.15901 138 202 166
0.145944 -1.2209 3.15451 161 195 189
0.476412 -1.2365 3.20246 88 153 137
0.0980928 -1.20352 3.1492 77 86 90
0.673043 -1.21017 3.23218 248 255 254
0.160462 -1.17904 3.16393 198 232 231
1.01791 -1.21994 3.27486 105 169 170
0.183555 -1.1371 3.18479 85 102 91
0.193207 -1.12913 3.18351 120 132 120
0.435661 -1.14692 3.22825 120 182 168
0.119515 -1.12194 3.17467 88 108 103
0.111457 -1.11287 3.1786 68 75 60
0.365671 -1.1134 3.20879 128 172 165
0.991546 -1.12418 3.29183 108 161 174
-0.114472 -1.06718 3.16536 143 184 176
-0.0915565 -1.05361 3.1706 110 176 157
0.124602 -1.05741 3.1882 150 156 155
0.989098 -1.09424 3.30033 99 169 186
-0.0670111 -1.03472 3.1755 102 177 139
0.237507 -1.04609 3.2113 102 155 146
0.116406 -1.03762 3.19519 84 88 99
0.321895 -1.02261 3.22774 108 161 148
0.139052 -1.00278 3.20538 117 150 146
0.0362982 -0.968429 3.1182 64 82 75
0.131959 -0.98389 3.21508 174 195 203
0.472059 -0.974242 3.26823 101 166 157
0.852918 -0.970457 3.31308 127 196 185
0.111524 -0.941275 3.22495 88 96 103
0.399142 -0.950826 3.26665 82 107 103
0.933224 -0.959225 3.33015 102 141 156
-0.125011 -0.91172 3.19413 236 247 251
0.439692 -0.931301 3.27285 118 172 202
-0.115852 -0.895039 3.19854 228 244 251
0.267264 -0.915864 3.25911 100 166 155
0.343726 -0.912346 3.25742 83 102 105
1.12683 -0.92996 3.36789 115 170 153
0.0127826 -0.88544 3.21467 250 255 255
0.572238 -0.896321 3.30434 105 167 175
0.278644 -0.880557 3.25668 206 240 255
0.22048 -0.881785 3.25781 113 153 188
-0.0720026 -0.859738 3.21544 230 255 255
0.2339 -0.854391 3.25872 214 236 255
1.11909 -0.882952 3.37891 86 158 136
0.627147 -0.856689 3.31639 95 134 149
1.1996 -0.8727 3.39118 99 164 148
0.143927 -0.832708 3.24891 90 147 144
0.518121 -0.844193 3.30378 111 149 183
0.4219 -0.832278 3.28664 133 164 189
0.729986 -0.837938 3.33357 93 178 164
-0.0981901 -0.793537 3.21575 218 240 245
0.659089 -0.814958 3.33146 100 141 144
0.322337 -0.800108 3.28307 105 147 166
0.405215 -0.796224 3.29924 97 141 148
0.339976 -0.787639 3.29004 132 166 202
0.797349 -0.800124 3.35364 87 159 159
-0.0957318 -0.760704 3.22304 82 141 120
0.459128 -0.779019 3.30601 99 158 143
0.447672 -0.769405 3.30668 84 144 134
0.550358 -0.767857 3.32145 89 140 126
0.623334 -0.774549 3.34428 89 155 143
0.626743 -0.763221 3.33925 100 138 132
0.604563 -0.760439 3.32991 66 108 101
1.00323 -0.767051 3.38911 96 168 155
-0.0841176 -0.727171 3.23395 228 255 246
1.21259 -0.767734 3.40418 132 176 169
1.30728 -0.712747 3.43274 91 150 142
1.21282 -0.705353 3.43499 202 227 223
0.0308744 -0.653368 3.26901 77 112 92
1.30261 -0.678865 3.43931 168 225 217
0.0299738 -0.631655 3.28007 88 158 118
0.0226207 -0.600345 3.27865 94 147 108
2.08272 -0.6443 3.5559 170 229 215
2.14536 -0.639441 3.56696 155 212 191
1.82993 -0.623136 3.52137 111 166 151
2.07365 -0.627814 3.55557 142 202 184
2.01687 -0.625605 3.54884 98 131 124
0.23374 -0.58188 3.31732 131 196 181
2.17575 -0.622649 3.57485 104 134 129
1.80692 -0.604074 3.52178 105 144 129
1.81923 -0.600594 3.52182 158 215 194
2.02322 -0.604379 3.55202 100 122 117
1.88661 -0.596745 3.54455 154 219 194
2.07345 -0.598259 3.55775 129 162 147
1.85894 -0.587965 3.55059 135 191 168
2.04131 -0.581469 3.55607 150 218 201
2.11114 -0.563639 3.57419 128 175 159
2.03929 -0.557938 3.56802 148 191 176
1.97811 -0.553604 3.55851 174 229 212
1.44206 -0.536206 3.49811 66 70 89
-1.15299 -0.480517 3.16753 117 85 72
1.84378 -0.538769 3.55152 142 207 191
-1.08868 -0.478074 3.16154 181 178 174
-1.2721 -0.466771 3.1417 144 122 116
-1.17467 -0.468795 3.15774 203 200 186
-1.24954 -0.467354 3.14969 197 198 188
1.32224 -0.512621 3.47053 252 255 253
-1.32068 -0.459686 3.14846 177 169 162
-1.29148 -0.461038 3.14903 198 197 193
-1.29 -0.461075 3.14871 201 205 200
-1.21577 -0.46091 3.15394 119 98 90
2.12944 -0.523159 3.58116 102 125 120
0.0444051 -0.481022 3.3119 56 81 67
-1.02846 -0.457828 3.17552 203 204 195
1.81 -0.51156 3.5478 153 213 195
2.16172 -0.514888 3.59412 168 216 210
0.0110047 -0.460144 3.29891 57 74 53
1.79382 -0.489209 3.54259 130 169 144
2.14635 -0.487775 3.59703 153 202 194
1.89252 -0.47847 3.5695 77 126 110
1.879 -0.477733 3.57843 104 165 139
-1.06716 -0.417902 3.17632 158 146 136
1.77005 -0.46728 3.54932 145 208 188
1.95885 -0.470652 3.57068 96 124 111
1.73236 -0.454454 3.54794 157 222 200
1.95788 -0.459681 3.57663 142 195 175
2.01205 -0.451928 3.58244 118 169 161
-0.739717 -0.394938 3.21135 134 125 112
1.42142 -0.425254 3.5131 178 215 223
-0.986574 -0.366047 3.20006 142 126 110
0.0766504 -0.373103 3.32368 76 113 97
0.273363 -0.372852 3.35995 77 132 115
-0.906591 -0.345127 3.20644 107 95 83
-0.82522 -0.339574 3.21097 185 179 172
-0.930799 -0.326277 3.20549 110 98 86
-0.907113 -0.325118 3.21048 110 96 84
-1.16181 -0.318762 3.16832 249 199 157
0.0308219 -0.334064 3.34124 66 97 76
-0.858965 -0.313238 3.21535 175 167 160
-1.58134 -0.284963 2.95943 69 106 72
0.0753909 -0.322587 3.33648 98 165 144
-1.48834 -0.281526 2.94758 34 48 24
-1.38062 -0.281165 2.95441 78 174 137
-1.31097 -0.280424 2.95847 79 150 107
-1.48351 -0.275132 2.94491 82 148 107
-1.36762 -0.270789 2.94602 57 114 89
-0.926711 -0.297181 3.21307 111 95 83
-1.35626 -0.270271 2.94903 27 78 41
-1.44592 -0.266101 2.95029 90 112 84
-0.112206 -0.299653 3.30349 93 172 128
-1.47454 -0.266 2.94558 36 63 37
-1.32517 -0.261416 2.9504 101 169 134
-0.955035 -0.287569 3.21107 199 207 206
-0.729166 -0.281725 3.22162 165 161 156
0 0 0 96 112 125
-1.30267 -0.255702 2.94689 31 73 38
-1.44285 -0.251304 2.94585 105 143 115
-0.785927 -0.258508 3.22247 186 183 179
1.42023 -0.285392 3.53358 59 91 66
-0.803719 -0.254657 3.23298 115 105 95
-1.40567 -0.224535 2.92993 46 71 37
-1.39061 -0.221973 2.93543 23 48 22
-1.26811 -0.221801 2.95316 80 130 98
-0.990799 -0.230876 3.22135 207 207 213
-1.53132 -0.20667 2.92051 30 83 56
-1.52089 -0.206377 2.92372 86 171 127
-1.50456 -0.206509 2.92236 44 55 35
-1.4514 -0.207355 2.94015 86 136 88
-1.32659 -0.206347 2.95965 92 179 135
-1.41455 -0.201937 2.93819 136 211 165
-0.0641935 -0.227535 3.31904 88 179 130
1.33509 -0.239833 3.52293 135 155 143
-0.973467 -0.215379 3.22578 197 205 205
-1.53218 -0.19211 2.91641 23 59 43
-1.43772 -0.192901 2.94166 92 164 122
0.0637642 -0.219626 3.35863 88 148 117
-1.00717 -0.208613 3.22159 174 179 178
-0.985431 -0.20716 3.22202 188 190 191
-0.627225 -0.204387 3.23342 112 101 97
-1.53241 -0.184485 2.90954 81 150 117
-1.29259 -0.187053 2.96207 24 55 26
-1.00219 -0.199463 3.22091 97 73 55
-1.28801 -0.179096 2.95996 124 186 146
1.30717 -0.212974 3.52511 255 255 255
-1.3556 -0.175721 2.9482 71 153 110
-1.46834 -0.171656 2.92163 90 177 141
-1.46027 -0.172594 2.92357 22 54 29
-0.805586 -0.187803 3.2391 198 203 194
-0.673995 -0.185899 3.23635 198 199 203
0.0367973 -0.196242 3.36852 70 111 84
0.179276 -0.196544 3.38052 84 151 119
-1.44752 -0.165221 2.92962 36 71 45
-0.909933 -0.176771 3.22876 187 194 197
0.0012115 -0.184716 3.35853 147 218 191
-1.53191 -0.151673 2.91605 74 159 121
-0.942373 -0.167122 3.23483 122 121 117
5.47354e-05 -0.174145 3.35456 54 82 62
-0.927639 -0.162765 3.23541 127 122 119
-0.768413 -0.162752 3.24655 193 197 198
-0.964696 -0.160419 3.22981 188 202 201
-0.22536 -0.155849 3.32198 230 245 254
0.381404 -0.158606 3.42428 188 233 224
-1.05218 -0.148691 3.22168 129 123 118
-0.931641 -0.14843 3.24006 195 202 205
0.233797 -0.15359 3.38896 91 154 134
-0.949458 -0.140819 3.23857 131 127 126
-0.95131 -0.139896 3.2421 130 127 123
-0.19537 -0.141513 3.32873 144 194 182
-1.30969 -0.121825 2.9703 29 74 57
-0.97571 -0.132132 3.23266 185 185 185
-0.121691 -0.133152 3.33251 93 166 126
-1.3398 -0.114788 2.95172 30 47 34
-0.956629 -0.125772 3.23732 126 118 118
0.373264 -0.133334 3.41789 80 145 119
0.690878 -0.132613 3.46634 140 196 173
0.702985 -0.136311 3.46243 68 85 58
-1.06418 -0.120932 3.23348 125 120 111
-0.0216785 -0.130537 3.35374 96 136 108
-0.976172 -0.109695 3.24202 199 202 200
-0.956897 -0.110238 3.24439 135 122 120
-0.128241 -0.113247 3.33618 74 149 97
-1.08157 -0.103713 3.23027 149 148 144
0.341642 -0.111208 3.41467 89 137 119
-0.981519 -0.097424 3.2444 202 207 210
0.651489 -0.100959 3.46397 76 91 77
1.34896 -0.104483 3.55889 192 234 211
-1.04112 -0.0883273 3.23548 127 114 98
-0.0220697 -0.0923921 3.37171 172 236 206
0.663756 -0.095895 3.46533 51 92 84
0.671124 -0.0958358 3.46381 150 194 187
-0.809014 -0.0845749 3.25461 104 91 83
-0.990537 -0.0783648 3.24074 208 218 225
1.19978 -0.0747641 3.53682 116 192 161
-1.01474 -0.0641989 3.25374 204 216 218
0.0429881 -0.0559486 3.38204 67 99 88
-0.997096 -0.0385074 3.25563 178 180 181
-1.06139 -0.0369478 3.24844 95 78 65
0.0143196 -0.0394706 3.37413 67 86 69
-1.1089 -0.0270566 3.24463 77 68 71
-1.09281 -0.0295916 3.24457 153 167 189
-0.995971 -0.0227566 3.25529 152 151 147
-0.978766 -0.0224634 3.25156 199 204 205
0.00517841 -0.0240221 3.38037 182 216 210
-1.11681 -0.020996 3.24408 152 172 177
-1.04118 -0.0227024 3.25016 107 103 98
-0.946192 -0.00959211 3.25446 200 213 215
-0.947995 -0.00229307 3.25925 114 107 104
-0.0341155 0.00318994 3.38294 72 117 91
-0.947111 0.00797075 3.26075 170 178 178
-0.0422102 0.009376 3.3732 109 164 119
1.24793 0.0109865 3.56091 93 159 124
-0.948269 0.0152484 3.263 103 94 91
-0.542878 0.0303876 3.31732 182 205 201
0.0136958 0.0316413 3.39372 88 157 124
1.2139 0.0410514 3.55958 91 154 128
-0.960228 0.039451 3.26412 213 226 234
-0.0357874 0.0478969 3.39628 72 123 89
-0.953884 0.049459 3.26818 105 102 104
-1.08567 0.0580632 3.26443 62 53 50
-1.03606 0.0582667 3.25377 131 132 128
-0.155806 0.0611474 3.36611 66 138 96
-1.02294 0.0657294 3.26133 109 104 101
-0.570397 0.073142 3.31996 218 230 232
-1.04286 0.0826721 3.26451 195 198 202
-0.302042 0.0858219 3.35801 213 236 231
-0.985708 0.0837065 3.27042 203 217 223
-0.996234 0.0919105 3.27197 106 111 112
-0.152207 0.0925514 3.37051 70 137 100
-0.00754364 0.11321 3.40355 143 217 189
-0.990001 0.120568 3.26891 167 179 181
-0.0123441 0.127781 3.40873 61 86 66
-0.214755 0.128002 3.37363 82 128 92
-0.98896 0.129413 3.2847 105 98 101
-0.205519 0.136767 3.37463 133 173 178
-0.0256529 0.137981 3.41508 67 93 70
-0.0124963 0.135566 3.40619 178 234 215
-0.0570866 0.14347 3.39491 139 195 152
-0.95841 0.144703 3.28462 106 108 109
-0.960753 0.148675 3.29598 136 138 138
-0.994624 0.150819 3.28119 83 83 89
0.0523478 0.168435 3.42597 103 174 148
-0.0956689 0.169574 3.38301 167 215 217
-0.915737 0.176796 3.30007 172 179 182
1.42646 0.203292 3.61738 71 119 90
-0.963178 0.189288 3.29381 96 81 65
0.0979833 0.20986 3.43753 139 219 182
-0.976437 0.204959 3.29586 98 84 78
-0.927738 0.204556 3.29445 90 86 81
0.0584116 0.211849 3.42916 183 244 216
0.447103 0.219749 3.4867 108 173 151
-0.988403 0.213588 3.29004 102 99 95
-0.970472 0.215302 3.29901 94 93 95
1.35161 0.23552 3.6043 76 100 82
-0.981476 0.216234 3.29956 176 203 200
-0.949486 0.216897 3.30366 91 89 95
0.113432 0.223587 3.43098 79 141 111
-0.295599 0.236915 3.37956 59 105 92
-0.127455 0.24169 3.39441 103 164 126
-0.991286 0.239665 3.30258 189 210 208
-1.00927 0.247102 3.2968 131 138 131
-0.114967 0.258156 3.39453 75 147 105
-0.0408992 0.266717 3.41328 117 189 146
-1.00144 0.26441 3.29358 130 131 129
-1.01911 0.268663 3.29645 120 114 107
-0.14327 0.287884 3.39562 92 163 113
-1.00575 0.290292 3.30751 140 142 142
-0.246757 0.299633 3.39857 96 141 125
