ply
format ascii 1.0
element vertex 1277
property float x
property float y
property float z
property uchar blue
property uchar green
property uchar red
end_header
-0.264466 -0.996219 3.65703 114 166 148
1.75977 -0.903532 3.33447 165 163 169
1.81142 -0.904802 3.33832 197 197 209
-0.97832 -0.968874 3.59053 46 75 52
-0.926742 -0.960718 3.58919 115 150 124
-0.226368 -0.977509 3.64988 65 97 78
1.18481 -0.916808 3.42446 231 242 234
1.57277 -0.894652 3.35255 143 139 151
1.99405 -0.886109 3.31495 215 242 239
1.21458 -0.912995 3.43221 205 235 236
1.69126 -0.893643 3.36205 127 117 133
1.22614 -0.906961 3.4225 125 143 144
1.23768 -0.905853 3.41535 231 247 246
-0.131857 -0.957524 3.63277 97 145 117
-0.942686 -0.94473 3.5863 111 153 128
-0.738634 -0.946763 3.59593 82 147 108
1.34556 -0.899895 3.41928 155 203 191
1.41593 -0.89563 3.40375 221 252 231
-0.731412 -0.944847 3.61082 119 242 198
-1.35771 -1.00173 3.8487 125 111 89
1.32244 -0.894432 3.4282 104 157 147
1.09162 -0.89029 3.43095 111 123 129
1.36424 -0.881373 3.42085 108 151 138
1.67645 -0.867226 3.36077 216 221 220
1.68189 -0.861561 3.34416 142 135 150
1.33287 -0.881658 3.42296 239 247 246
2.03373 -0.849221 3.30453 253 253 253
-0.6515 -0.921371 3.59978 127 243 206
1.05896 -0.882926 3.44693 227 239 239
1.17493 -0.878029 3.43365 228 237 234
1.8398 -0.858744 3.34814 141 149 178
-0.400918 -0.917504 3.6228 149 214 189
1.83154 -0.848331 3.34546 221 244 252
-0.242747 -0.9223 3.64162 164 229 208
1.18544 -0.871167 3.43803 102 85 98
1.6778 -0.852024 3.35525 208 233 235
-0.100523 -0.918704 3.65336 164 206 195
1.11432 -0.863526 3.43161 207 220 218
1.43436 -0.854509 3.40647 41 91 73
1.60751 -0.846914 3.37349 253 255 255
-0.255929 -0.913162 3.63663 99 149 125
1.8307 -0.837591 3.35052 142 153 173
-0.617469 -0.895094 3.59258 60 108 80
1.68642 -0.832311 3.34329 145 131 143
2.04059 -0.822635 3.3122 202 178 190
-0.236378 -0.90065 3.65424 122 163 156
0.00820635 -0.891811 3.63427 121 138 127
1.56349 -0.833105 3.39072 138 134 163
-0.0621068 -0.894314 3.65163 136 173 163
1.07665 -0.841476 3.44647 176 197 199
-0.684214 -0.882393 3.6273 45 64 49
1.59419 -0.824332 3.38784 235 239 233
1.99484 -0.809142 3.33009 119 152 155
-0.699168 -0.879593 3.64232 153 239 205
-0.0500495 -0.884211 3.67052 96 131 117
1.87951 -0.804157 3.34343 141 153 171
1.58471 -0.804871 3.3895 255 255 255
1.16531 -0.811502 3.43987 84 85 95
1.32896 -0.810487 3.43025 99 146 143
1.4563 -0.805667 3.4173 226 255 255
-2.41099 -0.94621 4.02331 99 153 146
1.5656 -0.79983 3.39708 219 228 225
1.5747 -0.797912 3.39659 142 128 132
1.10702 -0.80438 3.44374 109 113 124
-2.44974 -0.922097 4.01265 71 96 86
1.30012 -0.792121 3.43845 121 113 123
1.32095 -0.778308 3.43779 88 114 114
-1.31785 -0.868516 3.86974 109 153 146
0.0309048 -0.818718 3.65355 183 224 203
1.66981 -0.755176 3.37561 126 100 116
-0.67003 -0.810393 3.64467 73 123 93
1.5371 -0.755878 3.39941 235 246 244
-1.22778 -0.852245 3.84775 121 172 158
-0.686441 -0.808661 3.65197 137 226 183
-0.114127 -0.817789 3.68403 69 99 74
1.39808 -0.759699 3.43156 111 102 115
-0.140394 -0.809918 3.68301 112 181 160
1.34296 -0.758543 3.42825 138 174 182
1.61887 -0.743596 3.38782 170 171 181
-0.939737 -0.821827 3.75047 92 123 90
1.46283 -0.750657 3.41573 119 154 150
-0.681657 -0.793563 3.64602 47 92 59
1.09193 -0.75672 3.46943 131 132 153
-1.53784 -0.846698 3.89605 115 147 130
-1.34106 -0.836663 3.86676 120 185 170
-1.27733 -0.834086 3.87112 125 186 172
-1.50392 -0.837141 3.88798 87 146 126
-1.24726 -0.827039 3.84548 65 81 57
1.31657 -0.740751 3.44589 70 78 71
1.57201 -0.726167 3.39313 222 240 247
1.74556 -0.720718 3.36317 142 136 147
-1.30039 -0.824642 3.85464 113 164 150
-1.44014 -0.820425 3.87609 109 152 131
1.1273 -0.736567 3.47415 127 124 126
1.16133 -0.73367 3.45125 82 80 86
1.68257 -0.721518 3.385 218 223 222
1.68632 -0.71217 3.36612 102 94 104
-0.43796 -0.781926 3.71867 85 121 104
1.48025 -0.719927 3.41517 147 143 155
1.56219 -0.718557 3.39726 188 211 219
1.60277 -0.713375 3.38765 196 210 208
-1.73387 -0.813837 3.92355 114 136 118
1.56689 -0.707322 3.40431 130 105 131
-0.363509 -0.763038 3.70383 71 125 88
1.49021 -0.70384 3.40525 137 141 159
-1.16718 -0.786389 3.83599 52 76 52
1.32837 -0.71014 3.45082 217 233 232
-0.468489 -0.764182 3.73062 85 141 120
1.20235 -0.710357 3.4597 91 141 139
-1.74295 -0.799998 3.92707 146 201 186
-1.25926 -0.782751 3.85257 70 104 93
-1.2448 -0.783577 3.85143 134 176 169
-0.933525 -0.773694 3.79648 116 155 140
-0.113331 -0.74351 3.67949 177 220 207
0.338939 -0.729033 3.60481 64 91 71
1.3349 -0.698425 3.45124 103 97 92
1.70232 -0.682809 3.38564 122 130 147
-1.16749 -0.769981 3.83814 84 127 116
-0.94929 -0.763853 3.80936 134 190 177
0.816686 -0.705891 3.51004 199 206 199
1.64601 -0.679513 3.38351 130 117 133
-1.66215 -0.781728 3.9049 83 110 94
-1.58795 -0.783327 3.92451 101 147 134
0.342618 -0.718229 3.60423 159 210 196
-0.592478 -0.743618 3.75168 145 214 193
1.80106 -0.67239 3.38134 106 91 119
-0.953143 -0.750714 3.80949 144 198 181
0.310043 -0.708654 3.60461 81 140 120
1.6125 -0.67031 3.37917 124 114 127
-1.05263 -0.75325 3.82332 118 190 160
-1.0056 -0.749536 3.81762 100 139 117
-2.53036 -0.792068 4.04576 105 152 143
1.87839 -0.659758 3.37376 140 150 157
-1.09388 -0.745453 3.84163 67 122 95
-1.04961 -0.738725 3.8185 71 104 83
1.61194 -0.655931 3.38853 99 80 101
1.65604 -0.650313 3.36934 191 205 211
0.41722 -0.689544 3.5913 91 140 120
1.25283 -0.665311 3.47125 87 121 114
1.72855 -0.649716 3.37401 207 204 213
0.305668 -0.69284 3.60694 61 82 67
0.783039 -0.672479 3.51351 106 98 98
1.37886 -0.663517 3.45393 70 132 114
-1.92492 -0.757682 3.99175 152 211 196
-0.973738 -0.726875 3.81512 108 141 120
-0.891467 -0.721162 3.78472 59 94 74
1.40472 -0.656541 3.43843 180 228 216
-1.03972 -0.721651 3.82198 72 108 86
-0.883387 -0.718055 3.79425 141 224 192
0.444029 -0.679952 3.58839 48 63 42
1.38703 -0.653263 3.4464 251 255 255
1.59533 -0.650383 3.42014 172 170 182
0.760575 -0.663236 3.51482 104 74 69
0.782653 -0.660042 3.51628 251 253 253
0.815923 -0.659969 3.51945 86 70 63
-0.909549 -0.699043 3.77339 62 105 84
1.79428 -0.625782 3.37946 206 229 231
1.89594 -0.623901 3.37117 254 254 254
-2.38788 -0.747211 4.04902 91 137 138
-0.331211 -0.687208 3.71921 163 211 193
0.483746 -0.659688 3.57852 103 124 109
1.72502 -0.623783 3.37556 230 235 234
-0.831269 -0.695538 3.78833 72 115 102
0.385966 -0.661196 3.60264 124 186 170
0.812283 -0.648412 3.52675 230 232 232
1.64198 -0.621317 3.38147 99 98 108
1.80632 -0.617629 3.37916 127 134 161
-0.928469 -0.69098 3.79856 129 186 178
1.78781 -0.617592 3.39421 102 81 106
-0.724045 -0.686831 3.77392 105 143 137
-0.663607 -0.682858 3.76925 101 154 145
1.37192 -0.628963 3.44319 115 162 159
1.4032 -0.623031 3.43822 183 218 214
1.59557 -0.62045 3.41037 237 237 237
-0.46809 -0.677783 3.74552 113 178 152
0.368763 -0.651491 3.60606 135 177 159
1.78429 -0.612843 3.38762 108 101 122
-0.95236 -0.680856 3.80957 128 183 166
1.38128 -0.610273 3.45164 86 95 109
-1.84268 -0.695549 3.93882 99 160 150
-0.354785 -0.661275 3.73099 164 214 196
1.77247 -0.597417 3.38372 138 133 160
1.0713 -0.61573 3.49749 79 103 101
1.77731 -0.592817 3.37698 152 146 177
1.83314 -0.591763 3.36634 116 115 147
1.42491 -0.592228 3.44792 62 99 79
1.70563 -0.58091 3.3828 180 171 181
-1.0201 -0.649665 3.82572 102 164 152
0.735509 -0.602641 3.5478 48 99 85
1.48235 -0.584983 3.44334 175 200 202
1.77289 -0.574369 3.38792 122 106 124
1.84282 -0.571567 3.38083 222 232 232
1.28463 -0.578222 3.47576 101 147 148
1.72695 -0.564599 3.38092 164 160 179
1.80186 -0.564697 3.39028 159 159 189
-2.01133 -0.655991 3.97912 107 159 149
-0.910756 -0.627197 3.80085 145 218 208
0.776855 -0.583846 3.53768 80 122 111
-0.348002 -0.612331 3.71795 60 79 62
1.84276 -0.548095 3.3774 86 89 93
-0.359443 -0.599925 3.72075 142 211 190
1.80643 -0.544758 3.3933 152 144 161
-0.403009 -0.596445 3.74733 96 145 129
-0.376143 -0.596013 3.73737 80 131 111
1.81731 -0.541785 3.3876 147 143 154
1.86142 -0.531998 3.3878 127 164 144
1.03947 -0.543644 3.49688 96 121 117
0.549495 -0.550825 3.5648 80 115 111
-2.5811 -0.628838 4.0817 88 154 135
1.51275 -0.528883 3.44288 119 140 148
-0.349418 -0.572707 3.73703 123 173 155
1.30424 -0.52813 3.48109 131 156 158
1.744 -0.513482 3.39715 136 132 143
-0.40249 -0.560188 3.75158 105 156 149
1.22508 -0.52538 3.48279 78 81 86
2.12493 -0.503749 3.3582 101 160 140
-0.822257 -0.561806 3.79281 101 115 111
-0.298773 -0.554365 3.72112 129 155 139
1.33055 -0.517332 3.4782 86 99 97
-0.873024 -0.553565 3.80341 100 137 127
1.0225 -0.513983 3.51925 159 228 208
1.7026 -0.497339 3.41636 105 82 96
0.645649 -0.518003 3.56796 96 148 138
1.17374 -0.502723 3.48619 109 118 121
2.10709 -0.48234 3.36312 96 133 113
1.32341 -0.498126 3.48107 83 136 123
1.58553 -0.488943 3.43652 139 144 165
1.60764 -0.489638 3.42856 127 126 146
1.21827 -0.496917 3.47771 85 106 108
-0.817389 -0.532936 3.78218 96 133 125
1.75981 -0.474957 3.39926 251 255 255
1.17319 -0.478628 3.48916 154 157 162
2.12521 -0.464372 3.36162 92 135 108
1.25219 -0.47906 3.48625 101 101 101
1.02548 -0.476886 3.50678 242 253 251
1.5162 -0.468552 3.44036 97 98 108
1.04235 -0.47769 3.52274 111 165 152
-0.746162 -0.507155 3.78294 103 139 125
1.75511 -0.452058 3.39678 252 251 253
1.34722 -0.458629 3.49681 153 160 163
1.88784 -0.446428 3.40011 206 202 213
1.9438 -0.447513 3.40486 170 203 199
0.907851 -0.461228 3.54406 68 119 99
1.92838 -0.442076 3.3957 188 209 206
-0.719161 -0.488825 3.7886 86 124 112
1.17538 -0.454234 3.49345 117 105 99
1.24801 -0.452012 3.50103 150 129 137
1.76331 -0.437225 3.3894 212 217 215
1.57532 -0.43297 3.41108 231 247 246
1.08414 -0.444198 3.51744 153 187 181
1.2078 -0.441237 3.49841 189 195 208
1.8828 -0.430572 3.40192 170 155 163
1.164 -0.43842 3.5044 119 102 111
-0.425871 -0.459702 3.70857 179 238 230
1.14108 -0.43533 3.51233 84 103 100
-1.60663 -0.483473 3.92761 111 166 151
0.349229 -0.447456 3.61669 181 222 214
1.1831 -0.431581 3.50331 131 121 121
1.26142 -0.4313 3.50415 138 140 150
1.66752 -0.424453 3.43346 201 220 225
1.512 -0.422216 3.45519 197 223 223
-0.783777 -0.457321 3.80483 90 140 128
1.7885 -0.409908 3.40672 171 156 177
-0.563327 -0.442781 3.74393 115 170 155
1.12855 -0.417897 3.52314 128 152 144
1.32453 -0.41518 3.49997 224 237 235
0.948046 -0.415914 3.5398 188 235 227
1.13813 -0.414062 3.52237 215 228 230
1.2657 -0.411525 3.49811 142 138 149
1.74296 -0.40055 3.40106 211 224 222
0.965648 -0.408109 3.52909 141 196 181
1.481 -0.401998 3.47348 169 220 216
1.50034 -0.402362 3.46581 189 230 222
-2.12741 -0.464107 4.01067 98 141 130
1.7247 -0.396698 3.41022 107 100 103
1.91205 -0.390243 3.39973 185 197 197
0.335847 -0.410847 3.62572 53 87 70
1.94819 -0.379117 3.39869 255 255 255
-0.673971 -0.42202 3.79411 79 151 138
-0.599839 -0.417461 3.76042 170 230 219
1.5388 -0.379027 3.41931 91 85 96
-0.577797 -0.411658 3.73596 84 138 125
-0.619702 -0.413923 3.78178 139 213 187
1.50142 -0.376149 3.46892 179 210 207
1.88401 -0.372593 3.40395 123 104 121
1.93414 -0.370578 3.39955 197 200 204
-0.399001 -0.399995 3.70071 163 223 212
1.55149 -0.374458 3.44441 87 72 93
-0.642096 -0.408383 3.80055 142 213 203
0.966737 -0.37655 3.53931 56 98 80
-0.489453 -0.397937 3.74456 53 92 84
-0.34479 -0.391835 3.70757 84 118 107
1.1803 -0.373347 3.52086 194 223 232
-0.222739 -0.39769 3.73896 87 107 102
0.362366 -0.383702 3.63897 106 179 157
2.03756 -0.359082 3.40281 79 149 142
2.0847 -0.358431 3.39349 66 125 117
1.49321 -0.364799 3.47673 47 84 80
0.671467 -0.370907 3.5913 52 109 100
1.42278 -0.360102 3.48471 64 123 102
1.59485 -0.356746 3.41993 220 233 235
1.56589 -0.3507 3.42347 210 230 225
-0.55527 -0.376124 3.75488 171 227 214
1.73651 -0.34544 3.43511 117 119 130
1.88137 -0.341032 3.40883 255 255 255
0.441629 -0.363562 3.63552 72 127 108
0.609816 -0.361873 3.60709 92 152 141
0.902249 -0.352095 3.55121 90 152 134
1.4987 -0.346313 3.48305 86 117 108
0.163649 -0.357686 3.62767 99 137 131
1.57348 -0.337766 3.44199 82 81 91
1.87319 -0.331324 3.39974 95 81 87
1.40135 -0.33084 3.49932 201 235 234
-0.512593 -0.351582 3.74955 83 131 119
1.55128 -0.323023 3.46009 52 49 51
1.52301 -0.322068 3.48707 112 156 149
0.169211 -0.332591 3.64243 165 213 187
1.42335 -0.323011 3.49205 93 130 122
1.48347 -0.318538 3.48925 181 218 214
1.84203 -0.312794 3.42178 136 128 145
-0.50783 -0.338862 3.7449 182 237 228
-0.373764 -0.337046 3.7196 176 222 203
0.510733 -0.327864 3.64174 93 139 110
0.924362 -0.32359 3.56251 82 128 115
1.52641 -0.315925 3.48704 127 174 166
-0.596031 -0.338242 3.79385 64 114 104
0.568731 -0.325204 3.62467 98 136 114
1.42765 -0.31148 3.48982 79 130 123
1.80254 -0.307496 3.4265 132 116 140
1.51295 -0.306538 3.49236 97 152 137
0.30943 -0.316261 3.65376 105 129 121
0.342321 -0.317005 3.64735 68 109 94
1.74255 -0.299853 3.44985 134 137 152
1.4368 -0.299854 3.50267 94 137 140
1.54194 -0.295445 3.46909 49 55 54
0.615088 -0.306418 3.60548 85 114 105
0.312477 -0.305989 3.65552 255 255 255
1.42923 -0.293791 3.50081 180 209 214
-0.0271619 -0.298598 3.67859 180 237 212
1.53767 -0.281627 3.47192 147 181 180
0.0544867 -0.292557 3.69754 83 82 84
1.11002 -0.282603 3.53124 122 135 149
1.55584 -0.27588 3.48085 171 203 198
-0.553704 -0.295966 3.80492 149 197 191
1.82212 -0.271325 3.43817 228 240 240
0.901664 -0.272065 3.56928 61 94 79
-0.583411 -0.279273 3.79786 95 146 132
0.490216 -0.268811 3.64116 94 105 113
1.64619 -0.253369 3.45277 98 112 124
1.97449 -0.25115 3.40366 180 185 183
-0.0366399 -0.260384 3.69026 55 60 59
1.9964 -0.236964 3.42445 252 255 251
-0.52391 -0.257613 3.79794 76 109 102
-0.0274567 -0.249226 3.71476 107 116 119
1.91205 -0.232665 3.43308 124 144 145
-0.625162 -0.254826 3.82304 85 145 135
-0.0295888 -0.247985 3.72092 65 74 78
-0.224272 -0.247283 3.7256 145 207 195
0.373431 -0.235005 3.66004 81 138 117
1.54205 -0.225931 3.48837 147 189 188
1.904 -0.222517 3.4325 255 255 255
0.214664 -0.229776 3.66393 126 142 141
-0.00974893 -0.230862 3.72931 142 156 155
0.646382 -0.221165 3.61863 95 144 122
0.723193 -0.222621 3.6046 72 86 84
1.54659 -0.212983 3.5001 58 86 80
-0.343559 -0.225313 3.77227 100 131 128
1.67412 -0.200534 3.46599 99 103 108
0.493318 -0.207367 3.64486 215 230 239
1.79902 -0.198364 3.437 150 156 167
0.555111 -0.197239 3.65186 84 146 134
1.75943 -0.182802 3.45095 168 176 189
-0.300335 -0.19 3.77565 193 221 228
0.577744 -0.181426 3.64347 97 154 139
0.85271 -0.174616 3.58757 65 70 73
1.59581 -0.170005 3.5068 66 84 83
0.54819 -0.174746 3.65114 97 161 149
1.66 -0.166833 3.49124 61 75 69
0.583482 -0.159806 3.62886 71 121 103
0.726475 -0.158247 3.60632 119 152 172
1.68108 -0.154345 3.49537 223 250 247
-0.065665 -0.160792 3.7478 83 120 124
-0.108071 -0.156407 3.75304 110 137 151
0.6003 -0.147871 3.63118 67 102 92
1.83982 -0.141149 3.45301 191 189 195
-0.0973162 -0.150509 3.74755 188 216 227
0.350418 -0.135528 3.6644 97 121 127
0.142691 -0.135709 3.6831 99 107 107
0.121892 -0.127519 3.69058 109 131 129
0.20319 -0.126525 3.67562 75 118 103
-0.245264 -0.125648 3.77489 73 133 125
0.422267 -0.117054 3.65948 123 147 145
1.61584 -0.111229 3.48276 89 104 123
1.62815 -0.104308 3.50989 105 120 139
0.111693 -0.102208 3.7004 179 216 238
1.42891 -0.0988523 3.51987 206 232 232
0.4581 -0.0989154 3.66502 132 153 155
1.61903 -0.0946302 3.49813 155 191 209
0.344923 -0.0960639 3.6679 95 105 122
-0.0345636 -0.0872487 3.7433 97 100 114
0.0132163 -0.0867201 3.7363 205 223 230
1.74067 -0.076765 3.49039 206 245 254
0.13826 -0.0720454 3.70405 78 87 101
1.46358 -0.0641899 3.51317 66 93 89
1.79922 -0.0636668 3.48322 83 119 149
0.153757 -0.0638602 3.69229 112 142 159
1.72628 -0.0593817 3.4885 231 244 242
1.81283 -0.0555618 3.4621 255 255 255
1.70786 -0.0527406 3.50651 235 248 250
1.81309 -0.0441147 3.47216 109 112 133
0.259576 -0.0415948 3.68864 186 216 245
1.50202 -0.0416121 3.52847 88 147 127
1.72129 -0.0421549 3.50082 208 239 238
0.187676 -0.0237923 3.6965 161 185 207
1.7416 -0.0185045 3.49992 186 223 243
0.366986 -0.0175867 3.68596 175 198 213
1.6519 -0.0147775 3.49998 201 230 244
1.71765 -0.00822644 3.50883 59 77 106
-0.0792324 -0.00946938 3.77376 185 238 228
-1.97635 0.0016951 4.04808 105 139 128
0.235883 0.00125215 3.68582 202 232 251
-0.0442503 0.000874747 3.77686 180 214 213
1.59888 0.002928 3.51667 206 233 230
0.212453 0.00514481 3.69737 64 67 81
1.63958 0.00492676 3.49968 192 224 243
1.76292 0.00625036 3.49893 61 75 94
1.81235 0.00621706 3.49276 102 115 137
0.159339 0.0221897 3.71764 188 223 243
2.02759 0.0194638 3.46074 102 99 125
0.794422 0.0232286 3.62956 113 116 124
1.6376 0.0242056 3.49967 107 116 143
1.76394 0.0274459 3.50232 79 105 135
1.65058 0.0284483 3.49488 60 75 107
1.59737 0.0354159 3.50746 170 199 214
0.968581 0.0416046 3.40143 150 205 166
1.57333 0.0435735 3.5158 77 86 83
0.0222781 0.0469835 3.75619 62 65 79
0.794221 0.0460264 3.6194 146 179 198
1.10694 0.045892 3.37596 35 56 34
-0.000399421 0.0558515 3.77202 74 103 108
0.028763 0.054748 3.76149 109 123 146
0.0829617 0.0635346 3.74219 59 68 71
-1.21166 0.0806295 3.96018 120 169 155
0.126639 0.0725439 3.74541 74 97 112
0.213082 0.0762226 3.72345 54 61 58
0.021921 0.0762458 3.77223 152 214 208
0.188203 0.0776417 3.7321 56 60 55
1.67715 0.0732987 3.5043 190 231 246
0.598232 0.0792056 3.68043 94 138 137
0.780604 0.0825611 3.61991 146 154 171
0.722113 0.0862479 3.64936 90 100 110
0.829899 0.0844928 3.62017 48 41 44
-0.0400745 0.0935218 3.79034 111 153 158
0.730596 0.0970214 3.65415 64 64 76
1.48478 0.104556 3.56221 85 138 125
1.70771 0.108679 3.50844 48 56 73
1.71019 0.12052 3.51862 202 221 229
1.95381 0.11918 3.50019 96 148 138
1.17176 0.119105 3.38149 121 191 161
1.16412 0.129992 3.39573 22 103 64
1.83887 0.134071 3.50861 104 131 158
1.99397 0.143852 3.48311 134 146 164
1.76327 0.143463 3.51276 94 93 125
1.23767 0.144279 3.37608 81 165 131
2.0332 0.147469 3.4891 149 170 185
1.76072 0.151989 3.5243 204 237 253
1.98937 0.150292 3.47789 97 111 133
0.755037 0.165318 3.65557 166 180 192
1.70969 0.159558 3.52437 95 108 124
1.15465 0.152187 3.39316 135 213 160
1.14931 0.160117 3.4073 63 104 76
2.04624 0.171084 3.481 107 110 141
1.11609 0.174612 3.40219 151 235 181
1.55889 0.180723 3.54406 148 214 185
1.79086 0.180516 3.53062 191 223 236
0.0660303 0.198844 3.79089 255 255 255
1.11115 0.187518 3.42674 52 64 34
0.678669 0.212712 3.67663 66 123 108
1.13181 0.198676 3.42322 55 111 70
1.65649 0.203476 3.52882 150 195 222
1.6278 0.20795 3.53137 60 54 59
1.99741 0.206061 3.48766 215 225 225
1.60841 0.22047 3.56145 140 194 177
1.80311 0.230505 3.54971 64 105 100
1.97202 0.228812 3.52421 152 183 186
0.552719 0.243822 3.70249 219 240 248
0.261008 0.253279 3.75785 189 209 234
0.563081 0.24793 3.70531 120 129 143
1.9685 0.239162 3.52027 89 111 106
1.8174 0.240908 3.54576 77 127 125
0.38462 0.25887 3.75193 83 143 133
1.12543 0.239054 3.45408 147 213 162
0.11232 0.265875 3.77686 149 178 205
1.52663 0.263827 3.5758 111 113 143
2.02239 0.266548 3.52008 169 218 210
0.224893 0.290338 3.76946 92 106 125
0.618286 0.284606 3.70044 198 223 225
0.364257 0.289419 3.75643 79 135 122
1.11226 0.273177 3.50566 47 58 42
-0.701732 0.321391 3.90249 251 255 255
0.745023 0.304657 3.70896 57 82 68
0.204504 0.310916 3.76888 198 224 241
0.760541 0.308535 3.70017 102 135 120
0.612943 0.313548 3.72174 92 91 100
1.10266 0.294074 3.52072 100 139 117
1.12494 0.296813 3.52567 62 99 89
1.57323 0.304996 3.5818 144 150 169
0.184816 0.328569 3.77885 65 108 125
0.734338 0.324139 3.71578 101 132 131
0.757631 0.329531 3.7059 143 207 195
-0.684283 0.346092 3.91529 255 255 255
0.244848 0.338064 3.79518 104 123 128
0.426567 0.341262 3.75747 182 216 209
0.622296 0.346225 3.72608 74 101 111
0.676364 0.344854 3.70202 113 135 140
0.657721 0.347095 3.70821 82 92 110
0.622408 0.367932 3.71291 106 130 148
0.835596 0.368938 3.69966 155 215 207
1.41326 0.3551 3.60747 160 219 204
0.588025 0.373406 3.73639 154 189 199
0.10766 0.390749 3.80827 179 238 223
0.0992122 0.396732 3.81056 100 153 143
0.532337 0.398945 3.74586 69 104 94
0.675817 0.394234 3.727 186 219 234
0.877988 0.400222 3.70245 147 204 196
1.38987 0.395168 3.63407 71 117 105
0.994101 0.410735 3.68595 208 172 134
0.954956 0.41588 3.69334 161 211 199
0.65319 0.425456 3.72868 114 129 145
0.539694 0.436802 3.76062 90 116 130
0.609397 0.437388 3.74972 117 136 149
0.927284 0.426167 3.7017 99 123 115
0.989953 0.429893 3.69119 102 102 102
1.07159 0.426751 3.67904 80 114 108
1.00191 0.435845 3.69452 139 159 147
1.04549 0.437735 3.686 81 149 138
0.694762 0.442945 3.71777 97 105 118
1.20671 0.448852 3.66499 70 111 106
0.777179 0.460774 3.71092 225 243 250
0.595561 0.474397 3.75062 84 101 120
1.47692 0.457969 3.62591 69 138 125
0.785724 0.475865 3.70698 100 117 144
1.28521 0.470364 3.65607 76 123 114
0.33731 0.516819 3.80876 101 148 140
0.513839 0.513888 3.78534 95 134 142
1.50817 0.495095 3.63103 75 134 126
0.828696 0.508615 3.71236 110 117 134
0.603197 0.544579 3.74986 95 104 107
0.794381 0.54378 3.7351 107 143 149
2.09801 0.668405 3.58374 85 149 137
-0.173292 0.799583 3.91902 101 160 152
1.61584 0.751756 3.6605 159 209 205
0.932335 0.807476 3.76183 98 139 132
1.73409 0.793084 3.66515 87 138 131
2.13825 0.809179 3.61168 115 157 150
2.04729 0.827544 3.63583 111 169 158
-1.789 0.980262 4.14882 115 164 148
1.61701 0.878499 3.69382 93 120 111
1.82341 0.885541 3.6671 86 119 98
-1.23226 0.992197 4.08777 83 123 105
1.60405 0.894747 3.68931 61 70 67
1.78424 0.918091 3.68235 91 133 122
1.57338 0.929603 3.70986 127 182 163
1.62357 0.954744 3.70179 102 136 125
0.881349 1.00546 3.81875 102 154 144
0.208852 1.03424 3.8995 86 124 112
1.56332 1.00297 3.73627 100 137 135
1.68797 1.10266 3.73449 87 112 98
2.07207 1.08993 3.68383 92 135 120
2.05884 1.08977 3.68154 162 233 206
-0.413438 1.23673 4.04791 128 171 180
-0.0503971 -1.35079 3.6002 114 107 112
-0.00217848 -1.33531 3.60003 182 227 231
0.181778 -1.31979 3.57283 107 147 136
0.231296 -1.30685 3.54866 66 76 63
1.5774 -1.22512 3.33053 136 162 149
-0.84133 -1.2532 3.43985 62 98 82
0.225574 -1.29512 3.55833 172 225 211
0.274807 -1.28445 3.54805 68 67 57
1.45347 -1.21118 3.34801 153 230 192
1.56544 -1.20094 3.33904 235 246 238
-1.60488 -1.37028 3.82778 134 212 181
-0.801696 -1.23484 3.45275 61 123 107
-0.0159747 -1.28723 3.59907 114 162 156
1.7867 -1.16405 3.26268 165 178 164
-1.91443 -1.38082 3.88244 81 123 105
-1.63019 -1.37284 3.85813 88 137 115
1.40114 -1.18623 3.34806 188 184 195
1.4494 -1.18952 3.3632 173 176 190
1.37947 -1.17719 3.3666 197 182 186
-1.81846 -1.34015 3.8765 143 213 190
-1.08124 -1.1863 3.42761 55 85 66
1.65185 -1.14201 3.30555 203 211 210
1.68967 -1.14433 3.29911 145 142 151
-1.87799 -1.34133 3.89396 69 126 105
0.123387 -1.23551 3.58607 92 112 99
0.212486 -1.22019 3.56027 71 98 89
-0.303377 -1.21894 3.56098 134 211 177
-1.82989 -1.32542 3.88303 95 141 128
-0.112121 -1.22612 3.59877 94 95 105
-0.100478 -1.23023 3.60775 182 194 212
0.117645 -1.22519 3.59585 155 194 179
0.226099 -1.21438 3.56472 182 215 218
-1.00864 -1.18749 3.50948 138 200 176
1.44431 -1.13512 3.36505 139 152 154
-0.748136 -1.15696 3.47118 117 211 186
1.75434 -1.09836 3.30152 179 175 181
1.71948 -1.10071 3.31763 160 148 154
-1.74912 -1.27443 3.86278 122 157 147
-0.76692 -1.13177 3.46522 48 91 58
-0.28014 -1.16817 3.57583 42 86 69
1.68908 -1.09054 3.33233 135 118 129
1.78417 -1.08584 3.31934 173 160 184
1.6372 -1.09562 3.3534 101 137 120
-1.74637 -1.25255 3.86773 162 211 197
1.72357 -1.08314 3.33045 158 142 176
-0.82903 -1.11423 3.48341 39 61 42
1.62219 -1.06988 3.3544 109 145 139
-0.418535 -1.14677 3.62037 139 220 195
1.38522 -1.06803 3.37861 95 167 144
1.71076 -1.05625 3.33135 151 128 143
-0.804518 -1.09992 3.49153 178 237 192
-0.699214 -1.09549 3.46943 131 225 191
1.34509 -1.06949 3.3888 84 159 138
1.75003 -1.04251 3.32417 186 185 194
-0.450936 -1.13581 3.62143 136 213 185
1.67612 -1.04489 3.34083 134 131 133
1.68306 -1.03635 3.34041 198 228 209
-0.42322 -1.10752 3.60105 159 228 178
-0.0194684 -1.10138 3.59576 144 200 187
-0.933272 -1.07702 3.51878 129 200 160
1.57519 -1.03361 3.36832 142 174 169
-1.75384 -1.18205 3.88827 136 207 191
1.84943 -1.00934 3.32009 255 255 255
-1.7403 -1.17494 3.89455 67 85 68
-0.105017 -1.08067 3.57913 72 92 80
-0.0496524 -1.08158 3.57899 159 213 206
1.62873 -1.01597 3.36121 180 171 184
0.000136473 -1.0886 3.61641 136 194 170
1.4291 -1.02046 3.38268 63 145 123
1.70716 -1.00103 3.32469 254 254 254
-0.103972 -1.0667 3.56418 108 163 160
-1.7402 -1.15804 3.8878 134 173 157
-0.86795 -1.04143 3.49799 36 71 44
1.5856 -1.00205 3.37137 138 145 160
-0.9025 -1.0305 3.5103 110 157 125
-0.919908 -1.0334 3.53398 28 57 24
1.60563 -0.980079 3.36091 113 127 133
-1.09986 -1.04027 3.59394 52 74 50
1.29881 -0.989137 3.39541 221 238 235
-0.206221 -1.04802 3.63037 59 70 67
1.71937 -0.965868 3.34928 199 166 146
-0.26554 -1.04234 3.63765 156 224 207
-1.15107 -1.02384 3.59488 127 206 165
1.99294 -0.936927 3.30175 225 239 237
-1.81314 -1.10132 3.91058 79 112 97
2.02762 -0.934889 3.30362 156 160 171
-0.17013 -1.02169 3.63418 58 68 55
1.78754 -0.935202 3.33294 162 173 177
1.30155 -0.949064 3.41171 101 121 116
-1.76498 -1.08049 3.88942 70 80 63
1.30123 -0.93149 3.41213 164 200 200
-1.85646 -1.07033 3.93287 144 212 189
0.0172277 -0.989865 3.63954 67 77 64
1.7212 -0.912533 3.34881 190 180 196
1.8173 -0.905794 3.33938 204 210 215
-0.214197 -0.984286 3.6322 120 189 162
-0.0157115 -0.970731 3.60262 182 229 221
-1.0407 -0.965335 3.60279 76 135 104
1.40463 -0.915164 3.40925 78 139 119
1.86147 -0.892788 3.32601 241 250 253
1.10555 -0.919321 3.43674 127 124 126
1.26107 -0.91046 3.41453 245 254 251
1.27913 -0.905652 3.41509 115 128 136
1.7745 -0.880726 3.33186 102 63 88
-0.10174 -0.957353 3.64294 119 157 139
-0.0141151 -0.960198 3.64484 162 197 193
1.31981 -0.90153 3.41857 67 108 100
1.34827 -0.899733 3.42471 166 212 200
2.04708 -0.870735 3.30334 166 219 206
-1.02293 -0.940708 3.59705 48 64 33
-0.0555203 -0.955451 3.64075 65 77 65
1.22505 -0.893445 3.424 255 255 255
2.04795 -0.860049 3.29527 139 158 155
-1.35917 -1.00173 3.85161 131 115 92
1.29832 -0.889658 3.44048 132 139 154
1.34293 -0.888044 3.42002 96 102 109
-0.713315 -0.926377 3.6059 126 238 198
1.48393 -0.866893 3.36643 198 220 215
1.01083 -0.881668 3.44455 77 99 105
1.04934 -0.884834 3.45567 116 116 132
1.59396 -0.859933 3.37228 140 129 132
-0.400044 -0.917641 3.61679 141 207 182
1.48615 -0.863577 3.40069 92 107 110
1.27595 -0.863667 3.43694 129 128 138
1.99026 -0.831402 3.32081 133 164 161
2.03415 -0.823265 3.30027 189 166 180
1.68751 -0.832259 3.34423 155 141 153
-0.14227 -0.902144 3.65902 67 81 70
-0.0618624 -0.892907 3.65056 146 181 171
1.05608 -0.841625 3.46511 121 130 139
1.29754 -0.834868 3.42963 141 196 179
1.64759 -0.814915 3.37564 189 166 180
1.77469 -0.810675 3.34191 237 242 240
1.21292 -0.823055 3.42538 179 198 203
1.11958 -0.821588 3.4405 222 230 230
-0.700824 -0.865142 3.63522 49 84 50
1.58184 -0.805224 3.38337 255 255 255
1.65686 -0.799121 3.36795 255 255 255
-0.805631 -0.850731 3.60871 146 226 195
-0.677214 -0.855517 3.63278 51 76 56
1.45325 -0.804792 3.40499 225 255 255
1.54478 -0.800823 3.38565 94 99 108
1.37399 -0.799103 3.42892 225 242 229
1.31092 -0.794727 3.42525 90 111 109
1.44609 -0.792271 3.41571 61 68 71
0.0374327 -0.839983 3.63902 144 195 187
1.3308 -0.790627 3.43232 255 255 255
1.46946 -0.786103 3.40871 156 168 170
1.57695 -0.781737 3.38875 122 110 122
-2.45107 -0.921136 4.01102 71 95 87
-0.0531285 -0.832362 3.66831 118 166 142
-1.31523 -0.873097 3.8562 77 110 95
1.59025 -0.769954 3.39018 254 255 253
1.30691 -0.778018 3.43179 149 215 203
-1.82833 -0.88158 3.92967 170 216 203
-0.625127 -0.81562 3.65975 91 129 117
1.31839 -0.771695 3.43396 123 167 154
-0.709993 -0.810409 3.64005 139 229 186
1.7949 -0.749144 3.36179 166 156 169
-1.4023 -0.858777 3.87655 154 216 194
-0.65429 -0.805589 3.64848 67 103 91
-0.197466 -0.815379 3.67254 129 177 153
1.49187 -0.754442 3.42041 85 77 94
1.12691 -0.756591 3.46418 205 214 218
1.61331 -0.735251 3.38596 159 158 162
1.4216 -0.738242 3.42006 108 135 125
-0.698155 -0.793709 3.68047 109 179 139
1.3154 -0.741084 3.44142 70 81 73
1.58991 -0.727864 3.40406 140 131 152
1.66974 -0.721041 3.37714 243 251 250
1.68247 -0.721943 3.3796 219 224 227
-0.475073 -0.790979 3.72917 63 118 91
1.16292 -0.733413 3.45454 81 79 85
1.72395 -0.717662 3.37098 132 126 143
-1.65122 -0.824281 3.91126 104 121 107
-1.53851 -0.822588 3.90079 125 193 168
-1.45206 -0.819062 3.90547 105 162 147
1.20216 -0.73085 3.4693 176 218 225
-1.91913 -0.82312 3.95127 92 124 107
0.303694 -0.751928 3.60223 108 170 156
1.09766 -0.721229 3.48102 118 165 169
1.70674 -0.702278 3.38397 85 67 90
-1.34363 -0.804459 3.87893 94 139 122
-1.4156 -0.80274 3.89241 139 217 194
-1.13379 -0.788769 3.84493 96 158 134
-0.362678 -0.763494 3.70567 66 118 81
0.059586 -0.750844 3.65423 73 77 71
0.332611 -0.742838 3.59817 99 158 143
-1.6113 -0.794549 3.90363 147 212 203
1.48055 -0.700531 3.42115 96 87 97
-1.55526 -0.786809 3.88259 120 174 161
-1.25975 -0.782613 3.85503 66 108 97
0.302646 -0.73479 3.61315 108 155 139
1.82554 -0.685549 3.37709 149 168 181
-0.113043 -0.743531 3.67919 183 223 211
1.54896 -0.680106 3.39302 227 234 231
1.69605 -0.682005 3.37104 148 160 172
-1.65498 -0.784636 3.92106 130 205 191
-1.63811 -0.785831 3.91641 105 164 150
0.371235 -0.71537 3.59113 67 101 84
1.80024 -0.672461 3.38064 106 91 119
-0.881981 -0.748017 3.78841 108 157 137
1.0638 -0.686157 3.46894 160 211 183
-1.14779 -0.758817 3.84179 82 133 119
-0.995404 -0.748281 3.81562 106 142 125
1.49398 -0.666171 3.40545 127 114 130
1.72303 -0.663866 3.37118 112 97 124
-1.93586 -0.772916 3.98187 93 136 121
-1.1089 -0.749544 3.84096 126 220 195
-0.752977 -0.73071 3.76449 51 73 68
-1.19308 -0.747859 3.84761 91 137 125
-1.0927 -0.745668 3.83838 65 119 90
-0.120093 -0.708261 3.65625 107 159 141
1.37622 -0.666065 3.44482 86 131 115
0.420892 -0.688415 3.59664 75 120 101
1.38643 -0.655287 3.44442 251 255 255
-2.52139 -0.767757 4.05095 120 166 154
-1.92698 -0.757484 3.99499 158 220 204
0.458162 -0.6795 3.59044 98 140 122
0.816635 -0.659819 3.52098 82 66 59
1.04318 -0.657165 3.47491 49 106 91
1.20026 -0.656417 3.48027 82 122 120
-1.20617 -0.720201 3.85203 88 150 134
0.801981 -0.657934 3.51816 120 111 107
-1.0357 -0.704675 3.82448 169 226 217
-0.722356 -0.692834 3.76389 79 113 102
0.431553 -0.659556 3.58704 115 156 135
1.62997 -0.624745 3.39465 134 129 138
-0.963889 -0.699953 3.81926 95 134 113
-0.870162 -0.692154 3.78322 134 186 162
-0.930796 -0.690273 3.80725 139 200 190
-0.724185 -0.686635 3.77627 109 146 142
-0.196709 -0.664779 3.65643 65 104 88
1.40226 -0.623371 3.43509 166 204 198
-1.06713 -0.69481 3.8262 108 164 141
-0.996928 -0.690399 3.81821 131 191 180
-0.156125 -0.655517 3.65126 141 202 166
-0.196555 -0.657757 3.67943 96 137 116
1.3159 -0.615632 3.45721 107 136 141
-0.861306 -0.671676 3.78072 56 102 79
1.39482 -0.616022 3.45576 240 254 252
-0.763983 -0.664653 3.76969 93 134 127
1.31945 -0.614782 3.46481 105 127 138
-0.962645 -0.669446 3.80849 80 116 99
-0.105009 -0.634952 3.61553 102 131 115
-1.62136 -0.681678 3.91697 80 136 117
-0.509284 -0.653455 3.74889 99 148 126
1.48424 -0.600676 3.43835 96 114 113
1.61788 -0.588651 3.39437 136 126 138
1.25437 -0.600852 3.46895 180 224 217
1.70668 -0.580637 3.38501 183 173 185
0.736232 -0.602408 3.54987 39 92 79
1.33516 -0.584926 3.44597 239 248 245
1.82503 -0.560074 3.39378 122 101 140
-0.911469 -0.626509 3.80786 159 226 217
1.33835 -0.560673 3.47971 86 89 80
0.669587 -0.5606 3.5581 168 227 219
1.83915 -0.532104 3.3633 171 222 194
-0.374675 -0.58236 3.74248 55 113 95
-0.350528 -0.58382 3.73235 63 102 76
1.54568 -0.530686 3.44183 128 125 147
1.30477 -0.528069 3.48152 123 148 152
1.31794 -0.532483 3.47389 244 254 248
1.48896 -0.526764 3.45457 222 243 245
1.42964 -0.507497 3.43739 176 209 212
1.84973 -0.507774 3.39819 249 255 250
2.09494 -0.491526 3.35202 108 150 133
-0.471692 -0.549787 3.74743 94 104 104
-0.283805 -0.5419 3.72074 75 107 96
1.59707 -0.498255 3.43631 184 203 210
-0.671921 -0.537118 3.76344 152 230 189
0.326857 -0.518429 3.62842 69 96 80
1.58192 -0.489999 3.42943 118 118 142
1.60865 -0.489566 3.429 128 125 147
2.10539 -0.478133 3.38055 67 107 95
-0.138047 -0.513677 3.66913 143 207 177
0.219201 -0.510266 3.64905 143 185 174
1.26477 -0.483949 3.49822 102 149 127
1.52619 -0.480477 3.44009 125 132 149
1.76121 -0.476011 3.39503 253 255 255
1.73274 -0.464409 3.38986 148 157 161
2.12666 -0.464075 3.36346 106 145 119
-0.438833 -0.50336 3.71139 52 123 107
1.75974 -0.461337 3.38857 125 114 134
1.95331 -0.457453 3.39054 253 255 255
0.827537 -0.471853 3.54617 125 149 139
-0.84014 -0.502772 3.80696 86 148 132
1.12108 -0.462886 3.50219 49 78 62
-0.286766 -0.48503 3.73413 154 206 199
1.93008 -0.441575 3.39876 192 215 211
0.924848 -0.455609 3.53647 131 197 178
-0.212299 -0.475146 3.72864 74 105 102
-0.000663479 -0.470638 3.68241 108 153 144
1.11966 -0.446716 3.50113 110 189 156
1.34862 -0.444734 3.49279 248 249 247
1.76461 -0.428528 3.38084 165 164 160
0.859786 -0.4518 3.55035 94 127 112
1.75682 -0.431882 3.40945 132 134 144
1.88205 -0.429001 3.39925 156 139 148
0.352033 -0.44985 3.6281 175 214 206
1.09633 -0.440199 3.50587 71 84 76
1.34499 -0.436978 3.48203 128 151 143
1.94976 -0.421735 3.40695 168 181 203
-0.542847 -0.463366 3.74367 91 146 137
-0.100645 -0.462378 3.73127 103 148 145
1.56308 -0.425358 3.42513 101 106 115
0.899805 -0.430555 3.55552 147 220 198
0.923313 -0.43441 3.53575 166 221 206
1.11307 -0.422957 3.52361 239 250 247
0.140041 -0.433173 3.66785 68 84 77
0.950154 -0.415317 3.54339 177 219 208
1.3157 -0.414105 3.49222 250 252 253
1.51014 -0.411243 3.46272 99 102 107
0.339166 -0.424762 3.61567 136 171 161
1.87414 -0.396427 3.38953 148 126 144
-2.12792 -0.463822 4.01281 102 148 136
-0.61215 -0.436058 3.76066 78 122 109
-0.362767 -0.429161 3.70878 193 249 238
0.355704 -0.416793 3.61553 164 221 200
0.417537 -0.421566 3.6237 143 219 178
0.155416 -0.419459 3.66475 146 207 193
1.95173 -0.389985 3.40938 150 158 158
-0.703835 -0.435009 3.80172 58 123 102
0.749651 -0.406891 3.56825 81 102 87
-0.0205707 -0.413882 3.69744 94 132 134
0.40964 -0.405924 3.63641 87 140 130
1.17107 -0.395495 3.5045 130 129 133
1.174 -0.394393 3.51087 116 117 121
1.30211 -0.389003 3.47648 127 162 165
0.0531493 -0.405963 3.67681 144 192 180
1.57608 -0.378037 3.42438 108 122 140
1.88903 -0.375655 3.40891 129 102 122
1.17571 -0.381377 3.53177 135 166 175
1.93912 -0.366734 3.38919 255 255 255
0.986271 -0.374672 3.52533 63 86 71
1.35759 -0.374128 3.49692 251 253 253
1.58974 -0.364844 3.3988 137 150 166
-0.574785 -0.387447 3.7416 156 205 197
1.08954 -0.365907 3.52318 91 142 128
-0.426177 -0.380036 3.73159 162 223 213
-0.356504 -0.380054 3.71196 103 158 139
-0.53161 -0.38032 3.75434 86 144 139
-0.556968 -0.373608 3.77002 127 178 158
-0.433244 -0.367721 3.73061 28 67 65
-0.165115 -0.364749 3.71571 89 102 110
-0.621064 -0.363058 3.80842 95 166 150
1.47654 -0.33475 3.48269 70 105 95
-0.367381 -0.35304 3.73246 74 109 95
1.86287 -0.319051 3.42048 196 199 204
-0.0345798 -0.336951 3.67459 73 110 100
1.22029 -0.322956 3.5155 121 121 137
1.51364 -0.320855 3.48821 93 130 120
-0.539499 -0.340865 3.76509 147 204 189
1.5296 -0.314802 3.49274 129 173 166
0.199711 -0.327845 3.66396 57 77 78
0.556259 -0.312195 3.59643 95 118 114
1.87287 -0.301992 3.42305 135 111 123
0.12009 -0.322829 3.69299 80 84 78
0.615821 -0.305665 3.6094 84 110 104
1.11147 -0.300219 3.53498 135 171 179
1.52859 -0.286448 3.48088 186 223 221
1.90325 -0.279669 3.4197 157 171 169
1.95058 -0.279646 3.39019 132 122 138
0.595259 -0.293933 3.61715 71 94 86
0.681559 -0.291631 3.60635 61 128 119
-0.42157 -0.291526 3.73811 145 225 190
-0.0808341 -0.293638 3.71656 143 212 167
-0.556616 -0.295004 3.80669 165 220 217
0.496184 -0.276744 3.63192 119 134 137
1.2153 -0.265403 3.48809 177 196 203
-0.176644 -0.278796 3.72661 81 86 87
1.63843 -0.252613 3.43744 98 112 124
1.2509 -0.246543 3.48156 195 212 215
2.02557 -0.242356 3.41404 255 254 255
-0.434066 -0.25785 3.78592 83 109 109
-0.469519 -0.247171 3.7969 92 123 114
0.471261 -0.238486 3.64209 100 173 151
-0.447636 -0.245824 3.79055 167 215 221
-0.0915409 -0.234888 3.72341 83 105 103
0.575812 -0.233434 3.63352 82 120 108
1.63186 -0.217681 3.46744 180 190 200
0.778958 -0.21783 3.59085 64 88 80
1.55987 -0.209579 3.48762 190 224 224
-0.524033 -0.21796 3.81245 165 215 203
1.48106 -0.198713 3.51188 89 144 135
1.49615 -0.195805 3.50559 255 255 255
-0.772356 -0.212252 3.82579 95 157 139
-0.350589 -0.204836 3.77384 186 231 228
1.56975 -0.191126 3.49793 71 119 95
0.185942 -0.200425 3.67931 247 255 254
0.758077 -0.195968 3.5905 250 255 255
1.75618 -0.184431 3.44406 171 174 188
-0.352247 -0.200174 3.79596 170 220 220
0.693464 -0.188207 3.62223 94 143 127
1.40856 -0.161271 3.5033 133 141 164
1.6814 -0.1547 3.49387 229 255 253
1.37907 -0.152169 3.49621 129 137 154
1.90851 -0.14902 3.45396 112 125 133
1.76269 -0.132905 3.47508 95 113 106
1.90918 -0.135035 3.45549 118 125 134
0.614662 -0.131004 3.60985 91 103 127
1.44376 -0.130069 3.5132 127 134 151
0.203617 -0.125995 3.67784 75 118 103
0.284986 -0.132914 3.70092 206 232 249
1.48515 -0.123251 3.51515 208 226 225
1.82002 -0.119134 3.47164 105 113 112
1.48971 -0.112375 3.50379 92 121 118
-0.755146 -0.120395 3.835 72 111 103
-0.127591 -0.115483 3.77782 111 145 151
1.65406 -0.100519 3.49529 95 106 138
1.79866 -0.0997322 3.48243 251 255 255
-0.288434 -0.103305 3.78915 75 121 109
0.388082 -0.0945273 3.67505 204 224 241
0.709243 -0.0928121 3.62691 95 113 120
-0.212964 -0.092777 3.78092 79 134 125
-0.0411816 -0.0900459 3.76266 105 117 123
2.02993 -0.0794537 3.44025 107 147 146
0.99037 -0.0713402 3.42134 122 173 153
0.0349227 -0.0707458 3.72226 204 222 245
0.0149082 -0.0596111 3.72781 59 59 65
0.0563412 -0.058854 3.71772 195 217 253
0.594952 -0.0470911 3.66193 135 149 171
1.72922 -0.0502507 3.4975 81 82 108
1.50231 -0.0412547 3.52979 87 146 126
1.82224 -0.0388061 3.48865 101 107 126
1.74464 -0.0174008 3.50383 190 223 243
1.78796 -0.021638 3.47589 97 124 161
-0.692335 -0.0197538 3.85742 90 128 116
-0.908551 -0.0138597 3.88418 164 208 207
-0.107335 -0.00848153 3.78072 102 145 134
0.871189 -0.0153746 3.56527 75 74 76
2.00773 -0.00342931 3.47273 130 157 154
0.950701 0.000124173 3.44112 144 186 155
1.56859 -0.00407638 3.52609 51 75 73
1.76422 0.00683024 3.50094 64 80 103
1.68731 0.00938356 3.51133 89 90 124
1.99338 0.0113811 3.46761 232 253 250
1.56528 0.0141363 3.52681 187 235 223
0.13524 0.0298752 3.72733 115 136 168
0.566711 0.0261692 3.67213 186 229 226
1.45618 0.0285062 3.5202 85 124 109
0.383743 0.0313267 3.69774 92 104 114
1.65296 0.0299287 3.49992 56 69 101
0.376568 0.0449256 3.711 176 199 214
-1.89648 0.0598061 4.03412 106 123 119
0.166279 0.0604371 3.72998 186 202 208
1.8281 0.0553814 3.50498 99 119 136
0.183868 0.066894 3.7291 56 59 63
0.80076 0.0605567 3.62634 104 110 123
1.75583 0.0622142 3.51355 111 132 159
-1.21186 0.0826447 3.96757 138 181 170
0.652508 0.0840428 3.65482 250 255 255
-0.88293 0.088517 3.88661 75 111 95
0.0287734 0.0872741 3.7806 92 139 136
0.175849 0.0881874 3.76084 68 86 87
0.494368 0.0875771 3.7161 112 159 150
0.804754 0.0811221 3.64256 198 227 234
0.654012 0.0867044 3.6638 254 252 252
0.722883 0.0884926 3.65691 100 107 122
-0.0399539 0.0922991 3.7861 111 155 162
0.514981 0.0946053 3.70188 88 142 125
1.69859 0.0936709 3.51804 162 193 216
0.817565 0.095494 3.61454 184 213 218
0.744186 0.105407 3.64631 81 90 110
0.701487 0.104005 3.67719 186 204 211
1.15983 0.103198 3.39357 37 83 54
1.65043 0.10344 3.52769 217 234 237
1.07671 0.104497 3.39105 81 123 100
1.7108 0.109775 3.50584 46 50 68
0.818406 0.116267 3.63136 52 45 50
1.11674 0.113282 3.40575 50 97 65
1.70017 0.120266 3.52381 101 105 134
1.75613 0.125372 3.51755 107 128 160
0.681549 0.137941 3.66394 197 216 221
0.71269 0.139008 3.67098 116 120 131
0.813516 0.145459 3.65241 111 103 113
1.17203 0.137117 3.37543 54 103 65
0.773651 0.152383 3.65562 177 212 222
1.76742 0.146032 3.51825 81 80 114
1.98316 0.143574 3.49026 62 73 87
1.99498 0.143743 3.48274 112 115 143
1.19998 0.143433 3.37344 65 125 115
0.696767 0.166542 3.69586 112 163 155
1.95949 0.160859 3.50737 100 116 128
0.764142 0.167281 3.66595 142 159 168
0.541725 0.181599 3.70678 122 152 157
1.10429 0.174072 3.41532 54 77 55
1.68875 0.178839 3.53336 108 126 155
1.59195 0.184526 3.55551 168 210 217
1.749 0.184813 3.5321 255 255 254
1.78079 0.187001 3.52767 121 135 153
2.00675 0.185893 3.47985 119 130 150
0.119745 0.206478 3.7785 255 255 255
1.59951 0.199629 3.5646 145 188 177
0.7511 0.21587 3.67089 68 76 69
0.244084 0.226471 3.75649 64 80 92
0.092519 0.229527 3.76716 255 254 253
1.61022 0.221491 3.56442 136 190 173
0.73731 0.230789 3.69171 159 223 211
1.5885 0.224092 3.56675 89 119 106
1.96654 0.215182 3.51051 120 148 159
1.80977 0.229634 3.54955 86 115 106
0.464221 0.242712 3.70634 208 237 244
1.55216 0.237203 3.57394 92 121 118
2.01246 0.233126 3.48786 94 88 111
1.11488 0.236161 3.46149 52 58 33
0.127342 0.267085 3.78007 72 85 107
1.67957 0.256261 3.55907 195 232 236
0.0191963 0.278705 3.78502 100 163 153
1.74119 0.260005 3.53693 95 123 110
1.97199 0.257948 3.52139 96 151 142
1.73781 0.264084 3.5522 146 207 187
0.112764 0.286508 3.79806 116 135 138
0.201974 0.282921 3.75881 96 131 145
1.73359 0.276098 3.55193 91 117 111
0.509786 0.296128 3.73289 119 131 141
0.606812 0.30074 3.70432 93 96 104
1.45926 0.295582 3.58784 180 235 216
0.245499 0.328713 3.78012 127 144 157
0.603141 0.322249 3.71061 179 201 207
-0.685348 0.346449 3.91632 253 255 254
0.476708 0.328784 3.74439 77 112 116
0.587203 0.332099 3.7202 69 99 94
0.736876 0.33465 3.70822 72 91 104
1.42007 0.336794 3.59371 106 167 153
0.624446 0.356756 3.72279 179 213 219
0.740884 0.352903 3.70545 111 150 172
0.839307 0.352342 3.69926 68 80 60
0.645752 0.361419 3.7313 100 118 135
0.768659 0.373057 3.72631 120 160 159
0.838037 0.369435 3.70098 123 183 175
0.859921 0.374756 3.70566 76 100 92
0.875216 0.379801 3.6964 121 177 172
0.118815 0.394646 3.81011 98 136 124
1.19486 0.382051 3.6097 120 182 166
0.892625 0.40894 3.71943 106 150 149
1.71872 0.38902 3.58699 81 97 90
0.995216 0.411912 3.68903 208 167 128
0.955843 0.416743 3.69558 161 211 201
1.06173 0.417848 3.68639 91 151 141
0.980054 0.436286 3.70025 199 242 245
1.10563 0.443064 3.68214 94 132 136
0.696629 0.459149 3.72921 198 215 224
1.47227 0.455983 3.61409 69 138 125
0.840042 0.478696 3.72731 218 246 253
1.28854 0.471245 3.65821 120 174 161
1.4663 0.476894 3.655 92 118 118
0.441825 0.499783 3.7943 84 124 112
1.22328 0.488088 3.66289 99 152 139
0.636417 0.499451 3.73706 135 151 167
0.978961 0.496373 3.70409 105 173 166
1.08789 0.517719 3.69741 104 158 145
0.611917 0.546248 3.75889 100 115 118
1.18626 0.531213 3.67846 78 123 104
0.812867 0.542369 3.72073 64 86 91
0.804074 0.561537 3.75284 143 205 193
0.816615 0.55092 3.74137 76 108 107
1.18493 0.548133 3.68838 149 205 192
1.39469 0.5541 3.67247 115 172 164
1.18569 0.570707 3.69021 90 146 133
1.95547 0.575582 3.59431 94 143 153
1.46835 0.607147 3.66955 204 239 235
2.05148 0.59449 3.57978 114 167 157
2.13544 0.620929 3.5778 82 115 111
1.55289 0.65143 3.66926 94 156 150
2.25472 0.661195 3.56811 82 109 100
0.42701 0.724038 3.83333 73 138 123
-0.737131 0.773693 3.99542 86 145 131
1.64025 0.719685 3.65586 119 145 139
1.53875 0.725516 3.67725 91 131 120
1.71231 0.726602 3.66038 118 171 162
1.12577 0.746563 3.72315 92 135 126
1.62337 0.739302 3.66416 83 119 113
1.83881 0.74334 3.6402 80 126 114
1.95337 0.743776 3.62604 73 116 107
1.33317 0.761114 3.71899 110 163 154
1.61787 0.78521 3.66569 89 130 125
2.08482 0.773418 3.62307 104 143 135
1.91648 0.787601 3.64154 75 109 99
1.73729 0.796069 3.67125 84 131 128
2.14008 0.810609 3.61453 125 167 160
-1.22401 1.00605 4.10247 113 152 136
1.56688 0.944906 3.72022 55 83 64
1.63831 0.998118 3.71654 148 201 187
1.63692 1.01384 3.72107 79 117 105
1.69488 1.03674 3.73272 193 240 232
1.60605 1.04336 3.7319 93 120 111
1.69196 1.05591 3.72278 94 134 123
0.235639 1.13735 3.89571 74 106 95
1.68492 1.09741 3.72388 94 114 101
-0.470893 1.19879 4.02859 97 144 136
0.258322 -1.28489 3.51338 132 164 145
0.228278 -1.2948 3.55448 146 205 185
-0.434151 -1.29835 3.58748 79 132 123
0.274026 -1.28446 3.5481 67 66 56
1.76823 -1.19752 3.30734 255 255 255
1.42151 -1.21112 3.35728 251 253 253
1.5643 -1.20496 3.3473 228 239 236
1.74835 -1.18592 3.30834 178 201 197
-1.09164 -1.21288 3.43853 28 34 23
1.7867 -1.16405 3.26268 165 178 164
-1.62372 -1.35789 3.85133 99 128 102
-1.61313 -1.34875 3.84538 58 73 52
0.164831 -1.25797 3.58203 55 81 67
-1.09955 -1.19631 3.42643 161 210 188
-0.131445 -1.25611 3.59831 84 99 101
0.178962 -1.24636 3.5742 147 206 185
1.76758 -1.14662 3.30472 245 245 245
-1.03143 -1.21183 3.47463 89 148 110
1.69202 -1.14469 3.30702 145 136 149
-0.288656 -1.22335 3.54228 77 125 101
0.134926 -1.22794 3.60005 76 94 81
1.31314 -1.14469 3.36583 103 149 136
0.22264 -1.21332 3.56559 165 200 203
1.66005 -1.11225 3.33806 78 89 73
-1.70571 -1.28507 3.87526 140 203 183
-1.00522 -1.16614 3.50431 36 59 37
0.0487404 -1.19208 3.60576 96 120 108
1.43503 -1.11511 3.35669 255 255 255
1.63652 -1.10222 3.338 88 114 96
1.72598 -1.09841 3.33863 206 212 217
1.76032 -1.0969 3.32324 166 173 176
-0.952624 -1.14882 3.47918 116 182 157
-0.927083 -1.14293 3.47886 45 71 53
-0.796147 -1.13526 3.45208 43 90 58
-1.71962 -1.24932 3.86804 72 83 63
-1.74884 -1.25275 3.87078 160 212 195
-1.69731 -1.2512 3.87331 137 161 143
1.80428 -1.07182 3.31969 109 126 123
-0.828874 -1.1166 3.48462 55 79 55
-0.804011 -1.11897 3.4902 58 76 45
1.62786 -1.07355 3.34748 228 240 234
-2.1863 -1.25046 3.95311 86 157 141
1.70176 -1.05563 3.32317 162 158 163
-1.75983 -1.21784 3.88452 64 119 94
1.38641 -1.06762 3.38492 83 152 132
-1.72069 -1.21131 3.87148 109 142 121
-1.76531 -1.21881 3.9018 87 139 116
-0.783591 -1.08861 3.51814 41 57 40
1.6009 -1.0319 3.33831 161 196 186
-0.82863 -1.07694 3.50976 47 80 59
1.69546 -1.02165 3.3361 137 134 143
-0.801205 -1.06835 3.50285 84 173 123
1.61751 -1.02652 3.36251 158 172 170
-0.716238 -1.05998 3.48615 62 95 61
1.42291 -1.02466 3.38065 68 138 115
1.75998 -0.994797 3.32555 135 112 117
-0.970033 -1.04191 3.50777 130 215 170
-0.0674485 -1.0631 3.57681 112 154 137
-0.808974 -1.03483 3.52891 143 220 176
1.60421 -0.991438 3.36113 135 172 168
1.68756 -0.985465 3.34721 147 150 158
-0.859889 -1.0239 3.49688 130 215 177
-0.282329 -1.06422 3.6347 129 192 172
-0.167406 -1.04244 3.57814 176 217 202
-0.866632 -1.02414 3.5312 141 230 191
1.67529 -0.962336 3.34602 248 248 248
-2.42013 -1.12207 3.9912 97 126 123
-0.790158 -0.999639 3.54908 49 69 40
1.34375 -0.957445 3.40438 225 245 240
-1.11838 -1.00686 3.60113 135 205 164
1.42361 -0.951128 3.40102 162 203 188
-1.88041 -1.08604 3.93817 102 139 119
-1.75218 -1.06108 3.88908 121 175 158
1.76159 -0.912201 3.33729 158 150 160
-0.965446 -0.975695 3.58973 37 53 36
-0.940081 -0.958391 3.55433 89 134 108
-0.666246 -0.968753 3.57468 123 228 183
-0.466902 -0.997162 3.67248 45 69 57
1.25765 -0.924812 3.40685 182 200 201
-1.77925 -1.04563 3.91096 153 235 217
-0.832409 -0.951568 3.54574 53 98 72
1.10445 -0.919519 3.4279 136 138 139
1.22826 -0.91542 3.4204 106 118 122
1.6795 -0.893039 3.35177 139 131 138
-1.04441 -0.945228 3.6016 82 123 102
-1.02148 -0.940716 3.59672 54 68 40
-0.995416 -0.938045 3.58976 131 207 175
1.82099 -0.873494 3.34793 157 178 193
-1.92714 -1.0271 3.95059 100 124 112
-0.138582 -0.943957 3.63532 122 195 145
1.0694 -0.890585 3.45739 99 81 94
1.07983 -0.891629 3.42716 133 143 150
1.28922 -0.892709 3.4269 189 192 197
1.40089 -0.877934 3.40738 159 212 202
1.67564 -0.866605 3.34295 167 162 171
1.25061 -0.879105 3.41278 184 199 201
1.80633 -0.854262 3.3441 157 180 172
1.56931 -0.861506 3.37012 102 97 98
1.7085 -0.846418 3.33905 171 168 177
2.03445 -0.833203 3.30096 213 202 204
-0.241425 -0.914111 3.66031 148 212 176
-0.636841 -0.888399 3.60432 89 140 106
0.848874 -0.854373 3.4587 49 56 53
1.8289 -0.828493 3.34528 172 187 196
-0.251324 -0.898405 3.65333 78 102 94
1.45209 -0.836675 3.40551 49 87 75
1.61303 -0.830528 3.37936 135 128 133
-1.90316 -0.94707 3.93947 73 110 90
-0.355792 -0.882529 3.64332 162 210 204
-0.188407 -0.882039 3.65738 130 171 164
1.27732 -0.824918 3.4229 107 114 111
1.48717 -0.821199 3.40253 70 116 110
1.78891 -0.806251 3.34636 187 180 187
1.21078 -0.817608 3.4181 178 195 198
1.2712 -0.817304 3.43035 91 94 99
