ply
format ascii 1.0
element vertex 1268
property float x
property float y
property float z
property uchar blue
property uchar green
property uchar red
end_header
1.63684 -0.270948 3.02374 153 219 194
-0.919836 -0.303904 3.3999 75 137 125
0.0107656 -0.290322 3.26114 85 145 135
0.120781 -0.287425 3.24512 87 161 149
0.01973 -0.287273 3.25869 61 126 111
0.873653 -0.277813 3.13941 29 73 56
0.959179 -0.275846 3.13914 178 238 228
0.0185176 -0.283498 3.25977 90 145 136
0.0957979 -0.282024 3.2481 77 133 114
0.095177 -0.281695 3.24944 100 162 144
0.0350344 -0.273615 3.25693 178 242 230
0.314248 -0.269055 3.21568 81 155 137
-1.62062 -0.294079 3.50265 154 199 166
0.392947 -0.265179 3.20417 156 217 203
-1.6217 -0.288086 3.50264 168 224 195
-0.210211 -0.264874 3.30167 77 140 131
-0.164469 -0.264822 3.29267 81 158 151
0.0171473 -0.260947 3.25854 71 137 126
0.942948 -0.251029 3.13456 85 152 161
-1.76123 -0.281686 3.52642 96 149 129
0.838065 -0.249161 3.14331 171 231 220
0.11144 -0.256285 3.24507 88 161 139
-0.111214 -0.257532 3.28557 72 142 135
0.0548779 -0.2538 3.25329 67 126 111
0.273102 -0.246956 3.22085 95 154 139
0.105707 -0.244532 3.24512 54 125 108
-0.12797 -0.244973 3.28645 173 240 231
-0.110069 -0.243695 3.28382 160 244 220
0.35695 -0.237308 3.20683 147 219 196
1.08883 -0.226896 3.10339 106 167 153
-0.145257 -0.238496 3.28913 160 222 204
0.222465 -0.232698 3.22728 73 147 123
-0.0215656 -0.235021 3.26313 75 147 134
-1.10157 -0.246467 3.43227 161 235 217
-1.50209 -0.248906 3.50279 117 172 157
-1.20715 -0.245458 3.45515 109 153 147
0.102152 -0.230056 3.24612 147 207 189
0.359538 -0.225225 3.20756 78 146 129
0.618556 -0.222007 3.17181 173 236 226
-0.0279121 -0.224316 3.26644 176 238 222
0.996479 -0.213735 3.12156 94 139 130
-0.146265 -0.223032 3.29067 157 231 213
1.42955 -0.204349 3.04523 173 238 216
0.0543861 -0.216739 3.25921 139 210 207
-0.0446857 -0.215068 3.27157 64 129 113
-1.89948 -0.236069 3.56471 175 231 220
-1.75764 -0.232849 3.53272 84 154 114
-1.59328 -0.230605 3.51405 95 129 122
-1.5739 -0.229393 3.50493 50 90 72
0.108162 -0.207746 3.24511 69 138 117
-1.65532 -0.225336 3.51554 80 115 89
-1.66754 -0.22545 3.52064 73 127 110
0.0682713 -0.206852 3.25118 64 136 116
0.195217 -0.205729 3.2309 162 228 209
-0.0877307 -0.206033 3.28128 86 158 136
0.176261 -0.203016 3.23432 180 235 218
0.0577137 -0.202555 3.25382 59 140 121
0.246842 -0.201376 3.22593 92 164 152
-1.40304 -0.216418 3.49097 110 166 155
-1.69826 -0.21966 3.53043 82 122 120
0.207469 -0.199688 3.22976 166 228 214
1.11823 -0.190038 3.0968 74 141 126
-0.0462742 -0.197431 3.27149 73 126 112
0.469444 -0.191778 3.19679 181 233 233
-1.70701 -0.211698 3.53339 63 120 95
-1.3723 -0.208882 3.48571 170 235 220
-1.56437 -0.209524 3.51379 144 183 162
-0.0629533 -0.194596 3.2757 74 139 124
-0.159968 -0.193691 3.29879 97 166 163
0.0901415 -0.188976 3.24912 76 141 126
-1.82158 -0.207929 3.5564 176 232 209
-0.831832 -0.197813 3.40215 192 240 234
-1.34088 -0.200151 3.47863 91 144 130
1.26363 -0.17556 3.07546 124 203 176
-0.0631306 -0.183932 3.27206 167 234 205
-0.0595018 -0.184956 3.27819 72 137 111
-0.0549267 -0.184501 3.27089 138 219 186
-1.17828 -0.189204 3.45731 100 151 147
-1.1794 -0.188447 3.46056 108 158 156
-1.54229 -0.187039 3.51524 92 149 134
-1.0873 -0.183856 3.44575 96 173 159
1.14815 -0.163781 3.08893 67 121 132
-1.542 -0.186717 3.51685 101 152 144
0.753772 -0.166309 3.15358 169 231 213
0.160077 -0.165807 3.23328 60 122 108
-1.43222 -0.178976 3.49515 58 107 79
-1.0921 -0.175511 3.44525 84 143 129
0.132942 -0.163583 3.23909 66 143 122
0.291192 -0.161279 3.22103 78 137 122
0.610805 -0.158239 3.17397 108 168 157
0.206047 -0.159913 3.22992 71 134 118
-1.9151 -0.176483 3.57599 141 203 185
0.159602 -0.158797 3.23718 172 230 219
0.880771 -0.153333 3.13558 157 218 204
-1.6627 -0.173529 3.53062 161 223 187
-0.832808 -0.166179 3.4071 188 242 229
-0.0721295 -0.159472 3.28323 61 122 118
0.308336 -0.156628 3.21624 69 131 119
-1.46196 -0.168872 3.50997 99 156 141
-1.43702 -0.168427 3.5058 177 230 220
-1.80174 -0.166604 3.55637 149 210 172
0.189346 -0.149127 3.22973 71 128 103
0.142552 -0.146477 3.24107 77 141 135
0.174257 -0.146189 3.23395 105 152 126
0.691835 -0.142835 3.16171 163 235 212
-0.0692977 -0.144926 3.28224 81 136 121
-1.35119 -0.154573 3.48761 102 158 137
0.103248 -0.140286 3.2485 175 237 219
-0.297208 -0.14205 3.32513 107 171 172
-1.67602 -0.150692 3.53659 71 122 94
0.137815 -0.135559 3.23996 106 165 151
0.038953 -0.134594 3.25742 85 149 130
-0.116103 -0.134483 3.29684 80 157 149
0.0239688 -0.13087 3.25985 56 116 92
0.0312246 -0.128676 3.25996 77 142 126
-0.022627 -0.129144 3.26965 152 208 195
-1.6976 -0.13575 3.54912 115 154 129
0.144673 -0.120999 3.24198 123 177 164
-1.92364 -0.133435 3.5862 158 225 198
-1.47079 -0.1267 3.51255 98 161 129
0.147087 -0.116075 3.24062 62 107 91
0.118335 -0.112886 3.24277 81 133 126
-0.0569539 -0.112886 3.28396 64 134 127
0.150336 -0.111911 3.24274 62 115 106
-1.40667 -0.120016 3.49463 114 186 144
0.338603 -0.109892 3.21804 129 199 182
-1.22761 -0.116166 3.4804 77 135 124
0.152945 -0.107216 3.24018 159 229 206
-1.69913 -0.116903 3.54997 155 196 164
0.412491 -0.104113 3.20493 101 164 154
-1.40409 -0.112669 3.49804 88 169 120
0.00882976 -0.104243 3.27051 169 231 217
-1.63755 -0.112111 3.53816 79 130 103
-1.59809 -0.106014 3.53112 101 148 126
-0.0761429 -0.0981397 3.28992 54 133 130
-1.40586 -0.101249 3.49669 81 123 106
0.283631 -0.0908159 3.2256 63 140 126
0.803784 -0.0885716 3.14574 66 131 115
0.149121 -0.089935 3.24452 55 109 92
-0.306591 -0.086102 3.32965 217 246 255
0.159536 -0.0848204 3.24059 101 149 137
-1.38953 -0.0898108 3.50382 91 146 107
-0.627337 -0.0834565 3.38201 90 158 147
-0.303045 -0.0814244 3.33197 216 247 250
0.080846 -0.0792322 3.25457 87 140 126
-0.0230363 -0.079401 3.28176 175 233 209
0.457327 -0.0766799 3.19848 48 126 119
0.867429 -0.0761833 3.13168 86 157 140
-1.34998 -0.0808783 3.50052 95 150 131
0.8027 -0.0726671 3.14387 165 223 212
-0.620661 -0.0764657 3.38094 80 129 121
-1.39524 -0.0788003 3.50636 79 146 107
0.509871 -0.0713332 3.19086 85 147 133
0.0418033 -0.0698261 3.26127 131 188 167
-1.36711 -0.0752836 3.5053 91 157 128
-0.029242 -0.0680605 3.28304 75 139 134
0.0410717 -0.0669586 3.26052 74 131 110
-1.37576 -0.0719959 3.50713 75 138 112
-0.49737 -0.0651698 3.36335 102 166 160
-0.115498 -0.0623102 3.30006 88 141 161
0.00820777 -0.0610712 3.27461 59 128 115
-1.31942 -0.065744 3.4969 82 156 144
-0.49689 -0.0617959 3.36429 161 227 216
0.0187883 -0.059187 3.27189 80 146 127
-1.37443 -0.0616728 3.5108 163 234 207
0.330256 -0.0545643 3.21937 63 133 110
0.34325 -0.0538636 3.21686 167 235 212
0.0537869 -0.0515815 3.26398 148 195 179
0.0520002 -0.0481724 3.265 59 111 101
0.15123 -0.0464128 3.24578 75 137 121
-1.62729 -0.0494845 3.54605 156 212 193
-1.36445 -0.0490478 3.50755 93 158 143
0.0770001 -0.0442525 3.26149 77 138 118
0.0326884 -0.0434454 3.2714 93 150 141
0.0442783 -0.039874 3.27205 157 211 198
0.363738 -0.0376951 3.20975 64 137 115
0.0802544 -0.0327382 3.26198 152 219 198
0.396586 -0.0321112 3.20482 169 238 217
0.794248 -0.0308425 3.14492 67 118 111
0.124108 -0.0306785 3.25435 78 144 133
-1.1993 -0.0320632 3.48621 107 165 160
0.149725 -0.027579 3.25117 70 135 119
-0.622785 -0.0264263 3.38518 192 248 237
0.018911 -0.0208212 3.2753 76 141 120
0.411191 -0.020228 3.20385 174 246 226
0.0443569 -0.0178236 3.27023 92 141 119
0.16019 -0.0174709 3.24866 61 140 119
0.344659 -0.0129425 3.21559 56 112 93
-1.41076 -0.0111747 3.52084 101 154 144
0.0145595 -0.00673291 3.27583 56 116 105
0.372147 -0.00167909 3.21222 89 157 132
0.047904 -0.00184191 3.2687 166 225 210
0.193846 0.00441909 3.24744 81 153 147
0.450236 0.00298239 3.19602 148 217 197
-1.84553 0.0155513 3.60912 95 157 139
0.494816 0.0188936 3.19377 72 138 126
0.780753 0.0206843 3.14571 90 141 133
0.312879 0.0213155 3.22441 73 142 127
0.338614 0.022603 3.21731 52 112 101
-1.77546 0.0255719 3.59742 106 155 135
-1.68936 0.0261482 3.56858 117 159 142
-1.69243 0.0284891 3.57691 106 148 131
-1.30828 0.0341947 3.51359 100 160 149
0.3049 0.0309729 3.22374 56 123 96
0.391906 0.0318689 3.20663 87 152 136
-1.31045 0.0345437 3.51469 113 163 151
0.293143 0.0333473 3.22936 67 138 122
-1.68938 0.0382927 3.5796 160 191 162
-1.30575 0.037883 3.51318 177 240 224
0.338215 0.0430962 3.21519 71 168 142
-1.69124 0.0481937 3.58156 172 206 189
0.384988 0.0470375 3.20347 44 119 97
0.331386 0.051011 3.21618 154 225 199
0.33202 0.0513622 3.21735 161 234 208
1.28688 0.0484393 3.05531 73 138 122
0.41968 0.0546703 3.20265 60 134 106
0.957591 0.0520086 3.11649 157 225 208
0.30552 0.0565024 3.22537 54 111 86
0.446727 0.0551443 3.2005 44 126 107
-1.91088 0.0651226 3.62975 96 155 135
0.361717 0.0587743 3.21114 69 148 127
0.405012 0.0630955 3.20091 89 160 140
0.40548 0.0638926 3.20334 80 153 131
0.451323 0.066344 3.19704 68 140 120
0.400413 0.0723652 3.2079 61 138 110
0.22447 0.0762472 3.24081 87 162 146
0.456406 0.0792801 3.1969 236 254 247
-0.167384 0.0836918 3.31995 208 234 240
0.216648 0.0811695 3.243 51 130 121
-1.09187 0.0932651 3.48624 122 175 166
0.407692 0.0854965 3.20343 33 120 92
1.25221 0.0806261 3.05763 168 229 209
0.390577 0.0884575 3.20381 168 248 201
0.388021 0.0915834 3.20444 37 95 67
0.395441 0.0933257 3.20384 144 215 188
0.460235 0.0924878 3.19593 73 148 127
0.379281 0.10063 3.21268 162 220 202
0.404682 0.10087 3.2041 59 149 120
0.283575 0.104296 3.23068 227 255 254
0.411999 0.103699 3.20478 54 138 114
0.643455 0.105122 3.16706 144 201 180
0.67244 0.105971 3.16514 174 231 233
-1.45989 0.120067 3.55773 118 149 146
0.478583 0.109207 3.1982 59 134 120
0.642949 0.108005 3.16899 67 113 101
-0.159794 0.116175 3.32192 185 247 233
0.28506 0.120276 3.2327 157 228 211
-1.67025 0.137053 3.59737 98 139 131
0.367217 0.123024 3.21146 158 222 203
-1.67212 0.137706 3.59929 112 155 144
0.718427 0.122209 3.15677 92 149 141
0.435198 0.124829 3.20305 149 241 212
0.342968 0.127601 3.21846 169 235 210
-1.5653 0.142532 3.57069 203 236 221
1.25046 0.131053 3.04578 162 230 195
1.22991 0.134103 3.05646 56 122 93
-0.332224 0.147499 3.35608 93 160 153
0.378783 0.142806 3.21249 56 130 100
0.260721 0.145421 3.23626 55 134 120
0.222018 0.148715 3.24501 129 196 175
1.24857 0.14269 3.05186 150 204 167
0.415846 0.1545 3.20696 84 149 127
1.10779 0.154934 3.08347 175 233 208
-0.239776 0.170136 3.33858 78 149 133
1.23424 0.1556 3.05383 123 180 147
0.262849 0.183365 3.23643 61 122 126
-0.292677 0.199753 3.35093 167 228 218
-1.4483 0.213974 3.57274 202 250 232
-0.328531 0.206138 3.35879 73 131 126
0.715849 0.195976 3.1587 84 144 133
1.18397 0.1906 3.0653 149 212 192
0.172304 0.211076 3.2557 53 120 111
0.700721 0.20779 3.15927 67 136 126
-0.267727 0.225508 3.34952 90 153 144
0.402119 0.219336 3.21533 193 242 234
0.301893 0.222941 3.23348 92 154 160
-1.10089 0.246094 3.50877 160 232 209
0.546785 0.224362 3.18755 76 143 140
0.0690946 0.234608 3.27895 74 138 132
-0.399143 0.24653 3.37295 79 135 136
-0.407456 0.253552 3.3781 166 225 217
-0.327449 0.259448 3.35951 75 144 129
-0.328044 0.263107 3.36089 162 233 213
-0.172457 0.261934 3.33305 85 139 134
-0.197761 0.266331 3.33755 72 114 119
-0.167914 0.286852 3.33044 42 101 87
0.479372 0.29488 3.20305 87 159 167
-0.279664 0.316219 3.35648 66 135 125
0.0221366 0.313394 3.2905 77 156 137
0.103225 0.334109 3.27908 65 138 112
0.118505 0.335548 3.27251 161 237 219
0.116195 0.337748 3.27873 61 137 119
0.199626 0.342996 3.26022 192 245 235
0.217311 0.349636 3.25457 245 251 250
0.134837 0.353301 3.27154 52 120 95
0.231303 0.356642 3.25225 248 255 252
0.147599 0.367678 3.27151 232 255 254
0.134058 0.370164 3.27899 65 141 123
0.111848 0.372612 3.28001 59 137 114
0.156398 0.372334 3.26894 255 255 255
0.141399 0.37509 3.27138 64 130 118
0.661135 0.365232 3.16344 231 251 228
0.0843267 0.379978 3.28547 71 136 114
0.661789 0.365893 3.16502 231 251 228
0.0702329 0.38256 3.28534 73 142 121
0.174445 0.381184 3.26298 74 120 107
0.138532 0.384323 3.27404 92 164 151
0.137111 0.39093 3.27182 172 231 211
0.133354 0.394388 3.27495 62 118 105
0.211154 0.404758 3.25614 174 245 225
0.095511 0.411037 3.2825 85 153 146
-0.266175 0.422882 3.36211 150 227 189
0.130225 0.414004 3.2734 181 241 217
0.179999 0.418796 3.26769 103 158 149
-0.324475 0.44083 3.37993 91 172 153
0.0982396 0.433638 3.28044 88 147 132
0.833008 0.413418 3.12928 204 238 232
0.134515 0.434689 3.27394 61 133 113
-0.292664 0.448432 3.37697 81 151 138
0.133564 0.435124 3.27482 47 122 94
-0.530698 0.461315 3.423 89 158 145
0.156753 0.446006 3.27055 95 160 135
-0.310093 0.469661 3.38021 53 106 93
0.111791 0.458314 3.27997 74 139 118
0.137417 0.460561 3.27732 88 144 125
0.114382 0.463498 3.28133 57 136 109
0.101052 0.466753 3.28082 77 154 133
-1.16986 0.511214 3.56082 102 162 152
-0.718233 0.497605 3.46675 207 255 247
0.1434 0.469596 3.27455 84 145 131
0.131959 0.472265 3.27996 49 113 101
-0.196085 0.486658 3.35347 187 232 213
-0.209293 0.48802 3.35639 167 232 211
0.103699 0.48305 3.28134 83 160 133
0.100389 0.484448 3.28011 160 238 207
-0.242517 0.500082 3.36666 57 127 110
0.149305 0.489188 3.27637 109 160 153
0.205526 0.51007 3.26313 77 141 136
-0.229551 0.529676 3.36651 160 232 209
0.325844 0.512398 3.23895 67 148 133
-0.934295 0.557887 3.51631 108 184 166
-0.203742 0.548895 3.36162 177 248 228
0.276659 0.53598 3.24838 202 241 233
0.599344 0.536192 3.17764 74 134 116
0.633057 0.537944 3.16655 85 152 145
1.17686 0.515017 3.03898 57 115 91
-0.027472 0.565022 3.32085 202 240 240
1.14327 0.52731 3.04706 146 193 177
-1.2928 0.666861 3.61203 121 187 175
0.332785 0.691823 3.24014 164 233 218
-0.0271202 0.713218 3.32811 140 193 183
-0.295086 0.733447 3.39136 205 247 252
-0.0576733 0.744032 3.33309 160 207 204
-0.0953905 0.780891 3.34265 136 185 177
-0.349559 0.807086 3.40501 167 235 212
0.663658 -1.39802 3.14791 143 199 176
-0.387444 -1.41428 3.19416 210 254 247
0.799268 -1.39148 3.14352 69 162 131
0.681407 -1.39009 3.14531 60 119 91
0.761728 -1.39033 3.14475 53 100 62
0.942411 -1.38614 3.14445 128 209 176
0.711556 -1.3836 3.14618 54 99 83
0.846081 -1.37719 3.14496 134 203 166
0.954748 -1.37712 3.14345 66 124 96
-0.692076 -1.40494 3.20803 86 137 129
1.47735 -1.28183 2.92958 172 214 255
0.63094 -1.37117 3.14824 61 127 102
1.48323 -1.27509 2.9266 170 220 255
0.452159 -1.36862 3.15625 94 152 134
1.22261 -1.35297 3.12245 74 144 107
0.395274 -1.36795 3.16341 87 134 125
0.456877 -1.36142 3.15834 80 134 117
1.0171 -1.34744 3.14278 82 146 124
-0.635489 -1.37735 3.20879 91 141 139
0.791702 -1.34475 3.14416 168 231 189
0.905293 -1.33934 3.14082 171 249 202
-0.762041 -1.36895 3.21654 84 155 138
-0.613793 -1.36454 3.21353 85 143 142
0.740367 -1.32927 3.14078 66 114 88
0.833535 -1.33078 3.14414 157 225 190
0.448365 -1.33526 3.15731 45 128 96
1.26711 -1.31673 3.11952 72 142 106
-0.717356 -1.35762 3.21669 80 159 145
0.672568 -1.32652 3.14829 82 156 132
0.732442 -1.32606 3.14696 32 95 75
0.929923 -1.32155 3.14218 66 131 99
0.470653 -1.32661 3.16007 66 132 113
0.830918 -1.32048 3.14334 175 248 192
0.534737 -1.32143 3.15059 150 211 197
-0.637564 -1.3453 3.21493 70 137 140
-0.687469 -1.34348 3.21727 102 160 149
0.191067 -1.32424 3.1749 80 137 129
0.72736 -1.31383 3.15096 141 202 164
1.07142 -1.30635 3.13541 82 145 119
0.440639 -1.31523 3.16081 154 216 192
0.793163 -1.30977 3.14564 137 203 162
0.213806 -1.317 3.1714 84 125 118
0.725241 -1.3099 3.15165 42 100 72
0.848926 -1.30928 3.14804 81 136 109
0.416583 -1.31237 3.16266 99 155 142
0.794475 -1.302 3.143 49 75 51
-0.782348 -1.33265 3.22182 137 205 188
0.612992 -1.30216 3.15194 87 139 121
0.891148 -1.29929 3.14199 81 116 90
0.781766 -1.29929 3.15001 151 223 180
0.209232 -1.30362 3.1729 99 161 145
-0.672972 -1.31976 3.22075 182 234 227
0.870788 -1.28525 3.14814 156 214 179
0.295497 -1.29249 3.16926 81 141 135
0.735578 -1.27952 3.15257 158 235 198
0.866393 -1.27912 3.14756 61 131 101
0.956179 -1.27602 3.13906 77 122 105
0.939448 -1.27523 3.1422 79 141 123
-0.130724 -1.29633 3.19948 71 139 122
0.493356 -1.27279 3.15893 83 144 130
0.864987 -1.26963 3.14858 85 144 113
0.90284 -1.26597 3.1427 65 127 103
-0.12278 -1.28826 3.20096 73 139 120
0.860835 -1.26476 3.14489 72 149 122
0.399799 -1.2715 3.16564 79 131 121
0.544675 -1.26699 3.15863 78 139 129
0.828353 -1.25645 3.14737 75 154 121
0.773406 -1.25524 3.14691 131 201 164
0.803259 -1.24981 3.14489 135 231 184
0.393897 -1.25789 3.16932 88 129 121
0.767656 -1.24467 3.14915 146 232 198
0.481681 -1.24587 3.16195 69 125 104
0.452704 -1.23361 3.1636 90 150 132
0.521896 -1.23438 3.16973 71 134 124
0.784288 -1.22584 3.14821 153 244 205
1.57323 -1.14081 2.93754 109 107 183
0.815972 -1.21199 3.14241 136 225 175
0.421895 -1.21631 3.16831 72 148 124
0.756366 -1.20794 3.15211 69 118 98
0.782937 -1.20661 3.14647 76 134 106
0.899323 -1.20193 3.14244 88 145 130
0.840036 -1.20181 3.14501 70 147 126
0.131593 -1.21034 3.18805 80 148 141
0.660675 -1.19863 3.1599 55 136 111
-0.447243 -1.22139 3.22482 79 138 123
0.47252 -1.19951 3.16841 99 151 133
0.757106 -1.19359 3.15184 78 120 103
1.55399 -1.11021 2.93675 205 232 255
0.738463 -1.18657 3.15298 43 98 79
1.19025 -1.10079 2.96469 175 215 250
-1.89816 -1.2342 3.31665 104 161 160
0.26213 -1.17449 3.17519 186 255 255
0.662122 -1.16773 3.16035 125 208 176
0.740234 -1.1641 3.15105 164 225 199
-0.09737 -1.18631 3.21284 95 149 144
1.33603 -1.07535 2.91949 96 101 194
0.285701 -1.16924 3.17918 243 255 254
0.894954 -1.15516 3.14021 132 164 163
0.931165 -1.15561 3.14075 154 179 181
0.754573 -1.15835 3.1527 104 147 132
0.902873 -1.14814 3.14518 196 236 231
1.12917 -1.1413 3.13077 84 145 119
-0.162871 -1.17166 3.2183 92 138 132
0.418417 -1.15635 3.1775 80 149 129
0.380516 -1.14946 3.172 152 219 192
0.454047 -1.14929 3.173 59 142 117
0.754209 -1.14223 3.15317 68 111 96
0.658364 -1.14354 3.16139 131 208 181
1.18304 -1.07167 2.96371 168 197 248
0.307519 -1.14437 3.17674 99 156 147
1.11603 -1.12775 3.12971 73 141 106
0.430322 -1.1438 3.17482 80 151 131
0.897158 -1.13299 3.14464 112 162 160
0.594495 -1.13491 3.16614 81 137 126
-0.448416 -1.15851 3.2345 109 167 156
0.480454 -1.13166 3.16964 76 124 98
0.9502 -1.1213 3.13922 106 159 145
-0.468021 -1.14789 3.23235 182 243 229
0.211086 -1.12961 3.18641 79 146 139
0.618662 -1.12005 3.16442 66 133 101
-0.102139 -1.13457 3.21214 59 122 112
1.13991 -1.04536 2.96444 196 238 255
-0.404534 -1.13733 3.2299 182 233 219
-0.0968663 -1.12928 3.21588 43 87 86
-0.224 -1.12935 3.22301 58 106 100
0.888418 -1.10053 3.14306 127 158 161
0.672883 -1.10026 3.15951 62 134 112
-0.423811 -1.12108 3.23503 110 159 145
0.889014 -1.0877 3.14228 89 149 138
-1.77313 -1.14966 3.31807 115 124 134
1.13227 -1.02001 2.96165 189 234 255
0.534288 -1.08904 3.16936 76 148 126
-0.482457 -1.11014 3.23809 238 254 253
-0.122785 -1.10358 3.22159 54 119 110
0.936763 -1.07135 3.13964 73 130 115
0.825067 -1.07194 3.14881 94 146 129
-1.75727 -1.13416 3.32677 140 166 172
0.334413 -1.08095 3.17983 96 156 145
-0.442832 -1.09956 3.23513 175 241 222
0.796059 -1.06196 3.14861 76 154 131
0.763955 -1.05395 3.15339 65 145 110
1.23315 -0.979616 2.92688 206 236 255
-0.467805 -1.08198 3.24311 63 119 90
0.549988 -1.05645 3.16878 62 119 98
-0.480225 -1.07817 3.24443 65 102 86
0.505239 -1.05205 3.17055 63 124 104
-0.482953 -1.07023 3.24753 101 160 146
1.6928 -1.01198 3.0793 127 167 165
-0.45915 -1.0633 3.24305 64 109 92
0.424876 -1.03504 3.17754 71 142 116
0.781773 -1.0215 3.1531 83 141 116
-0.735331 -1.05429 3.2719 147 187 185
-0.543912 -1.04865 3.25245 131 164 160
-0.327529 -1.03105 3.24155 96 147 150
-0.305046 -1.02867 3.23856 112 157 178
0.565229 -1.0047 3.17092 180 237 216
0.570726 -1.00472 3.16808 77 142 116
-1.73035 -1.05111 3.35178 96 151 160
0.694479 -0.987539 3.15939 71 144 118
1.60149 -0.967415 3.09935 65 120 101
-0.581594 -1.01111 3.26095 177 229 222
1.63801 -0.954913 3.08442 93 155 141
0.691249 -0.975222 3.15769 75 147 117
0.312202 -0.98239 3.18534 195 244 236
-0.664322 -1.00687 3.26984 163 217 212
-0.57826 -1.00251 3.26338 174 228 223
1.0468 -0.898844 2.96434 188 223 255
0.757637 -0.952939 3.15534 76 145 125
0.782652 -0.951349 3.15373 73 143 126
-1.80285 -1.00633 3.36546 94 129 133
-1.3373 -0.993806 3.33176 97 161 149
0.997294 -0.88118 2.976 112 105 162
0.959878 -0.882696 2.98727 62 48 136
0.655322 -0.93292 3.16399 68 140 120
-1.17079 -0.978696 3.31811 85 150 134
0.468318 -0.934055 3.17584 75 120 104
1.00714 -0.869768 2.97136 115 102 158
0.0633352 -0.935938 3.20382 144 230 206
-1.30346 -0.973733 3.33028 74 135 131
0.978693 -0.869041 2.97682 204 244 255
0.0474923 -0.935973 3.21351 66 144 133
0.984794 -0.861896 2.97449 179 225 255
-1.05399 -0.957854 3.31314 196 233 225
-0.0283473 -0.923919 3.22508 59 132 130
0.370321 -0.912938 3.18574 47 106 91
0.345158 -0.907795 3.18683 156 216 205
1.01207 -0.845278 2.96387 87 89 160
-0.687021 -0.935299 3.28156 80 108 125
0.349842 -0.906272 3.18492 70 130 119
1.14049 -0.831782 2.94313 197 220 255
-0.865607 -0.930089 3.29834 137 159 147
0.44621 -0.888736 3.17542 89 139 121
0.877485 -0.841396 3.00088 189 233 255
1.03044 -0.827257 2.94976 200 250 255
0.441373 -0.888972 3.17984 76 130 113
1.15569 -0.82416 2.94478 87 112 168
0.767121 -0.881602 3.15619 103 164 144
0.381618 -0.88555 3.18445 67 111 98
0.923128 -0.83169 2.98724 206 232 255
1.15842 -0.818588 2.94916 188 236 255
0.613446 -0.875709 3.16612 87 151 139
0.492073 -0.872254 3.17602 72 125 115
0.338067 -0.870143 3.18603 89 128 106
0.377721 -0.865118 3.18322 73 126 113
1.22667 -0.802797 2.95657 219 253 255
0.804633 -0.851 3.15011 83 146 126
1.04597 -0.860263 3.18083 200 243 255
0.317415 -0.860605 3.18935 91 149 138
-0.162521 -0.872288 3.2387 56 127 117
1.50496 -0.831551 3.08938 105 163 152
0.223695 -0.852878 3.19206 81 141 131
0.253634 -0.85323 3.19499 218 255 251
0.382549 -0.847565 3.18479 136 214 190
1.02625 -0.780751 2.94522 203 230 255
-0.152483 -0.855556 3.24286 89 152 142
-0.460548 -0.857155 3.26859 84 147 137
0.405158 -0.828393 3.18175 156 224 213
0.378319 -0.827783 3.18624 143 226 194
0.433185 -0.822238 3.18007 153 215 193
0.905638 -0.768374 2.98106 104 97 164
1.45233 -0.800824 3.10348 69 128 137
1.20531 -0.75877 2.96257 101 134 190
0.410118 -0.814775 3.18604 164 230 218
0.506281 -0.803126 3.17539 64 127 111
0.189811 -0.805486 3.20681 78 140 134
0.525277 -0.791424 3.17632 84 143 129
1.12243 -0.734139 2.96002 210 244 255
0.993191 -0.728362 2.951 215 245 255
0.765099 -0.742923 3.01625 62 97 137
0.394147 -0.784292 3.18924 155 223 200
0.389432 -0.78312 3.18975 53 113 95
0.0271267 -0.782899 3.22156 97 145 133
0.332261 -0.768183 3.19233 83 133 123
1.362 -0.748536 3.1085 100 160 150
-0.785917 -0.794107 3.31247 86 141 146
0.302158 -0.76124 3.19743 71 141 135
0.952963 -0.698067 2.9507 196 235 255
0.938553 -0.698003 2.95376 189 218 255
0.997958 -0.693604 2.95768 108 148 201
0.410446 -0.744369 3.18924 72 126 109
0.4868 -0.740241 3.17374 211 241 246
0.834625 -0.693032 2.9844 200 245 255
0.0907464 -0.740911 3.22092 81 148 139
0.707776 -0.720916 3.15663 145 215 175
0.0333196 -0.736949 3.22728 58 137 123
1.32586 -0.710894 3.11403 87 136 128
1.21636 -0.838715 3.6865 234 249 255
1.14543 -0.675355 2.97209 138 150 208
0.818611 -0.63886 2.97957 194 239 255
0.595044 -0.678148 3.17126 86 154 137
0.838172 -0.635588 2.97233 193 241 255
0.205263 -0.681235 3.21104 87 147 136
0.941268 -0.614056 2.91264 128 139 197
-0.0954484 -0.684782 3.25105 92 152 146
0.83154 -0.626129 2.97699 205 246 255
1.37092 -0.649466 3.08847 63 118 99
1.31661 -0.649744 3.10396 82 143 129
0.56042 -0.664598 3.17807 79 146 131
0.854983 -0.616886 2.96527 212 237 255
0.114081 -0.667523 3.22344 75 133 128
0.960593 -0.606274 2.97188 105 101 176
-1.58654 -0.696706 3.4184 85 138 125
0.345217 -0.646681 3.19551 74 132 114
0.375202 -0.646931 3.19407 167 229 215
0.953273 -0.596873 2.97364 105 101 172
1.62648 -0.61279 3.05316 104 164 146
0.910397 -0.593121 2.96778 214 245 255
-1.51375 -0.671817 3.41561 83 148 133
1.28115 -0.607958 3.10618 47 117 77
1.28862 -0.603433 3.10538 91 164 126
1.29688 -0.601781 3.10038 63 132 95
1.31545 -0.600475 3.09322 89 154 129
1.40369 -0.596392 3.07773 145 235 189
-0.9295 -0.649004 3.351 93 145 121
-1.64621 -0.656435 3.43301 113 153 141
-1.57408 -0.653748 3.42798 56 116 98
-1.3992 -0.641693 3.41028 96 162 150
-1.33948 -0.622568 3.40398 94 150 139
-0.110861 -0.593996 3.25973 81 141 131
-1.56334 -0.624422 3.43086 95 148 134
-0.105939 -0.588412 3.25925 89 150 136
-1.71642 -0.621968 3.44873 93 154 128
0.899944 -0.531971 2.98147 173 184 244
-0.2731 -0.581756 3.27858 56 122 121
0.91105 -0.528178 2.98524 190 204 252
0.573989 -0.559806 3.16972 74 130 117
0.576854 -0.560199 3.17321 85 138 129
-1.25405 -0.598303 3.39747 87 145 140
-1.20253 -0.585932 3.39422 74 147 131
-0.417954 -0.568672 3.29744 89 159 146
0.931558 -0.51121 2.98425 122 153 198
0.932505 -0.510765 2.98701 99 130 191
-1.45379 -0.586116 3.42423 92 147 130
-0.280073 -0.559112 3.28062 119 179 171
-1.58603 -0.582557 3.4411 89 152 126
-1.84772 -0.586069 3.48085 104 147 132
0.925628 -0.499859 2.98579 95 106 163
0.937676 -0.501379 2.98602 153 181 222
1.12921 -0.517779 3.13221 97 152 135
0.606375 -0.517948 3.16763 162 216 203
-1.46631 -0.559416 3.43373 78 148 135
-0.161578 -0.531666 3.27165 82 145 125
0.563553 -0.513568 3.1767 82 148 136
-0.132519 -0.525408 3.27153 64 136 116
-1.84245 -0.557603 3.48363 74 145 125
1.12226 -0.50069 3.13571 69 131 109
-1.45157 -0.543935 3.43791 100 155 146
-1.85265 -0.548479 3.48804 167 227 221
-1.65977 -0.545019 3.46231 107 168 158
-1.13998 -0.533758 3.39662 97 161 149
-2.01965 -0.548057 3.51824 79 134 119
-0.145893 -0.485904 3.27444 64 129 113
1.18955 -0.45809 3.10525 145 221 180
-1.35769 -0.501966 3.43087 80 143 133
-0.187372 -0.476543 3.27641 54 104 86
-0.198385 -0.472653 3.28034 50 112 98
-1.66673 -0.496671 3.47292 95 164 153
-1.22345 -0.469235 3.41753 91 147 142
1.05218 -0.422119 3.13349 81 156 135
0.657437 -0.422546 3.16694 133 182 174
0.416161 -0.422457 3.19794 84 154 148
-0.169297 -0.429383 3.27481 81 144 134
0.166406 -0.41781 3.22762 47 120 112
-1.14245 -0.437842 3.4104 93 160 133
-1.45711 -0.434765 3.45613 158 237 204
1.21433 -0.367553 3.09118 68 111 130
0.133018 -0.375662 3.23909 92 163 147
1.72819 -0.345575 3.01628 162 227 188
1.62438 -0.342819 3.02695 165 229 194
-1.76234 -0.396403 3.50821 111 181 174
1.74451 -0.334862 3.01196 150 197 175
-1.66558 -0.387986 3.49227 179 238 217
-1.43577 -0.381902 3.46437 65 128 112
-0.0153804 -0.351865 3.26133 80 147 132
-0.381167 -0.356528 3.316 87 149 149
-1.91983 -0.379647 3.53181 90 120 101
0.0375671 -0.32459 3.25554 59 116 108
-1.52073 -0.345988 3.48173 101 141 130
-0.0314857 -0.321571 3.26757 63 130 115
0.158845 -0.313682 3.23346 93 151 140
-1.57669 -0.338098 3.48712 163 237 213
0.75571 -0.301776 3.1495 104 160 137
1.75502 -0.289112 3.00411 156 209 182
-0.17248 -0.314605 3.29119 73 146 138
0.883929 -0.295992 3.14128 46 97 77
0.0594763 -0.303798 3.25073 73 135 121
0.0537631 -0.299354 3.25456 97 160 150
-1.79365 -0.318204 3.52582 119 178 158
0.095177 -0.281695 3.24944 100 162 144
0.0266254 -0.275125 3.25953 78 138 132
-1.6258 -0.295431 3.49835 73 89 65
0.31388 -0.269417 3.21404 81 155 137
-0.987142 -0.283371 3.41471 77 132 107
0.0681792 -0.264894 3.25283 164 244 207
-1.83891 -0.282384 3.54249 106 166 155
-0.0408798 -0.254139 3.2701 74 130 109
0.924597 -0.242916 3.13742 103 171 160
-1.07938 -0.25998 3.43275 105 165 155
0.104312 -0.244226 3.2472 51 120 105
-1.97595 -0.264565 3.56453 111 168 137
0.0782621 -0.238825 3.25276 143 201 183
0.0856376 -0.239348 3.24567 144 227 202
0.0981648 -0.235185 3.24422 52 123 106
0.115841 -0.233969 3.24271 178 252 218
-0.133567 -0.235556 3.28679 76 154 131
-0.0899642 -0.235663 3.28197 63 126 106
-0.138902 -0.233305 3.28929 157 244 211
-1.50124 -0.249239 3.50127 111 164 150
0.123907 -0.226775 3.23615 191 254 228
0.338067 -0.222858 3.2103 72 132 114
-1.91474 -0.246293 3.558 110 170 152
-0.147316 -0.226704 3.29364 58 134 116
-2.04955 -0.246397 3.58455 105 151 139
-1.70182 -0.238933 3.52347 81 141 111
-1.14592 -0.231319 3.44131 77 152 130
0.15215 -0.213542 3.23293 99 168 153
0.725308 -0.20919 3.15825 78 140 128
-1.66741 -0.225526 3.52029 73 127 110
-0.0879624 -0.205919 3.28171 83 156 134
0.0565143 -0.20268 3.25506 72 151 132
-1.83913 -0.221874 3.55645 81 124 111
-1.6485 -0.219084 3.518 62 112 94
-1.40298 -0.216738 3.48941 96 152 141
0.107326 -0.201022 3.24703 68 138 115
-2.00571 -0.221652 3.58423 111 152 137
-0.761986 -0.200292 3.39376 79 140 136
-1.66924 -0.19957 3.5192 153 204 167
-1.6198 -0.19743 3.52325 132 193 173
0.125892 -0.180997 3.24525 96 169 153
-0.0775964 -0.180113 3.281 40 102 84
-1.371 -0.190319 3.49042 106 159 150
-1.5703 -0.190823 3.5147 105 151 139
-1.41246 -0.187637 3.4865 49 105 82
-1.73464 -0.189987 3.53311 157 232 188
0.651363 -0.168229 3.16601 159 228 207
-1.54214 -0.187014 3.51539 92 149 134
0.753772 -0.166309 3.15358 169 231 213
-1.81211 -0.184918 3.56077 104 150 137
-1.38903 -0.179601 3.48755 143 213 196
-1.43203 -0.179073 3.49473 58 107 79
-1.09253 -0.175136 3.44684 84 143 129
-1.70962 -0.177529 3.53979 97 159 135
0.610583 -0.158312 3.17366 108 168 157
0.206376 -0.160265 3.22865 73 137 118
-1.66077 -0.173781 3.52994 163 230 198
-0.0733048 -0.16023 3.28264 62 119 116
-0.0637762 -0.159549 3.27825 59 119 108
0.67877 -0.154959 3.16267 156 230 212
-1.32514 -0.160674 3.47818 79 134 125
0.10838 -0.145879 3.24916 84 143 128
-1.9055 -0.158197 3.58272 92 156 134
-1.75946 -0.151931 3.55147 90 144 121
-1.50151 -0.148272 3.51175 98 135 133
0.196292 -0.135514 3.23242 102 161 153
-1.36547 -0.146706 3.49332 103 138 128
0.891525 -0.126071 3.1324 181 233 215
-0.131334 -0.13079 3.29787 88 159 156
0.0311674 -0.129073 3.25846 73 139 120
-1.81039 -0.140118 3.56793 101 155 138
0.145315 -0.120989 3.24214 106 161 146
0.118004 -0.113431 3.24072 76 128 121
-0.686105 -0.115488 3.38911 81 141 153
-1.26998 -0.117288 3.48083 69 140 130
-1.60557 -0.10665 3.52825 168 229 185
-0.597416 -0.10186 3.37231 124 177 168
-1.33052 -0.0986104 3.4919 99 164 148
-1.71873 -0.0935545 3.56009 101 147 141
-1.42826 -0.0919115 3.51142 72 125 92
0.00193439 -0.082863 3.26861 90 138 126
-1.38008 -0.0889157 3.5036 50 122 99
-1.34265 -0.086175 3.49622 169 237 214
-1.55015 -0.0877037 3.51686 242 255 246
0.867673 -0.0759816 3.13237 69 136 121
0.291439 -0.0770192 3.22452 69 138 118
0.00665077 -0.0768048 3.27274 146 222 190
0.800981 -0.0732357 3.1441 156 214 203
-1.35014 -0.0808216 3.50073 95 150 131
-1.39534 -0.0788142 3.50628 79 146 107
-0.619654 -0.0764785 3.37859 80 129 121
-0.00111202 -0.0726527 3.27304 63 126 110
-0.854901 -0.0721541 3.4215 87 145 140
0.065952 -0.0622475 3.26205 75 127 110
0.1579 -0.0621996 3.24326 112 154 147
-1.47553 -0.0664413 3.51095 86 129 114
0.785365 -0.0590364 3.14744 169 225 226
-1.7178 -0.0675144 3.56125 108 164 141
0.0827893 -0.0607781 3.25265 74 124 106
0.328711 -0.0542692 3.22097 58 127 107
0.0438695 -0.04971 3.26793 163 212 204
-1.31776 -0.0535941 3.49449 167 239 217
-1.37628 -0.0497452 3.50863 87 145 117
-1.38852 -0.0430462 3.51032 67 135 100
0.79507 -0.0296125 3.14491 55 101 102
-1.67316 -0.0221796 3.55811 82 136 107
-1.41561 -0.0164547 3.52107 185 244 224
0.0899113 -0.0135009 3.26235 173 231 220
0.309833 -0.0111557 3.2218 58 120 106
0.565715 -0.00957249 3.18046 84 153 150
0.310426 -0.00900162 3.22369 72 131 116
0.445304 -0.00103318 3.19959 73 148 127
0.651836 -0.00034583 3.16901 89 145 140
-1.56216 0.0108658 3.54111 177 235 230
-1.54658 0.0094175 3.54001 113 151 153
-1.49711 0.00959987 3.53119 83 120 104
0.502832 0.00982572 3.18988 78 147 132
-1.90068 0.0107017 3.62242 119 176 168
-1.37027 0.0132001 3.51633 100 161 141
-1.84602 0.0150107 3.60768 105 162 147
-1.48243 0.0155994 3.52429 67 106 84
-1.73561 0.0170975 3.58265 79 153 125
0.49465 0.0184648 3.19243 72 138 126
0.312586 0.0211674 3.2239 80 147 132
0.780741 0.0206373 3.14557 91 142 135
0.338727 0.0223508 3.21654 52 114 102
-1.45269 0.0336408 3.53558 84 140 119
0.189598 0.0315464 3.24877 57 120 110
0.30508 0.0306404 3.22274 51 118 89
-1.90457 0.033552 3.62275 97 157 147
0.420903 0.0321056 3.20179 77 162 134
-1.75011 0.0442036 3.59427 71 147 123
-1.69149 0.0485782 3.58295 172 206 189
0.326443 0.0471113 3.21804 59 114 97
-1.42519 0.0537142 3.53847 76 133 118
-2.0374 0.0688793 3.65936 91 138 129
0.750059 0.0592004 3.15182 95 153 142
0.361404 0.0628301 3.21332 153 229 205
0.278669 0.0731154 3.23247 184 244 226
0.754217 0.07162 3.15024 74 137 127
0.754328 0.0715833 3.15015 74 137 127
0.399457 0.0917893 3.20358 144 221 194
0.407019 0.0911725 3.20377 158 248 213
0.388275 0.0962384 3.20704 161 232 206
0.383369 0.0989884 3.21377 81 136 119
-1.39951 0.127908 3.5488 113 173 155
-0.238253 0.123517 3.33802 65 125 119
0.266796 0.125726 3.23416 175 247 225
0.458149 0.125629 3.19872 158 232 202
0.148099 0.133136 3.26054 228 255 255
-2.10524 0.148993 3.69281 106 157 143
0.398044 0.136224 3.21268 76 139 119
0.343693 0.137407 3.2227 93 162 147
1.25061 0.131118 3.04596 162 230 195
1.22901 0.14131 3.05613 85 134 106
0.632108 0.14996 3.1735 78 137 117
-1.53016 0.173147 3.56769 87 147 116
1.20712 0.153522 3.06148 48 117 90
0.642554 0.160615 3.16842 94 156 138
1.21616 0.161244 3.05918 77 121 92
1.22931 0.160509 3.04698 44 75 38
-0.262695 0.182237 3.3402 73 138 117
0.634013 0.172035 3.1712 78 115 105
-1.91931 0.201626 3.6642 84 151 106
0.262836 0.183132 3.23579 61 122 126
1.21759 0.177481 3.05758 139 200 172
1.14924 0.184343 3.06947 203 240 220
-1.22849 0.21423 3.52762 101 150 134
-1.9389 0.225236 3.67252 111 168 153
-1.15322 0.217178 3.515 105 155 145
0.633455 0.202714 3.17103 61 123 107
1.17643 0.206857 3.06808 146 192 173
-0.172536 0.261811 3.33271 85 139 134
-0.209986 0.26668 3.33972 69 137 130
-1.34607 0.289208 3.55947 92 141 127
-1.20032 0.287223 3.53641 101 154 145
0.48033 0.275004 3.20261 60 128 121
-0.270369 0.289424 3.35354 231 254 250
0.280182 0.281238 3.24167 92 163 167
1.08047 0.268015 3.08345 70 131 121
1.08046 0.275114 3.08752 141 201 201
0.187423 0.297308 3.26029 91 163 157
0.665088 0.298325 3.16719 95 165 152
-0.401786 0.325832 3.38231 82 157 143
0.103302 0.321323 3.27399 174 236 218
0.192269 0.323022 3.26171 56 130 118
0.218135 0.349106 3.25341 250 253 251
0.229706 0.356093 3.2512 254 254 254
0.0859303 0.361509 3.28146 76 139 107
0.147793 0.369498 3.27405 238 255 253
0.141392 0.375148 3.27152 64 130 118
0.16985 0.379457 3.26663 173 230 215
0.0698636 0.382976 3.28628 60 128 111
-0.229352 0.404272 3.35596 177 225 219
-1.18192 0.436162 3.55581 90 144 131
0.644857 0.398115 3.17194 251 255 254
0.130386 0.414092 3.27362 192 249 224
-0.506735 0.436459 3.41588 66 132 121
-0.324249 0.439187 3.37605 91 170 149
0.0874184 0.428788 3.28501 77 147 134
0.112315 0.425712 3.27505 125 195 159
0.153826 0.433695 3.26972 77 148 132
0.697788 0.421817 3.15462 80 143 141
-0.523657 0.459235 3.41628 65 147 125
-0.530682 0.461316 3.42301 89 158 145
-0.55895 0.487224 3.43196 80 149 134
0.100732 0.468397 3.28446 77 158 139
-0.209189 0.487978 3.35631 167 232 211
-0.241746 0.499062 3.36307 57 127 110
0.149417 0.489696 3.2775 84 133 131
-0.0155263 0.528183 3.31493 100 169 158
1.13716 0.497399 3.05363 80 122 97
1.1506 0.499727 3.04918 78 141 115
1.04663 0.512683 3.07771 200 242 231
1.14629 0.527115 3.04854 65 96 87
-0.98658 0.617752 3.53303 94 166 143
-0.0479405 0.622657 3.32679 96 150 137
-0.717957 0.696651 3.47945 143 225 206
0.980879 0.636927 3.08471 66 111 94
0.270437 0.678864 3.25411 90 151 141
0.335141 0.688145 3.23482 97 163 151
0.349293 0.716506 3.22831 40 88 64
0.338347 0.721516 3.23473 134 215 188
-0.0953684 0.781413 3.34364 148 199 192
-0.103525 -1.39992 3.18609 49 98 78
0.711525 -1.38342 3.14456 54 99 83
-0.677496 -1.40911 3.20681 110 164 171
0.706526 -1.369 3.14786 154 226 183
1.48433 -1.27439 2.926 168 223 255
-0.605993 -1.39043 3.20764 111 149 167
0.656773 -1.36437 3.14305 32 113 80
1.22278 -1.35301 3.12286 74 144 107
0.396784 -1.36725 3.1637 91 144 131
1.60339 -1.25876 2.9169 203 241 255
0.87462 -1.34632 3.14265 96 135 110
0.977731 -1.34801 3.14349 44 123 102
-0.630888 -1.37594 3.20932 106 155 153
0.70236 -1.34798 3.14813 140 209 182
0.932888 -1.34486 3.13977 82 133 105
0.712166 -1.34615 3.14714 138 205 173
0.859858 -1.34208 3.14488 73 128 103
-1.7806 -1.38918 3.24563 200 222 204
-0.0768518 -1.35616 3.18765 63 134 124
0.796113 -1.33851 3.14653 45 93 69
0.748539 -1.33669 3.14539 164 234 193
0.882915 -1.33479 3.1446 169 224 197
0.930049 -1.33319 3.14156 70 103 88
0.997929 -1.33313 3.13976 151 219 188
1.73391 -1.24687 2.93789 93 129 193
-1.74369 -1.38288 3.2611 91 120 127
0.94723 -1.32809 3.14006 133 205 163
1.59368 -1.23461 2.92101 212 237 255
0.223105 -1.33797 3.17068 86 137 129
0.532596 -1.33025 3.15381 81 135 118
0.769727 -1.32466 3.14289 187 238 200
0.7706 -1.32468 3.14266 188 241 202
-0.524463 -1.35366 3.21111 85 122 130
0.703052 -1.32644 3.14851 147 231 196
0.73634 -1.32623 3.14833 64 107 94
-0.77886 -1.35604 3.22011 91 171 136
-0.309095 -1.3471 3.20312 74 142 141
0.495953 -1.32543 3.15391 67 137 124
0.867943 -1.32383 3.1459 70 116 94
0.470688 -1.32609 3.15476 82 136 119
1.59387 -1.22768 2.92358 101 116 189
-0.762008 -1.34899 3.21408 66 121 104
0.4437 -1.32241 3.15859 52 97 80
1.49217 -1.22098 2.91317 115 126 210
-0.750944 -1.34663 3.21885 170 242 219
0.191416 -1.32381 3.17792 77 129 122
-1.23498 -1.35526 3.24589 87 153 141
0.904169 -1.30481 3.13671 77 103 90
1.60802 -1.21872 2.92426 201 236 255
-0.555139 -1.33633 3.20907 117 177 176
-0.0925233 -1.32697 3.19523 62 111 103
0.0477869 -1.32221 3.18478 74 123 133
0.213878 -1.317 3.17136 72 113 106
0.417444 -1.31277 3.16651 96 158 142
0.931727 -1.30288 3.14232 81 121 103
-0.778143 -1.33584 3.22173 72 124 114
0.738961 -1.30228 3.15148 122 206 172
-0.782116 -1.33266 3.22182 132 202 185
-0.75387 -1.32694 3.21532 76 115 100
0.7566 -1.29732 3.14536 154 225 185
0.832275 -1.29872 3.14353 155 240 195
-0.742685 -1.32848 3.22095 79 148 135
0.866553 -1.2939 3.14693 81 128 102
1.36896 -1.21374 2.94346 176 210 255
-1.82155 -1.35085 3.28231 222 236 235
0.753751 -1.29465 3.15281 47 104 79
0.806316 -1.29202 3.15207 53 104 77
0.288042 -1.299 3.16949 100 150 140
0.197449 -1.29732 3.17095 50 92 85
0.871049 -1.28442 3.14473 171 229 194
1.26689 -1.27075 3.12192 82 129 113
0.205579 -1.2905 3.17505 70 132 118
0.885685 -1.27578 3.14088 65 98 83
0.735316 -1.27947 3.15205 158 235 198
0.394439 -1.27954 3.16823 85 139 126
0.889966 -1.26981 3.14187 86 142 113
0.79005 -1.26847 3.14318 142 215 177
0.865593 -1.26873 3.14737 79 137 108
0.473925 -1.26717 3.14966 101 144 117
0.49336 -1.27285 3.15963 76 141 126
0.678591 -1.2654 3.15391 76 159 137
0.460748 -1.26413 3.16057 99 146 130
0.78744 -1.2587 3.14492 161 223 175
0.875024 -1.25924 3.14662 87 162 140
1.59815 -1.17255 2.92944 191 238 255
1.64861 -1.1754 2.9356 205 233 255
0.773893 -1.2554 3.14888 131 201 164
0.618053 -1.2556 3.15218 72 131 111
0.943425 -1.25226 3.14205 80 153 121
0.668343 -1.25502 3.15512 61 123 109
0.802106 -1.25012 3.14536 135 231 184
0.850196 -1.25127 3.14952 81 146 125
1.24325 -1.2406 3.12165 71 134 108
1.65072 -1.1677 2.93969 108 113 188
0.77985 -1.24653 3.14529 135 214 173
0.8194 -1.24774 3.14561 49 107 82
1.23079 -1.17728 2.96564 186 220 255
0.796758 -1.24541 3.14525 82 149 118
0.426256 -1.25197 3.16873 90 143 129
1.41772 -1.15161 2.91511 108 118 205
0.48221 -1.24579 3.16043 68 123 106
0.510051 -1.24519 3.16003 82 128 115
0.828061 -1.23351 3.14278 68 131 111
1.22698 -1.22489 3.12157 79 137 108
-1.20925 -1.27573 3.25853 94 151 148
0.196206 -1.2418 3.17907 67 118 114
0.525654 -1.23518 3.16226 168 232 210
0.531677 -1.23463 3.16133 60 122 108
0.453328 -1.23472 3.16723 80 139 124
1.46054 -1.13413 2.91954 210 247 255
0.735214 -1.2187 3.151 77 129 106
0.619758 -1.22209 3.16169 73 142 121
0.758723 -1.214 3.15023 121 191 151
0.765866 -1.21684 3.15044 70 127 96
0.879307 -1.21072 3.14219 111 179 156
1.59288 -1.12612 2.94042 184 223 255
0.839921 -1.20173 3.14363 66 143 122
1.33908 -1.11607 2.92541 183 226 255
1.51479 -1.11513 2.9311 211 241 255
-1.8901 -1.2597 3.30668 156 164 177
0.131762 -1.21041 3.18896 80 148 141
-1.87464 -1.25702 3.30602 107 151 145
1.60077 -1.11326 2.93901 191 226 255
1.29466 -1.11191 2.93939 170 229 255
-0.742395 -1.2246 3.24289 181 232 255
1.36108 -1.10176 2.91581 103 106 197
1.55486 -1.11026 2.93777 205 232 255
-1.00361 -1.22744 3.25963 77 118 121
-0.457463 -1.21417 3.23099 81 144 124
1.35365 -1.09345 2.9196 86 113 199
0.667802 -1.18038 3.1607 86 153 132
1.47702 -1.09455 2.93252 102 113 197
-0.468173 -1.20341 3.22728 112 160 148
0.904045 -1.17 3.1433 97 129 124
-0.140041 -1.19556 3.21838 85 148 146
0.711361 -1.17212 3.15735 81 121 109
0.805573 -1.1691 3.14917 68 132 110
1.34584 -1.08473 2.92103 87 95 188
-0.10728 -1.19344 3.21204 83 140 131
0.389298 -1.1766 3.17374 77 148 128
0.76862 -1.17254 3.15935 60 125 100
1.19136 -1.10088 2.9665 174 216 245
0.26237 -1.17454 3.1761 193 255 255
0.285512 -1.16913 3.17705 242 255 253
1.15793 -1.09659 2.97818 73 61 149
0.896211 -1.15534 3.14359 129 166 164
1.18326 -1.09158 2.96811 197 240 255
0.77145 -1.15654 3.14868 120 123 114
0.92927 -1.1493 3.14075 236 255 255
0.90408 -1.14827 3.1469 192 232 227
0.419354 -1.15638 3.17509 86 152 133
0.46325 -1.15363 3.1708 73 145 122
1.50898 -1.06687 2.93767 200 231 255
1.17745 -1.07427 2.96775 75 64 144
1.31872 -1.05831 2.92268 82 92 193
0.308267 -1.14446 3.17799 95 152 143
-0.126008 -1.15586 3.2133 71 135 123
0.608038 -1.14064 3.16679 69 112 101
1.30917 -1.04889 2.92149 84 102 193
0.663547 -1.13305 3.16408 103 165 149
-1.59962 -1.18539 3.30669 84 137 134
-0.764148 -1.16281 3.25737 98 148 146
1.00765 -1.11732 3.13548 79 141 117
-0.304006 -1.14997 3.22761 102 153 145
0.569145 -1.12737 3.16445 89 140 126
0.424297 -1.12724 3.1712 160 227 200
1.29445 -1.03819 2.9229 192 227 255
-0.406748 -1.14604 3.23398 218 255 245
0.667852 -1.11956 3.1587 72 116 99
1.09879 -1.05583 2.98039 205 233 255
-1.82816 -1.17859 3.32353 104 152 146
0.791502 -1.11312 3.15383 68 139 122
-0.406423 -1.13409 3.23579 82 144 132
1.1095 -1.04046 2.96837 174 216 255
1.42285 -1.03185 2.93487 212 241 255
-0.223946 -1.12929 3.22167 58 106 100
0.704853 -1.10601 3.15708 62 115 88
0.604137 -1.10508 3.16657 85 147 129
0.663916 -1.10541 3.16309 85 144 124
0.582601 -1.10638 3.16849 121 217 177
1.15812 -1.02684 2.95809 190 234 255
-0.871114 -1.13642 3.26904 82 140 146
1.27562 -1.01662 2.92683 70 81 173
0.477497 -1.09729 3.16816 169 249 202
0.889391 -1.08774 3.14316 89 149 138
-0.482444 -1.11016 3.23834 238 254 253
0.595823 -1.08209 3.16276 161 235 205
1.16061 -1.00668 2.95438 203 247 255
1.25797 -0.999798 2.92783 78 94 190
1.07338 -1.00783 2.97009 188 235 255
-0.472142 -1.0953 3.24127 79 124 105
1.2503 -0.99123 2.92863 78 89 187
-0.470671 -1.0887 3.24261 182 244 208
1.16039 -0.988547 2.94742 195 231 255
-0.057388 -1.07675 3.21996 77 140 148
-0.468093 -1.08204 3.2454 60 121 93
0.683627 -1.05407 3.16096 59 123 104
0.402391 -1.05534 3.18003 49 123 97
-0.10649 -1.06637 3.22276 63 127 121
0.755951 -1.04151 3.15805 81 140 119
-0.730402 -1.07676 3.26735 99 137 137
-0.442809 -1.06888 3.24578 201 239 227
0.745003 -1.03576 3.15482 72 134 116
1.16428 -0.968295 2.94961 204 241 255
1.69419 -1.012 3.08114 113 157 151
0.406963 -1.0358 3.17904 97 156 135
1.12309 -0.958121 2.95512 191 223 255
0.782226 -1.02152 3.15423 84 142 117
-0.348863 -1.04482 3.23993 89 151 151
0.852079 -1.01311 3.14868 67 130 110
1.02512 -0.958386 2.98215 191 241 255
-0.751816 -1.05176 3.27283 147 184 192
-0.756123 -1.04615 3.273 114 149 153
-0.784878 -1.04696 3.27883 92 127 140
-0.579333 -1.03895 3.25874 75 121 115
-0.327474 -1.03107 3.24303 107 160 163
-0.792385 -1.0387 3.26903 94 125 128
1.10977 -0.93624 2.95222 204 242 255
1.02203 -0.944483 2.97981 195 243 255
-0.78132 -1.03226 3.27471 82 115 118
-0.745155 -1.03244 3.2843 147 194 192
1.11101 -0.927027 2.95035 48 65 158
1.14812 -0.921951 2.93931 72 61 153
-0.782721 -1.03246 3.28659 132 180 198
1.15736 -0.919836 2.93763 207 245 255
1.65022 -0.966793 3.08434 94 158 139
-0.576505 -1.01872 3.25982 86 129 118
-0.668747 -1.01108 3.26729 96 127 130
1.16043 -0.907643 2.93258 76 82 179
1.63857 -0.954909 3.08522 81 143 127
-0.780855 -1.01442 3.28221 132 166 160
0.982976 -0.919012 2.98902 209 248 255
1.10232 -0.907663 2.94529 196 232 255
-0.683902 -1.00572 3.27307 150 204 204
0.38649 -0.977422 3.18354 62 127 111
1.15195 -0.898498 2.93241 61 54 151
-0.650247 -1.00007 3.26952 112 137 139
0.971571 -0.913415 2.98738 169 221 255
-1.1227 -1.00847 3.30303 74 129 120
-0.655093 -0.998525 3.26798 76 79 87
-0.544548 -0.997853 3.26383 71 148 140
1.61964 -0.939831 3.08187 95 134 126
-0.69678 -0.987703 3.25612 152 214 202
1.14348 -0.891311 2.93534 61 80 171
-1.06532 -1.00256 3.30614 72 128 115
1.06632 -0.894507 2.95571 194 246 255
-0.568943 -0.986598 3.25927 110 137 133
0.758382 -0.952036 3.15301 67 133 114
0.964729 -0.904681 2.98985 164 199 249
0.309972 -0.961267 3.18727 85 149 130
0.0554512 -0.96053 3.20162 173 242 239
-0.084897 -0.966523 3.22804 60 131 104
1.06253 -0.885297 2.95738 156 201 245
-1.79098 -1.00766 3.36351 167 209 202
0.975518 -0.891618 2.98489 188 230 255
-1.80413 -1.00633 3.36771 94 129 133
1.15706 -0.868859 2.93561 232 251 255
-1.17002 -0.977524 3.31879 100 154 137
-1.82546 -0.993237 3.37761 92 126 125
1.06058 -0.867204 2.95466 203 244 255
1.16649 -0.859755 2.93848 210 247 255
-1.84645 -0.989415 3.37888 184 222 222
0.0625605 -0.931557 3.20807 67 140 118
1.31046 -0.85855 2.95194 88 102 178
-1.82152 -0.981958 3.37274 123 167 168
0.409627 -0.921604 3.17789 84 145 135
-1.06245 -0.959664 3.31502 210 250 238
1.58304 -0.889777 3.07512 88 150 128
-1.30688 -0.965369 3.3358 96 161 152
0.661262 -0.912383 3.16522 189 248 234
1.57673 -0.88866 3.08124 77 156 135
-1.86645 -0.976228 3.38448 88 137 135
0.988874 -0.850703 2.97398 56 58 152
-0.687403 -0.935288 3.28057 75 104 119
-1.83033 -0.966095 3.38582 85 123 123
0.971652 -0.841306 2.97406 192 224 255
0.958329 -0.841729 2.97873 178 216 255
-0.865894 -0.930075 3.2982 137 159 147
-1.05196 -0.933986 3.31723 91 153 141
0.405237 -0.893039 3.18181 70 129 115
0.878069 -0.841281 3.00304 208 237 255
1.54572 -0.862431 3.07808 55 108 95
0.0964929 -0.897283 3.20911 67 135 124
0.445669 -0.888017 3.17535 89 139 121
1.20287 -0.823478 2.94707 222 252 255
0.377091 -0.886547 3.18115 89 140 120
-1.45904 -0.935505 3.35641 80 151 148
-0.759318 -0.912791 3.29048 108 139 130
0.420866 -0.879275 3.18173 82 144 130
1.08578 -0.812957 2.93981 98 106 183
0.333401 -0.876618 3.1878 246 255 255
0.463054 -0.869841 3.17938 80 129 113
1.07624 -0.805224 2.93974 109 106 186
1.1847 -0.807809 2.95052 218 249 255
0.872091 -0.820878 2.99999 60 58 140
0.926148 -0.812102 2.98213 66 57 144
1.10849 -0.799829 2.94535 235 254 255
1.2271 -0.802731 2.95759 222 250 255
1.63552 -0.83162 3.06248 79 151 115
1.06892 -0.797181 2.94307 94 94 172
1.04635 -0.860236 3.18161 208 240 255
0.211966 -0.862442 3.19879 81 143 131
0.4023 -0.857518 3.18123 56 104 92
1.05914 -0.787609 2.94038 101 89 171
0.403325 -0.850876 3.1878 173 235 223
1.20092 -0.788876 2.95083 203 242 255
1.04507 -0.785537 2.9359 189 237 255
1.03319 -0.783085 2.94635 64 71 164
1.17046 -0.783814 2.95706 79 72 163
1.2385 -0.782948 2.95985 83 74 155
0.392176 -0.84044 3.18495 145 213 188
1.45954 -0.808886 3.09973 87 137 137
-1.93742 -0.892359 3.41442 100 166 161
0.405484 -0.827764 3.18393 163 235 223
-0.22437 -0.844501 3.2472 109 167 166
0.369141 -0.82522 3.18669 74 120 101
0.903491 -0.774452 2.97985 206 246 255
-0.853918 -0.855577 3.31029 96 149 146
0.328343 -0.822434 3.18813 101 164 154
0.328905 -0.821582 3.18625 81 144 134
-1.04831 -0.855999 3.33042 94 153 145
0.0745312 -0.826086 3.21697 83 152 142
0.800589 -0.775064 3.01389 87 91 169
0.847939 -0.769224 2.99933 208 244 255
1.20601 -0.76024 2.95946 68 64 146
-1.83761 -0.87328 3.40928 114 171 173
0.383253 -0.807225 3.1849 70 130 112
0.526902 -0.805197 3.17664 70 127 106
0.503882 -0.802967 3.17716 52 114 96
-0.728762 -0.830518 3.29877 67 123 110
0.440237 -0.796955 3.18439 85 141 130
0.504055 -0.792661 3.17641 66 132 121
1.4423 -0.771654 3.09259 97 140 125
1.11664 -0.736529 2.96155 88 88 172
0.245939 -0.791673 3.20045 77 133 122
0.394431 -0.78419 3.19084 147 210 190
1.1445 -0.728891 2.9616 210 247 255
0.794441 -0.737437 3.00596 203 250 255
0.89568 -0.729438 2.97585 176 207 255
-0.139348 -0.795667 3.2473 69 135 124
0.91438 -0.7256 2.9684 212 242 255
