ply
format ascii 1.0
element vertex 1272
property float x
property float y
property float z
property uchar blue
property uchar green
property uchar red
end_header
-0.806211 -0.0941455 4.27743 89 143 130
-1.0589 -0.0909039 4.24669 73 124 116
-1.01867 -0.0919481 4.25025 79 114 104
-1.00731 -0.0911007 4.25127 167 217 205
-1.04966 -0.0907987 4.25215 158 216 211
-0.562053 -0.0895477 4.30886 79 134 125
0.184176 -0.0890465 4.36881 95 146 112
-2.01721 -0.0821332 4.12039 73 124 110
-1.32955 -0.0837257 4.20407 165 202 192
0.0660317 -0.0870372 4.34608 87 139 116
1.26358 -0.090026 4.4763 72 118 95
-0.6155 -0.0849119 4.29752 93 144 137
1.52939 -0.0891627 4.50192 122 177 160
-2.24956 -0.0765611 4.09997 79 96 92
-0.949948 -0.0810701 4.26221 153 203 185
0.0684922 -0.0854196 4.35371 80 136 113
-1.58239 -0.0780594 4.17785 150 213 203
2.00981 -0.0836207 4.54988 91 160 133
-0.56718 -0.0748878 4.30287 143 197 192
0.240582 -0.0781975 4.37813 85 127 120
-2.01756 -0.0679542 4.12894 188 231 228
-2.08163 -0.0620409 4.11353 104 145 138
-2.01732 -0.0594946 4.12655 97 138 131
1.12751 -0.0682587 4.4478 107 143 131
0.237477 -0.0626258 4.36384 161 216 207
-1.59852 -0.0531839 4.16481 164 245 218
-1.35239 -0.0526798 4.21134 137 154 141
-1.15677 -0.0514938 4.23001 155 217 201
-0.932798 -0.0518263 4.24855 59 91 80
0.220001 -0.0568252 4.36784 114 188 146
-1.5554 -0.0460788 4.17615 106 140 134
-1.6279 -0.04506 4.16948 74 120 97
0.255127 -0.049657 4.38033 56 96 78
-1.54524 -0.0422377 4.18551 85 120 116
-1.96398 -0.0356887 4.13444 95 142 140
0.0157091 -0.0397718 4.34751 200 234 228
-2.14625 -0.0352567 4.10185 71 105 104
-1.03574 -0.0330436 4.25183 78 128 116
-0.813733 -0.0346714 4.27799 69 132 116
0.243686 -0.0393675 4.36134 156 228 198
0.0169196 -0.02594 4.35328 78 155 121
0.832421 -0.0272738 4.42273 133 154 156
0.31456 -0.021798 4.37993 60 102 85
1.14926 -0.0232784 4.45885 163 238 216
-1.13539 -0.0193915 4.24801 173 232 218
-0.326434 -0.0199064 4.3162 94 149 132
-1.21597 -0.0145919 4.23016 137 190 177
0.655097 -0.0148117 4.40999 83 123 112
-0.29248 -0.0110781 4.33309 176 230 217
1.04966 -0.0118208 4.42598 150 245 211
0.719042 -0.000272345 4.41705 79 102 98
-1.22799 0.00296311 4.23624 135 194 180
-1.5823 0.00712835 4.18468 180 232 225
0.312947 0.00409516 4.38351 76 110 99
0.708447 0.00583046 4.41422 164 201 197
0.873637 0.00971379 4.42209 135 189 176
-1.60075 0.0125863 4.19291 161 220 212
-0.0175378 0.0113723 4.34987 155 231 199
0.757315 0.0148705 4.4226 80 121 113
0.756851 0.0248563 4.42334 184 228 222
1.27806 0.0245142 4.48918 100 149 141
-1.65054 0.0262093 4.18272 114 165 157
0.69155 0.0265128 4.41158 157 198 191
0.770382 0.0241937 4.41713 77 85 74
-2.10421 0.0317162 4.12184 143 199 186
0.257255 0.031925 4.36468 150 251 200
0.266559 0.0330283 4.34928 165 248 209
-0.0615785 0.0434149 4.36642 60 121 101
0.602816 0.0432298 4.39056 108 131 123
0.680477 0.0406301 4.39271 76 107 92
0.927505 0.0401121 4.44563 92 147 130
0.716357 0.0443363 4.42254 161 217 206
1.23677 0.043731 4.4796 74 129 102
1.37996 0.0477102 4.49235 88 145 124
-0.491168 0.0464878 4.31159 125 156 153
1.23802 0.0491663 4.46699 96 150 127
0.801007 0.0527063 4.44467 169 225 206
-0.44111 0.0537579 4.3239 66 105 90
0.624896 0.0560832 4.40333 55 92 72
1.39822 0.0630823 4.49834 90 162 140
-1.6717 0.0625505 4.18195 104 152 140
-0.568462 0.0662921 4.30543 80 140 129
-0.151739 0.0640154 4.35806 88 122 112
-0.458712 0.0685128 4.32089 97 166 129
0.939407 0.0676613 4.4463 115 172 157
2.26384 0.0690658 4.59326 108 171 155
-0.570717 0.0705143 4.32248 68 126 115
-0.217415 0.0697979 4.34717 100 156 143
0.925406 0.0713939 4.44598 94 148 135
2.04405 0.0742224 4.55829 77 159 136
-1.01577 0.0707945 4.26903 103 152 144
0.921761 0.0778912 4.43674 151 230 211
-1.29935 0.0760795 4.23128 118 129 113
-1.11881 0.0822157 4.25823 99 168 153
0.397566 0.0847531 4.37663 156 213 192
0.844013 0.084416 4.43157 130 161 170
1.18931 0.0850859 4.47621 127 181 164
-1.14543 0.0868935 4.25191 110 160 150
-0.962908 0.0852399 4.28183 157 217 206
2.28275 0.0952173 4.59817 118 182 160
-0.195566 0.0936522 4.34066 92 153 143
-0.423574 0.0947202 4.33555 93 141 129
0.377359 0.0994426 4.38828 139 219 172
0.596584 0.0970589 4.38356 159 239 196
0.91469 0.098709 4.44205 96 143 134
0.81295 0.101846 4.43789 100 125 121
-1.12275 0.0994096 4.25718 79 135 122
-1.07863 0.104742 4.26253 122 187 172
0.954933 0.114264 4.44963 94 146 129
-1.26175 0.108947 4.24059 140 198 187
0.806104 0.117503 4.43116 153 219 190
0.393528 0.123029 4.39085 142 221 182
0.937362 0.127074 4.44901 165 221 208
-0.57172 0.120912 4.32509 188 238 228
1.03004 0.131205 4.45757 92 133 128
-1.32947 0.12709 4.24518 155 217 201
0.997651 0.13267 4.45908 210 244 234
2.42092 0.144512 4.61281 100 158 134
-0.329613 0.139726 4.34531 177 230 220
-0.31555 0.146186 4.3476 79 105 92
-0.257141 0.166395 4.36356 154 218 206
-0.197991 0.167826 4.3696 109 164 147
-0.168496 0.177695 4.37574 100 175 159
0.00997362 0.180285 4.37532 176 246 216
1.51439 0.18759 4.5186 119 182 173
-1.8091 0.177575 4.17905 101 154 141
-0.265733 0.188084 4.35987 167 212 209
0.903659 0.192383 4.44894 72 124 114
-1.64872 0.185217 4.21103 156 192 180
-0.00790014 0.191675 4.37263 146 207 181
0.0098203 0.194968 4.36737 160 235 213
-1.6708 0.19314 4.20486 92 133 118
-0.0576873 0.207821 4.38034 163 237 195
1.05474 0.209869 4.45621 112 168 163
1.91309 0.214532 4.56385 88 172 138
-0.262165 0.207763 4.34967 68 85 76
1.2986 0.218427 4.50231 123 187 182
2.16239 0.232099 4.60122 118 196 172
0.464572 0.226969 4.41658 62 101 85
0.561208 0.226538 4.4231 118 174 153
-1.09575 0.223606 4.28866 90 137 128
-0.768493 0.221571 4.27224 74 122 104
-0.255578 0.226892 4.35717 53 85 68
-0.250426 0.235444 4.35867 159 187 181
0.0400488 0.234768 4.36608 79 106 97
0.310472 0.235284 4.41834 83 103 104
0.793559 0.241803 4.4223 79 105 99
-1.15869 0.235298 4.27101 147 212 190
-0.943829 0.236515 4.29858 56 99 90
1.88934 0.251205 4.55387 109 183 157
-2.57776 0.230769 4.10044 86 129 120
-1.39481 0.244588 4.25642 84 121 111
1.06449 0.257108 4.46749 120 184 178
1.3926 0.269182 4.51605 107 167 161
1.88713 0.272541 4.55992 112 194 171
-0.31512 0.261827 4.36722 125 154 145
-1.29281 0.257808 4.27073 155 209 202
-1.15537 0.260032 4.26203 164 204 209
1.97008 0.277532 4.57058 149 241 212
1.90957 0.282079 4.56192 89 163 137
-0.943334 0.266168 4.30595 76 124 126
-0.152946 0.278483 4.37769 81 137 118
-1.72611 0.268912 4.21696 129 204 190
-0.188419 0.281551 4.37424 109 162 152
1.88559 0.292478 4.56246 99 173 147
-1.73172 0.274231 4.20913 76 133 112
-1.66703 0.273863 4.21686 81 143 127
0.582265 0.287646 4.41903 99 134 124
-1.96029 0.272511 4.16588 77 117 106
-1.15832 0.278707 4.26242 52 91 83
1.07458 0.298154 4.48462 106 167 163
-0.206376 0.298176 4.38186 174 239 224
0.548353 0.300215 4.4139 175 226 206
1.89022 0.309361 4.56492 89 169 140
2.00934 0.309586 4.58203 102 171 138
-1.14404 0.293792 4.28402 66 92 98
0.325891 0.305117 4.4304 182 233 219
-1.74098 0.297321 4.20302 150 223 207
1.86155 0.324327 4.56187 122 187 172
-1.06754 0.304311 4.2712 162 208 196
1.22682 0.332178 4.50218 111 186 172
-2.34969 0.307346 4.14213 161 230 217
-1.08403 0.317973 4.27746 160 216 203
-1.08999 0.324303 4.28184 108 169 155
-1.24114 0.325191 4.28668 102 164 152
0.0888385 0.339702 4.40324 54 100 77
1.06739 0.347107 4.48378 90 168 161
-1.35676 0.332386 4.26099 90 136 123
-1.05177 0.336405 4.28813 66 99 95
-1.48493 0.337702 4.24553 97 147 135
1.13104 0.357528 4.49034 120 180 179
-1.88828 0.338984 4.20868 134 205 178
-1.52758 0.34026 4.22226 96 123 114
0.0451514 0.351892 4.4048 52 85 71
1.28241 0.363812 4.5073 106 151 134
-1.92637 0.346441 4.20064 104 153 137
-1.66492 0.352661 4.21547 95 150 135
0.958104 0.373276 4.47404 119 177 166
-1.53906 0.357731 4.2356 104 140 128
-1.92925 0.356176 4.20111 174 225 211
-1.76304 0.36072 4.20576 89 133 120
0.263688 0.379249 4.41245 171 225 212
1.87895 0.394287 4.57046 116 185 174
-1.68157 0.367818 4.2349 143 224 197
0.0614138 0.384782 4.39096 57 121 99
-1.97781 0.371077 4.20592 145 188 173
-1.9445 0.371467 4.2056 124 171 155
-1.01179 0.381721 4.30695 148 196 208
0.757844 0.396752 4.45329 120 169 155
0.932147 0.395107 4.4633 116 176 165
1.46544 0.40439 4.54266 110 177 162
0.691435 0.396294 4.4462 106 151 142
-1.89241 0.381689 4.19815 201 235 228
-1.87675 0.380795 4.19943 138 179 164
0.255396 0.401228 4.42195 177 229 212
0.416575 0.402926 4.42185 163 227 205
1.3648 0.41289 4.53232 104 180 162
-1.27262 0.392168 4.27963 95 162 147
0.266429 0.401744 4.41606 83 145 129
0.866 0.408193 4.46423 102 162 152
-1.85276 0.387585 4.22103 79 127 121
-1.79389 0.386438 4.20956 74 98 88
-0.221762 0.404638 4.39334 172 205 201
0.712348 0.417341 4.45477 103 138 128
0.917825 0.420333 4.48061 72 128 115
-1.90914 0.399184 4.21188 55 82 62
-1.8882 0.398014 4.20113 164 216 198
-1.62898 0.404901 4.23574 76 122 103
0.850976 0.425474 4.46275 118 177 162
0.891709 0.428011 4.47029 91 140 124
0.666362 0.430993 4.45309 91 128 108
0.950188 0.432663 4.48439 88 140 133
1.28502 0.438084 4.52147 123 175 165
-1.33059 0.416898 4.27646 149 216 185
-1.19902 0.420982 4.29997 70 112 105
0.318363 0.437172 4.42027 90 149 129
-1.59071 0.423111 4.24554 168 228 218
0.296843 0.444398 4.42917 76 126 102
-1.55972 0.428327 4.24881 93 148 133
1.66282 0.457582 4.56078 113 165 155
0.367951 0.448902 4.42045 169 223 210
0.524749 0.454999 4.44098 98 130 125
2.37994 0.473456 4.63444 104 163 148
-1.91409 0.435325 4.20571 52 82 69
0.764328 0.461311 4.45201 150 209 189
1.6832 0.468848 4.55322 119 173 156
1.61538 0.473336 4.55672 91 146 137
-1.29511 0.451588 4.29567 68 94 88
0.629295 0.463837 4.44591 130 204 170
-0.604195 0.449578 4.26221 58 104 82
0.402466 0.469168 4.43331 92 122 109
0.542467 0.469028 4.41272 63 102 77
1.9551 0.487256 4.57447 80 148 125
-1.33497 0.457018 4.28668 69 115 103
0.519001 0.474228 4.42331 90 116 98
-1.38162 0.463774 4.28032 77 122 105
0.78555 0.484996 4.46401 114 173 159
-0.716088 0.46261 4.24342 112 164 154
-1.37003 0.473333 4.2805 134 204 181
1.10914 0.49856 4.50307 88 138 126
1.82366 0.507243 4.57504 77 135 107
1.85019 0.509016 4.582 130 185 168
1.02115 0.498894 4.47332 99 142 131
1.96934 0.509528 4.58764 72 137 112
1.9765 0.510684 4.592 98 165 138
0.393212 0.495594 4.43435 69 134 112
2.31247 0.518406 4.6317 102 164 142
-1.30663 0.484163 4.29991 142 195 182
-0.24283 0.488472 4.33901 80 129 115
0.650944 0.503131 4.45558 108 177 157
1.50955 0.51201 4.55132 116 179 163
0.308433 0.501144 4.42286 165 231 202
-1.14771 0.492381 4.31612 145 205 205
0.537469 0.504617 4.44103 55 92 76
-1.3976 0.488486 4.27408 146 200 187
0.734858 0.512564 4.46457 182 229 220
0.306972 0.511963 4.43192 90 125 105
1.84659 0.526872 4.57285 71 128 107
-1.62043 0.490679 4.24315 171 231 213
-1.24858 0.501515 4.30571 85 106 98
0.19745 0.516294 4.42598 59 105 93
-1.65083 0.496663 4.2445 172 241 221
1.96334 0.536717 4.59313 106 159 139
0.650511 0.52656 4.46348 100 145 136
1.26979 0.533788 4.52712 91 156 141
1.66564 0.537666 4.5582 108 167 146
-1.15917 0.512718 4.32316 142 200 195
0.847912 0.529203 4.47338 89 128 120
1.80247 0.541146 4.57206 102 183 150
0.360659 0.529665 4.43147 68 129 109
-1.53999 0.516037 4.261 151 207 196
-1.23344 0.520019 4.29812 110 148 142
0.0135291 0.529869 4.40918 77 124 102
0.317701 0.535314 4.4424 178 227 219
1.42642 0.547491 4.54629 109 169 159
1.55139 0.550053 4.55281 78 157 138
1.25824 0.552062 4.52206 99 172 150
1.11977 0.548131 4.4982 76 142 123
0.328282 0.548698 4.44055 154 210 187
0.650256 0.548467 4.45695 115 154 146
-1.34289 0.528384 4.26689 85 120 106
1.06469 0.561012 4.50092 106 159 146
-1.86121 0.533672 4.2143 64 86 92
0.948817 0.56813 4.49007 161 216 197
0.319378 0.564233 4.43693 105 146 118
2.1411 0.58843 4.61639 98 141 120
0.0710491 0.567564 4.43448 170 228 217
-1.86253 0.540086 4.21389 75 101 107
0.352854 0.570548 4.45006 175 229 216
-0.353807 0.555675 4.31661 96 131 111
0.639765 0.580813 4.45773 91 121 110
-1.01717 0.5638 4.30446 89 149 148
-0.363603 0.567617 4.30022 120 148 135
0.627269 0.588074 4.46929 140 179 164
1.34357 0.59552 4.53805 79 141 127
2.06156 0.606624 4.60685 99 178 139
-1.87616 0.561901 4.22838 69 93 81
-1.30545 0.567502 4.28511 130 207 186
1.51552 0.604566 4.55319 100 170 157
2.15808 0.621109 4.6266 113 172 141
1.80175 0.614313 4.57789 102 181 148
0.738 0.607892 4.47505 88 141 121
1.16523 0.614033 4.52007 118 179 159
1.30696 0.617033 4.54114 106 181 167
-1.62008 0.582769 4.26044 142 205 185
-1.11133 0.599277 4.32168 131 191 183
0.676082 0.616661 4.47649 82 112 99
0.942658 0.623053 4.48778 167 228 200
1.47003 0.633097 4.55506 95 173 156
-1.27868 0.601834 4.30233 50 77 68
-1.25199 0.603909 4.31034 142 193 179
-1.81413 0.60247 4.25602 95 103 102
-1.79421 0.599266 4.24505 195 224 229
-1.01326 0.604721 4.29878 54 80 86
-1.09179 0.615302 4.34151 54 101 98
0.263264 0.626421 4.39006 163 235 199
0.618863 0.638896 4.45462 85 120 106
1.75582 0.659515 4.58324 105 176 156
2.27878 0.668418 4.63834 106 161 128
0.402639 0.644468 4.44697 150 201 194
-1.18088 0.627254 4.3265 55 96 88
1.65523 0.665732 4.57185 126 188 172
-1.86734 0.619213 4.23569 86 113 109
-0.0932365 0.647044 4.42965 87 134 125
-0.199001 0.646689 4.41007 45 66 57
-1.23789 0.641396 4.31431 139 197 186
-1.7899 0.639558 4.24903 143 195 178
0.99238 0.685364 4.50253 76 124 100
2.37122 0.71224 4.66147 106 151 134
2.34396 0.714854 4.64513 103 164 138
-1.23024 0.667644 4.31676 45 91 78
-1.77275 0.660033 4.25153 154 228 204
-1.49427 0.663431 4.27792 81 123 116
-1.23176 0.670197 4.32337 54 103 89
-2.02729 0.65921 4.22333 134 176 165
0.513747 0.698678 4.46192 76 102 89
2.22923 0.727486 4.63637 92 138 115
0.799263 0.70761 4.4884 65 108 95
1.35883 0.716846 4.55186 119 184 169
0.667791 0.708331 4.48386 94 152 124
-0.119703 0.699981 4.40968 138 202 172
-1.77639 0.678501 4.2719 64 100 86
-2.04128 0.678342 4.23471 133 168 158
-1.72836 0.684999 4.26386 70 102 91
-1.63696 0.683572 4.25514 124 157 150
0.381014 0.709581 4.43569 178 241 199
-2.06449 0.684378 4.24284 88 110 108
0.929582 0.724238 4.49887 96 167 150
-1.808 0.687693 4.24111 101 128 125
-0.204973 0.708842 4.3648 51 104 90
2.37882 0.760681 4.65733 94 166 136
-1.26476 0.713189 4.31868 124 181 166
-1.2202 0.713887 4.32676 92 137 118
-1.19746 0.720925 4.31973 61 106 89
-1.80391 0.712636 4.24633 86 130 113
0.600936 0.756155 4.48561 90 129 113
1.13599 0.761231 4.53924 94 152 127
1.94048 0.771993 4.60039 82 121 105
-1.02458 0.735976 4.35085 85 138 129
0.62489 0.75814 4.49331 101 158 143
1.23501 0.768569 4.54638 88 150 132
-1.85471 0.719763 4.25586 124 186 172
-1.05396 0.737731 4.35096 157 221 215
0.449109 0.759306 4.46131 160 209 195
2.28325 0.792266 4.6536 112 182 152
-1.03563 0.741657 4.34738 158 221 211
1.15095 0.774262 4.53389 169 238 211
1.2067 0.779148 4.54124 179 245 216
0.657064 0.773576 4.49173 73 113 95
2.07238 0.795518 4.60968 92 145 125
-1.27172 0.745094 4.30633 156 227 210
0.607434 0.779197 4.48413 109 159 135
0.762569 0.780069 4.50026 100 147 139
0.787399 0.779252 4.48831 118 174 155
1.20839 0.78253 4.52734 93 126 105
0.0425871 0.774254 4.44794 67 105 99
0.613374 0.788109 4.49431 64 90 67
0.67568 0.791509 4.49726 173 241 216
-1.93027 0.754271 4.25944 145 209 174
1.07463 0.79959 4.52607 92 158 133
1.15074 0.799314 4.52547 150 231 184
1.52528 0.808766 4.58159 99 171 159
-0.0817397 0.789836 4.45515 79 124 105
-1.90358 0.758373 4.26686 180 237 222
-0.11242 0.790896 4.43863 58 97 81
0.385116 0.792779 4.46086 90 121 114
0.648114 0.800445 4.4947 152 217 185
0.670691 0.799729 4.49816 74 120 107
-1.29254 0.779158 4.32298 72 106 96
-1.1003 0.789387 4.36162 97 124 120
-0.136001 0.801903 4.43011 147 210 184
-1.27717 0.782261 4.3039 172 225 215
0.431011 0.82153 4.48504 176 230 213
0.769149 0.823609 4.50098 108 168 150
1.37341 0.835911 4.57378 89 176 162
-1.15626 0.800182 4.35131 76 117 109
-0.0286094 0.818395 4.45462 100 159 138
0.52964 0.825265 4.48304 156 183 163
0.624458 0.826308 4.49252 168 243 205
0.667973 0.829219 4.49332 111 166 149
-1.85432 0.793873 4.28476 144 213 186
-0.187366 0.820753 4.43585 66 106 95
1.20403 0.84125 4.54838 95 153 128
0.447541 0.832776 4.48633 98 145 142
1.12036 0.847911 4.54301 104 165 129
1.52187 0.858458 4.59283 206 251 242
2.2646 0.870408 4.66538 109 181 159
0.778053 0.841418 4.49846 183 223 211
1.36303 0.853681 4.56684 94 151 142
1.8113 0.861981 4.60238 98 164 139
-1.31102 0.810329 4.32076 71 123 106
-0.209452 0.833133 4.44115 137 206 179
0.253 0.83443 4.44672 93 143 131
0.769289 0.845291 4.49887 80 116 100
2.15151 0.876777 4.64664 87 146 125
-1.83853 0.808887 4.27546 82 144 128
0.356927 0.84644 4.46385 75 111 95
0.807248 0.848574 4.48999 111 149 149
-0.560612 0.837344 4.40582 172 241 221
0.376334 0.85255 4.47043 65 105 80
0.753596 0.85599 4.49978 87 138 110
1.09738 0.867085 4.53941 94 161 134
-1.65884 0.821978 4.28811 127 167 165
0.774545 0.861131 4.5096 55 130 92
0.426858 0.862391 4.48707 76 110 99
2.00548 0.890767 4.6418 85 151 132
-1.73141 0.820709 4.27243 86 129 120
1.22681 0.885071 4.56558 102 144 133
2.15396 0.899679 4.64092 117 175 150
0.145018 0.866839 4.47155 127 152 154
0.599099 0.872146 4.48877 59 104 71
0.684643 0.875708 4.50578 98 130 111
0.867115 0.876925 4.51393 112 173 159
0.122222 0.867438 4.45967 165 207 190
0.368708 0.866517 4.46311 109 160 132
1.11387 0.884096 4.54357 113 178 153
0.581973 0.87402 4.4862 68 123 96
0.142348 0.878336 4.47105 155 199 193
0.424476 0.87436 4.47492 80 134 105
0.553745 0.874835 4.47886 150 227 183
1.18409 0.891232 4.55133 89 135 116
0.59896 0.884794 4.4873 163 218 203
0.67367 0.887874 4.50585 89 110 101
1.14555 0.893007 4.53892 83 134 100
0.40561 0.884259 4.46315 90 150 120
1.71616 0.911171 4.60976 107 182 166
1.78553 0.912229 4.60999 100 162 140
2.06981 0.921271 4.64906 103 158 141
0.644111 0.894091 4.50382 45 78 64
0.868278 0.901026 4.51219 102 147 131
2.02951 0.926155 4.6414 109 174 149
0.0755406 0.89227 4.45325 162 215 182
0.200687 0.894239 4.46079 70 123 109
0.90585 0.908734 4.51656 99 154 145
0.933165 0.907198 4.51337 94 160 149
0.496652 0.90945 4.50482 160 222 206
0.760292 0.908356 4.50366 153 223 186
1.16199 0.918728 4.56026 97 162 130
-1.83163 0.870817 4.29171 109 166 157
-0.063167 0.901581 4.45882 78 134 121
-0.0176839 0.903133 4.46035 109 162 148
0.441964 0.912949 4.49428 80 129 121
-0.20752 0.904544 4.43865 101 154 144
0.0569943 0.910161 4.46199 69 124 105
0.0323316 0.908153 4.45673 87 120 113
0.400343 0.921696 4.49176 84 130 118
-1.22131 0.896132 4.34486 164 226 212
0.409543 0.923933 4.49135 177 223 217
0.9146 0.93062 4.52032 97 172 158
-0.917303 0.906243 4.38509 78 131 128
-1.4464 0.889494 4.30015 73 110 94
0.50314 0.930722 4.49404 84 149 117
0.626594 0.933747 4.50403 170 229 208
-0.833922 0.914138 4.38702 86 153 146
-0.0801871 0.930469 4.46546 83 127 114
0.407325 0.933232 4.48839 99 114 110
0.666125 0.934663 4.48272 105 158 145
1.1083 0.946495 4.54732 87 148 138
0.376429 0.939201 4.48845 121 153 148
0.734006 0.942159 4.50946 85 106 104
0.612429 0.942656 4.49778 157 232 204
-0.60797 0.926656 4.40736 151 222 205
0.910701 0.952992 4.52254 65 122 114
-1.21917 0.921001 4.35073 152 226 202
0.116164 0.947734 4.4818 148 210 192
0.956802 0.96336 4.53325 93 147 134
-0.972079 0.934356 4.3822 103 168 159
-0.566825 0.943761 4.41934 85 134 120
-0.190608 0.957949 4.46194 75 127 109
-0.135694 0.955245 4.45406 62 135 119
1.77636 0.989464 4.61705 74 145 118
-1.4885 0.927647 4.30871 82 106 96
-1.47524 0.924945 4.30096 143 183 171
-1.46921 0.928245 4.30687 69 106 96
2.03855 0.997788 4.63456 103 163 132
0.525634 0.969428 4.48923 84 114 95
-1.64959 0.936912 4.30586 83 158 144
-1.22646 0.947438 4.35052 154 218 196
-0.647294 0.960055 4.41384 79 133 120
-0.549966 0.964145 4.42784 84 146 132
-0.217682 0.971201 4.45132 142 207 191
-0.206216 0.975841 4.46136 88 122 105
1.32526 1.00157 4.5841 216 250 250
2.2425 1.02094 4.67506 94 157 118
2.26361 1.02435 4.68484 218 246 226
1.83553 1.01377 4.61708 97 173 155
-1.22657 0.957617 4.35286 91 128 120
2.17694 1.02448 4.65683 93 156 130
-0.135184 0.984761 4.45266 89 142 128
2.06315 1.03185 4.6488 109 161 143
-0.457884 0.98877 4.44074 106 157 150
0.948539 1.00482 4.52454 95 175 146
-1.58683 0.961945 4.31139 164 225 211
-1.11218 0.978393 4.3837 65 110 94
-0.015775 0.998079 4.46531 169 239 216
0.00577859 1.00017 4.47298 145 217 205
-0.501503 0.994811 4.42235 67 100 86
0.112451 1.00683 4.48187 77 117 116
0.720151 1.0142 4.51491 109 160 146
2.23891 1.06158 4.67802 78 142 120
-0.938214 1.00009 4.39418 87 147 139
-0.585972 1.00357 4.41962 98 153 144
-0.347609 1.01081 4.45438 76 126 116
0.535668 1.02394 4.49903 87 134 118
1.02258 1.03541 4.541 107 160 140
-1.40787 0.990853 4.3285 150 194 187
0.489809 1.03128 4.5029 84 113 104
1.21607 1.04779 4.58287 86 158 146
0.6218 1.03426 4.50794 105 167 145
-0.426029 1.02093 4.44623 162 222 204
-0.188786 1.02615 4.46063 154 210 199
-0.41323 1.02238 4.40821 89 151 135
-0.0855737 1.03806 4.47777 73 144 127
0.584904 1.04484 4.51503 172 221 207
0.6065 1.0432 4.50775 93 152 132
0.748294 1.04756 4.51669 141 203 185
-0.372122 1.03268 4.44424 98 163 148
1.12357 1.06023 4.5692 99 168 147
2.13727 1.08345 4.65927 95 160 135
0.44565 1.04795 4.49877 96 151 132
2.01094 1.08951 4.65859 93 171 147
2.14374 1.0892 4.67213 104 165 145
0.516372 1.05318 4.49897 85 108 100
-0.725339 1.03765 4.41426 169 234 225
0.544227 1.0575 4.50248 84 114 109
1.18807 1.0764 4.5787 79 152 136
0.525994 1.06321 4.50739 148 208 184
0.811347 1.06329 4.50495 93 144 130
2.29997 1.10609 4.69758 86 160 134
2.14249 1.10681 4.67079 83 158 137
-1.17706 1.03787 4.36942 138 220 201
-0.165771 1.06022 4.46635 79 143 124
-0.665665 1.05356 4.42408 145 218 210
0.528297 1.07383 4.50137 112 156 139
-1.11217 1.04746 4.36621 84 168 140
-0.0833097 1.07498 4.47816 181 243 225
-1.75517 1.03219 4.29845 84 128 115
-0.0881657 1.07479 4.48063 147 231 203
0.62236 1.08336 4.5172 89 152 132
0.984356 1.09239 4.54667 162 246 198
1.73117 1.11284 4.63789 92 164 151
0.191349 1.08448 4.4931 81 149 148
0.224303 1.08453 4.50411 123 167 166
-0.691107 1.06707 4.42252 117 196 185
2.08264 1.12943 4.67427 98 150 132
-0.514655 1.06905 4.41975 95 141 129
0.255295 1.09233 4.5044 88 140 123
-0.447256 1.08153 4.43782 84 119 115
0.0870597 1.08959 4.48509 64 107 94
0.483674 1.09082 4.48475 97 122 118
-0.468369 1.08021 4.43156 112 155 144
0.0478386 1.09425 4.4845 60 103 94
-0.664597 1.08577 4.4237 154 226 226
-1.15035 1.07722 4.38199 85 160 146
1.55984 1.13837 4.62257 97 175 158
-0.402746 1.09221 4.43666 64 108 91
0.544208 1.11036 4.49673 79 118 96
0.975672 1.12334 4.55295 108 192 168
1.01873 1.12747 4.56607 166 228 210
-0.148722 1.11278 4.49043 174 234 226
-1.10714 1.08849 4.38719 146 199 186
0.307372 1.11729 4.50277 116 176 168
-0.0118698 1.11936 4.48008 95 129 123
-0.0531262 1.12734 4.47921 179 237 219
0.62178 1.13556 4.52024 85 128 113
0.86844 1.14266 4.54377 127 187 181
-1.1491 1.1028 4.37646 157 213 202
0.703221 1.13612 4.51837 132 184 177
-0.0668306 1.13304 4.47655 78 86 76
0.0141459 1.13355 4.48321 67 109 102
-0.70967 1.12132 4.43058 80 136 123
0.937143 1.15421 4.55561 105 177 155
0.571863 1.14706 4.51537 127 169 158
0.0673229 1.14407 4.4832 72 128 117
-0.674878 1.1334 4.42714 149 210 206
1.07694 1.17584 4.58182 108 177 162
-0.46932 1.13693 4.44066 67 102 92
-0.31143 1.14573 4.46081 101 167 148
1.10371 1.1872 4.58672 187 251 229
1.00789 1.18562 4.56897 91 151 140
1.67176 1.2031 4.64953 77 162 147
0.340764 1.17907 4.51811 99 161 147
0.0519876 1.17633 4.4854 67 123 104
0.746937 1.19211 4.55256 130 182 175
0.356017 1.18939 4.5182 128 181 172
0.0250232 1.18312 4.48151 68 99 92
-0.138438 1.18299 4.46981 100 147 139
0.33581 1.19909 4.51827 172 230 219
0.360861 1.19627 4.50812 168 236 219
0.346428 1.20281 4.52525 101 141 139
0.296143 1.20375 4.50475 90 156 144
-0.256352 1.20289 4.47651 60 125 110
1.00344 1.22635 4.56569 96 159 139
1.0574 1.23892 4.59185 96 156 138
2.16197 1.27102 4.70786 117 182 166
-1.91894 -1.83658 3.93818 96 158 152
-2.23223 -1.79128 3.89058 170 223 213
-1.99036 -1.80134 3.94476 72 119 111
0.209438 -1.92316 4.24626 135 197 185
-0.253473 -1.89653 4.19073 121 153 159
-0.792623 -1.8527 4.11923 124 177 167
-2.0196 -1.76757 3.93718 148 188 183
-1.9996 -1.76574 3.94733 148 208 200
0.115255 -1.89488 4.25169 137 176 174
-0.166672 -1.86515 4.20411 138 175 171
0.0290162 -1.85078 4.23619 97 137 125
-2.05205 -1.72279 3.95392 128 177 179
-0.0753749 -1.82482 4.18841 101 119 112
-1.47209 -1.74105 4.02006 105 140 144
-0.178541 -1.80852 4.21333 127 177 175
-1.6915 -1.71367 3.99709 105 161 156
-0.838309 -1.76423 4.12318 131 195 183
-2.09025 -1.67031 3.93087 92 138 132
-0.933169 -1.72789 4.10079 42 43 39
-1.54742 -1.6773 4.01606 75 149 137
-0.936935 -1.72027 4.10914 125 163 151
0.0397006 -1.77303 4.23879 228 253 255
-1.93017 -1.65525 3.97026 107 163 152
-1.55657 -1.67155 4.01391 150 218 207
0.0970999 -1.76016 4.2589 141 187 175
-1.78224 -1.64253 3.98295 113 160 152
-1.08073 -1.61842 3.92112 78 112 95
-0.877222 -1.69974 4.12575 84 139 130
-1.40288 -1.64692 4.0291 98 118 136
-1.13488 -1.59294 3.91927 148 216 193
-1.56022 -1.62797 4.02086 88 128 123
-0.974217 -1.62816 4.07593 143 218 186
-1.55221 -1.59788 4.01903 91 151 141
-1.12554 -1.55994 3.93233 68 105 97
-0.234756 -1.66423 4.20995 97 152 143
0.0746489 -1.67602 4.24654 103 126 121
-1.14705 -1.54017 3.93612 71 118 110
-0.129029 -1.64447 4.23305 127 178 174
-2.0347 -1.52317 3.97072 112 146 145
-0.612153 -1.59089 4.16371 105 145 134
-0.0950286 -1.61441 4.23089 170 220 220
-0.734808 -1.57498 4.14447 77 149 136
-1.62109 -1.5075 4.02049 172 234 228
-1.48962 -1.5045 4.0479 103 160 152
-0.419498 -1.54976 4.17262 138 174 162
-1.85791 -1.48321 4.00193 90 134 127
-1.92552 -1.47576 3.9907 93 136 133
-1.8348 -1.46346 3.99924 129 153 159
-0.926706 -1.50343 4.11064 71 113 96
-2.1236 -1.44421 3.95531 93 153 143
-0.337838 -1.52417 4.18808 117 154 144
-1.03904 -1.48516 4.11692 127 205 188
-1.70521 -1.43496 4.01361 106 152 146
-1.69386 -1.43829 4.01911 196 243 235
-0.333133 -1.50095 4.20012 105 144 136
-0.294702 -1.50218 4.20733 172 228 217
-0.175344 -1.50542 4.22299 146 180 173
0.429788 -1.52479 4.28691 121 164 155
-0.853279 -1.4678 4.14669 87 149 137
-0.59816 -1.48065 4.17343 175 236 226
-1.03974 -1.45273 4.12546 86 141 124
-0.363287 -1.4719 4.1728 100 130 119
-0.248902 -1.48971 4.23068 117 165 153
-1.63948 -1.41533 4.04168 167 230 220
-0.942483 -1.42671 4.1336 98 150 133
-1.50992 -1.39245 4.05082 90 156 145
-0.290351 -1.43774 4.2023 113 150 140
0.237664 -1.45979 4.27167 112 155 142
-1.08686 -1.40248 4.11471 74 116 93
-1.06803 -1.396 4.12853 85 147 135
-0.881009 -1.40374 4.16559 73 125 115
-0.699518 -1.40115 4.16832 193 246 232
-0.0727327 -1.42458 4.2491 128 181 178
-0.420183 -1.40131 4.19769 117 156 148
-0.715815 -1.38276 4.15647 134 177 164
-0.716908 -1.36664 4.16898 160 221 207
-1.82192 -1.30937 4.01174 106 129 124
-2.38469 -1.2707 3.91542 138 208 191
-0.688764 -1.35392 4.1639 92 140 122
-1.8103 -1.29533 4.01915 74 108 107
-1.61761 -1.30581 4.05463 96 126 115
-0.582744 -1.34509 4.18438 72 126 113
-0.198518 -1.36936 4.26087 100 145 136
0.755512 -1.39491 4.34134 102 168 157
-1.45679 -1.29649 4.06346 73 110 100
-0.732766 -1.31418 4.14385 200 232 231
-0.594869 -1.32399 4.18909 99 136 126
-1.2826 -1.28918 4.08937 108 122 121
-1.15327 -1.29634 4.11006 139 186 183
-0.695328 -1.30192 4.15492 151 221 198
0.157082 -1.34136 4.28582 113 170 169
-1.4488 -1.26478 4.06299 87 118 115
0.54222 -1.34097 4.30656 98 151 141
-1.31066 -1.27079 4.0932 91 142 135
1.22031 -1.36127 4.38214 138 184 178
-0.773624 -1.27675 4.13374 130 162 157
-0.694918 -1.28648 4.17309 89 124 114
-2.00457 -1.22754 3.99104 154 229 213
-1.64366 -1.23446 4.01529 165 208 199
-0.548932 -1.285 4.19257 80 126 113
-0.249527 -1.29396 4.23191 98 137 122
-2.27547 -1.20607 3.95074 111 171 161
-0.152695 -1.28382 4.24633 102 171 151
-0.193433 -1.27213 4.22537 97 140 129
-1.88164 -1.19079 4.00579 177 226 218
-1.53243 -1.20358 4.04825 161 208 199
-0.488067 -1.23366 4.16312 100 152 142
0.899646 -1.28432 4.36119 138 184 185
-1.06578 -1.21267 4.13591 133 185 178
-1.70884 -1.17718 4.03727 123 157 150
-0.563304 -1.22142 4.19047 92 126 116
0.615718 -1.25814 4.32201 136 184 178
-1.89229 -1.15845 4.01074 106 166 156
-1.43122 -1.17004 4.07374 101 159 148
-0.653792 -1.19387 4.17813 87 124 116
-1.36744 -1.16877 4.10223 94 155 141
-0.66812 -1.19175 4.17181 196 225 229
-1.24642 -1.17003 4.12407 134 162 156
-1.87777 -1.1264 4.02863 102 155 146
-0.121349 -1.17307 4.25672 98 147 139
-1.2838 -1.12697 4.10533 110 167 158
0.71582 -1.18674 4.34946 118 181 171
-1.44645 -1.1105 4.09036 109 146 138
-0.583721 -1.13029 4.20046 98 141 120
-1.58919 -1.08376 4.06173 106 127 124
-1.1612 -1.10404 4.13594 249 255 254
-0.162926 -1.12594 4.23351 183 220 216
-1.57391 -1.0767 4.07184 185 224 216
-0.599543 -1.10985 4.19282 68 118 88
-1.28158 -1.08663 4.11738 201 240 238
-0.786551 -1.09769 4.16742 93 124 117
-1.37256 -1.07513 4.10009 206 250 243
-1.60743 -1.06415 4.06654 124 155 146
0.175655 -1.12347 4.29664 125 163 151
0.480664 -1.13048 4.32404 105 167 161
-1.05348 -1.07709 4.14211 100 155 140
-0.551352 -1.09744 4.20927 198 224 230
-0.589676 -1.08831 4.2013 68 103 93
-0.775669 -1.07927 4.18701 98 122 112
-0.039385 -1.09541 4.25899 89 127 115
-1.84602 -1.0305 4.04958 57 109 91
-1.25311 -1.03846 4.12133 112 145 138
-0.687011 -1.04912 4.19002 101 134 130
-0.137015 -1.065 4.26392 142 213 196
0.557977 -1.08255 4.3241 214 252 252
-2.15821 -0.995561 4.00045 88 125 115
-2.14982 -0.991492 4.00484 137 190 176
-1.36983 -1.01536 4.10499 85 117 106
0.0959905 -1.06131 4.28768 81 150 135
-2.13555 -0.987255 4.00517 105 132 129
-0.0889148 -1.05005 4.25753 108 160 150
-1.26243 -1.01329 4.12198 101 148 139
-0.665594 -1.02445 4.18382 205 237 232
-0.967294 -1.01618 4.16627 111 162 154
0.015024 -1.04039 4.2846 160 222 208
-1.14305 -0.980059 4.13806 96 110 106
-0.34744 -0.997964 4.2127 108 139 148
-1.29712 -0.971107 4.1097 86 128 117
-1.58485 -0.962997 4.08494 111 137 137
-1.24794 -0.970221 4.13822 127 193 181
-0.943206 -0.98052 4.17619 179 219 214
-0.365011 -0.989166 4.21661 92 117 127
-0.728809 -0.98074 4.19585 86 141 124
0.655733 -1.01419 4.34891 78 104 91
-1.41081 -0.952159 4.09458 70 98 92
-0.353224 -0.978323 4.21586 196 226 231
-0.736894 -0.966081 4.19069 178 228 218
0.69999 -1.00508 4.35242 97 177 164
-0.166116 -0.978581 4.26823 180 233 230
0.635521 -0.991423 4.31752 87 142 123
-0.927779 -0.950337 4.18066 159 214 205
-0.21945 -0.966392 4.23579 69 114 98
-0.554599 -0.956567 4.22496 163 221 203
-0.331928 -0.944954 4.22905 188 227 225
-1.27688 -0.919023 4.13785 104 158 145
-1.0126 -0.925505 4.1599 122 165 152
-0.973572 -0.91952 4.16175 160 198 186
-0.5283 -0.932896 4.21838 60 97 87
-0.194657 -0.940275 4.25681 89 145 132
-2.15207 -0.880164 3.99995 121 167 155
-0.560347 -0.927742 4.21285 155 216 202
-1.77235 -0.889989 4.05777 97 170 160
-1.16304 -0.905353 4.15648 95 130 120
-0.482035 -0.921036 4.23157 192 232 230
-1.30556 -0.889226 4.11657 173 227 210
-0.552344 -0.899348 4.20474 165 231 196
-0.254564 -0.90659 4.25251 107 144 142
-1.12897 -0.879687 4.16396 170 228 223
-1.06177 -0.870282 4.14982 72 98 84
-0.585122 -0.891604 4.23446 194 235 230
-0.270803 -0.888122 4.25112 177 229 219
-1.04502 -0.863675 4.16116 151 185 178
-0.928001 -0.867922 4.18961 185 235 225
-0.827484 -0.870826 4.1918 181 207 213
-2.16029 -0.825651 4.00168 135 196 176
-1.05991 -0.850273 4.13935 77 114 98
-2.13786 -0.820038 4.00597 126 191 176
-0.998239 -0.844061 4.17399 102 113 110
-0.486817 -0.858091 4.22512 115 165 153
-0.00444509 -0.86451 4.28587 81 134 124
-0.554956 -0.84887 4.22439 163 223 205
-0.220697 -0.861633 4.27011 95 144 122
0.139106 -0.866254 4.3078 78 141 131
-0.56113 -0.84846 4.23654 157 225 208
-0.541014 -0.844687 4.21862 72 109 99
0.273198 -0.862581 4.31223 91 160 145
-1.6974 -0.814083 4.07995 67 112 103
-0.219996 -0.847179 4.27213 170 229 209
-2.15982 -0.78465 4.00453 64 109 83
-0.934806 -0.821171 4.1719 126 169 154
-0.371707 -0.832196 4.22928 83 139 116
-2.02921 -0.78833 4.04757 107 160 150
-1.2732 -0.811778 4.15642 117 160 149
-1.22759 -0.80523 4.11937 97 143 137
-0.997021 -0.80951 4.1533 147 186 178
-0.405091 -0.827856 4.23944 74 121 95
-2.16254 -0.774025 4.00427 158 205 179
-0.546866 -0.811886 4.21011 70 106 100
-1.65486 -0.786274 4.07713 88 131 122
-1.29974 -0.791232 4.13289 72 109 99
0.693754 -0.833877 4.35327 197 244 241
-2.15447 -0.76005 4.00572 62 88 72
-2.14342 -0.758813 4.00704 161 219 201
-0.934096 -0.791058 4.19179 77 100 95
-0.378775 -0.796851 4.25223 96 143 134
-2.16593 -0.747012 3.99609 89 120 111
-2.11174 -0.745306 4.0246 62 107 91
0.765582 -0.793075 4.3428 119 146 142
0.476037 -0.77257 4.32736 94 136 135
-2.18592 -0.712487 4.01036 104 129 119
0.0748332 -0.761165 4.29276 95 132 112
-2.16295 -0.704984 4.01487 94 118 108
-2.03831 -0.705841 4.05756 147 209 197
-0.453486 -0.739011 4.24177 187 234 226
0.0368665 -0.74834 4.29931 115 157 150
-2.15749 -0.697211 4.01368 153 211 182
-0.0156583 -0.735119 4.28026 114 163 141
-2.39492 -0.666686 3.97139 133 196 170
-0.309286 -0.717884 4.2593 183 252 232
-0.670762 -0.703568 4.21662 95 151 140
-2.13726 -0.662378 4.01288 100 134 123
0.0600533 -0.701899 4.30234 90 140 130
-0.55762 -0.685109 4.23468 107 141 134
-2.25416 -0.646557 4.01219 60 99 78
-0.00857243 -0.692492 4.29339 69 85 74
0.0342375 -0.689097 4.28234 75 94 91
-2.3814 -0.61279 3.97412 66 83 72
0.137609 -0.66254 4.31023 180 226 213
-0.402296 -0.648904 4.25457 79 131 114
0.0492256 -0.653654 4.30505 150 200 190
-1.63308 -0.618675 4.09541 92 150 132
0.777714 -0.657952 4.38132 90 161 141
-0.42183 -0.63745 4.25351 183 239 216
0.446778 -0.650119 4.34852 93 140 124
0.046445 -0.640357 4.31034 99 152 132
0.199263 -0.641196 4.31976 88 150 138
0.0335648 -0.63644 4.31316 146 204 180
-0.4244 -0.624198 4.25782 90 130 118
-2.39128 -0.57832 3.96219 163 220 189
-2.13351 -0.584514 4.03395 75 111 97
-0.00214864 -0.61791 4.27815 82 118 102
-0.346137 -0.616542 4.2646 121 192 175
-0.20818 -0.613505 4.28183 73 105 104
0.852468 -0.628908 4.38635 111 144 130
-0.776715 -0.604475 4.20968 94 134 123
-0.808591 -0.597939 4.21307 79 108 92
-0.720111 -0.594892 4.20897 112 150 144
-0.529518 -0.593234 4.24818 167 232 217
-0.588296 -0.587065 4.25187 94 147 137
-0.0374923 -0.588927 4.26964 102 143 138
-0.998246 -0.5801 4.1912 147 175 169
-0.711673 -0.579123 4.20646 70 126 107
-0.599041 -0.584805 4.23758 192 238 232
0.461632 -0.602022 4.34613 199 240 235
-0.22566 -0.584418 4.27429 185 217 222
-0.528727 -0.576909 4.2512 86 136 124
-0.888508 -0.566732 4.18789 103 118 110
0.861596 -0.590328 4.38785 129 159 154
-0.837118 -0.563414 4.22311 197 229 228
-0.387861 -0.567619 4.2459 113 153 141
0.0724815 -0.577086 4.31307 70 114 107
-2.04871 -0.540544 4.06975 174 231 223
-1.96015 -0.54285 4.07618 168 209 202
-0.273963 -0.569692 4.26953 208 255 226
-0.195146 -0.567633 4.2696 75 120 104
-0.164927 -0.568886 4.27541 106 125 128
-0.178646 -0.563475 4.26672 167 214 211
1.21773 -0.584232 4.42128 139 190 186
-1.64966 -0.535774 4.11087 106 161 146
-0.149415 -0.559273 4.28448 201 232 231
-2.35487 -0.514453 4.01295 31 42 32
-0.0717275 -0.553236 4.28696 88 142 125
-2.09056 -0.515679 4.04698 152 225 187
-1.9475 -0.514176 4.0604 117 143 130
0.449231 -0.551157 4.3492 87 121 114
-1.92886 -0.511568 4.07293 46 66 53
-1.51059 -0.519136 4.13178 77 157 126
-0.212332 -0.540892 4.27658 91 115 107
0.0659056 -0.543311 4.3298 85 125 114
-0.757076 -0.524114 4.20843 161 224 208
-0.523615 -0.531155 4.25569 107 171 159
-0.280117 -0.533829 4.27471 78 136 107
-0.75623 -0.523606 4.21283 161 215 198
-0.454882 -0.529606 4.27289 125 196 176
-0.61284 -0.521856 4.24168 83 120 110
0.894323 -0.533166 4.36679 183 226 213
-0.29083 -0.515195 4.26694 68 105 85
0.0777125 -0.518472 4.3205 174 225 205
-1.02847 -0.501827 4.20423 92 114 112
-0.348686 -0.507763 4.28008 103 140 130
-0.251728 -0.508626 4.27292 112 152 141
0.407242 -0.515911 4.34826 169 227 209
0.418993 -0.51613 4.34594 86 118 107
-0.625002 -0.49907 4.23218 92 114 109
0.0915542 -0.504102 4.30959 98 113 109
-2.09884 -0.472035 4.05426 163 236 204
-1.90321 -0.46914 4.08137 107 144 134
-0.989198 -0.483161 4.20317 132 199 178
-0.0772814 -0.492072 4.30118 91 134 121
0.105361 -0.497256 4.32164 157 222 197
0.423676 -0.497015 4.33675 185 252 231
-2.07975 -0.459029 4.05663 80 104 94
0.747537 -0.498709 4.38828 196 237 230
-0.75537 -0.475153 4.22261 183 222 214
0.97739 -0.49564 4.40093 112 144 139
-2.17488 -0.443035 4.06516 142 204 180
-0.942702 -0.455402 4.21363 102 144 133
-0.573622 -0.455436 4.25253 78 107 98
1.03458 -0.457031 4.39559 99 136 120
-1.9378 -0.419412 4.08603 146 225 211
-0.952779 -0.428449 4.2336 176 213 205
-0.941523 -0.423161 4.22026 206 240 234
-0.361807 -0.431909 4.27134 180 224 217
0.489027 -0.441773 4.3626 96 139 128
1.17087 -0.444937 4.43918 135 179 172
-0.924729 -0.41226 4.21002 77 124 115
0.694888 -0.430062 4.38298 95 145 121
-1.91479 -0.389244 4.08612 84 137 124
-1.89163 -0.391954 4.08397 104 151 142
-1.8683 -0.388055 4.0963 78 113 103
0.925999 -0.413572 4.38458 103 148 131
-2.13286 -0.384996 4.07588 80 136 123
-0.163648 -0.403785 4.30388 105 163 152
-0.762248 -0.395985 4.25444 173 220 217
-0.236397 -0.395438 4.29474 98 158 148
-0.349379 -0.385859 4.27497 165 241 210
-0.184749 -0.373874 4.29563 73 137 108
-0.0478652 -0.37488 4.29962 153 220 189
-1.89307 -0.352823 4.08934 105 146 141
0.581647 -0.375128 4.36869 91 145 128
-2.00852 -0.341933 4.07627 85 116 109
1.04965 -0.371349 4.40641 111 143 132
-1.95071 -0.343028 4.09497 71 102 95
-0.530641 -0.356838 4.28651 114 176 164
0.244087 -0.363191 4.33348 154 237 198
-1.05394 -0.341639 4.19909 91 125 124
-1.8775 -0.333865 4.09844 114 151 147
0.667143 -0.356085 4.3866 109 132 127
1.04896 -0.351791 4.3888 181 235 206
-1.75853 -0.324988 4.12384 172 222 210
-1.78118 -0.321868 4.12055 91 134 125
-0.570103 -0.336052 4.28222 107 167 156
-0.0805329 -0.337836 4.30952 162 230 207
0.577447 -0.339427 4.35885 197 239 228
-0.39603 -0.321107 4.29292 183 235 228
-1.32201 -0.305806 4.19084 90 152 140
-0.381343 -0.316168 4.29021 58 113 104
-0.363879 -0.305519 4.28293 78 125 109
0.175563 -0.307163 4.34114 120 176 157
0.248057 -0.305619 4.34623 155 229 195
0.190337 -0.303618 4.34769 74 88 76
-0.325429 -0.293043 4.29631 96 155 141
0.769189 -0.299932 4.39478 86 134 128
-0.987932 -0.284984 4.24626 109 164 155
-0.393555 -0.289102 4.28364 162 207 198
-1.08901 -0.277747 4.22286 115 153 158
-2.21384 -0.261125 4.06601 138 184 178
-2.18 -0.262526 4.06841 92 146 129
-1.06142 -0.269351 4.23178 106 151 135
-0.339476 -0.269368 4.29567 79 127 115
1.45717 -0.284513 4.48023 115 171 152
-1.79377 -0.255586 4.12452 96 150 145
1.12275 -0.276145 4.44242 147 188 183
-0.127577 -0.266663 4.32388 76 124 100
0.328031 -0.263532 4.35593 169 236 207
0.372193 -0.260778 4.37321 169 224 209
-0.984464 -0.252678 4.24274 50 92 85
-0.151532 -0.2549 4.29899 88 147 133
0.499777 -0.260079 4.36894 211 244 237
-1.96086 -0.238493 4.11673 143 195 185
0.481614 -0.253976 4.37146 166 222 209
-1.74766 -0.236791 4.13256 113 171 160
-1.28433 -0.238728 4.18567 72 108 96
-0.884939 -0.240937 4.25625 99 148 132
-0.351995 -0.235632 4.29005 92 138 125
0.640618 -0.236501 4.37908 89 113 103
1.34883 -0.243601 4.47473 103 157 140
-1.88656 -0.221941 4.12231 72 107 93
-2.23056 -0.205827 4.07854 87 148 128
-0.102799 -0.214485 4.31758 52 87 73
-0.137786 -0.211694 4.32612 161 210 194
0.0984445 -0.209446 4.30276 153 229 198
-1.67486 -0.197163 4.13114 93 139 127
0.701478 -0.209624 4.38978 83 110 106
-2.06952 -0.189213 4.10372 71 117 104
-2.30601 -0.182761 4.0642 132 200 183
-0.688128 -0.195915 4.26244 77 127 115
0.67717 -0.200269 4.39119 119 147 141
1.20634 -0.19983 4.46711 129 195 184
-1.07532 -0.18727 4.24601 187 237 225
-0.159728 -0.193251 4.31629 77 129 106
-1.87995 -0.180588 4.1354 139 208 195
-0.120855 -0.190486 4.32897 140 172 167
-1.20495 -0.178897 4.22309 74 128 115
0.183595 -0.1786 4.35937 189 233 226
0.185274 -0.178758 4.35848 172 225 212
0.280032 -0.175641 4.37093 81 154 114
-1.23844 -0.165937 4.21219 80 144 125
-2.36563 -0.156703 4.04984 123 184 158
-1.02174 -0.154529 4.24267 110 179 166
-1.87579 -0.145402 4.11512 157 228 218
-1.2625 -0.143118 4.21702 101 154 141
-2.46229 -0.131757 4.05029 135 204 183
-0.37317 -0.142749 4.30867 172 233 223
0.44499 -0.14479 4.37522 48 79 58
0.988683 -0.143348 4.42296 130 154 160
1.98718 -0.146802 4.54822 99 164 132
-0.588864 -0.135218 4.29532 68 147 134
0.374984 -0.138626 4.35928 63 111 93
-0.139285 -0.123013 4.33621 195 246 242
1.23891 -0.126183 4.45437 83 123 112
0.342187 -0.117909 4.36413 65 125 94
1.03397 -0.116482 4.4059 88 117 101
-1.12793 -0.105244 4.24336 93 169 151
1.25917 -0.113516 4.48982 81 114 93
-0.26982 -0.102875 4.33243 97 160 140
-2.00096 -0.0889741 4.12123 106 172 161
-1.00239 -0.0919739 4.25196 173 223 213
-1.34395 -0.0896674 4.21456 87 113 97
-0.808818 -0.0900334 4.27458 87 141 124
-0.148886 -0.0924331 4.32424 80 151 134
0.201053 -0.091778 4.37523 67 101 77
-2.03762 -0.0811852 4.12169 160 226 221
-0.949369 -0.081647 4.25953 153 203 185
1.52956 -0.0892679 4.50139 122 177 160
-1.25125 -0.0800395 4.1723 159 211 188
-0.770645 -0.0817858 4.28632 179 225 213
-0.564928 -0.0747818 4.30836 153 214 210
-1.05346 -0.0719927 4.25765 66 105 97
-2.31383 -0.0569328 4.08328 81 148 139
0.0344615 -0.0561894 4.36772 108 151 138
0.235587 -0.0636915 4.36338 170 228 217
-1.04074 -0.0524385 4.25514 53 89 72
-0.552969 -0.0470687 4.31682 209 245 245
-0.537181 -0.043792 4.3033 111 164 155
1.10199 -0.0445573 4.44331 118 169 162
-0.197294 -0.0363641 4.33953 139 214 198
0.336972 -0.0321968 4.37631 171 223 213
-0.408217 -0.0264326 4.32043 70 129 115
1.91408 -0.0271977 4.53984 77 158 139
-0.848516 -0.0185658 4.28659 178 238 227
-0.4105 -0.0214042 4.34275 117 182 156
2.08864 -0.0141287 4.56195 108 182 158
-1.54714 -0.00601914 4.1958 152 206 193
-1.21436 -0.0107202 4.2377 148 205 197
0.0653909 -0.0100214 4.35702 180 252 210
1.03383 -0.00497383 4.42062 108 154 131
0.663395 -0.00404317 4.40937 189 224 220
-0.178138 0.000389801 4.35052 90 164 146
0.765119 0.00114996 4.42439 198 235 227
-1.12893 0.00367271 4.22597 97 145 133
-0.198968 0.003661 4.34553 163 237 219
-0.028324 0.00701761 4.36929 104 169 143
0.708543 0.00593009 4.41466 164 201 197
0.74395 0.0102443 4.40954 154 221 206
0.733407 0.0128203 4.41266 96 130 119
1.07004 0.0142251 4.44881 113 143 138
0.652257 0.0174676 4.41002 177 221 214
-2.44788 0.0199603 4.08964 140 194 181
-1.28456 0.0255078 4.23035 115 138 124
0.795302 0.0289967 4.43404 83 114 105
1.35595 0.0267666 4.48974 90 143 123
-1.66785 0.0384452 4.18671 119 169 159
0.926562 0.0396981 4.44387 104 159 144
-1.61327 0.0385626 4.16821 84 130 117
0.77586 0.0437549 4.43306 77 100 95
1.8738 0.0452124 4.54798 74 169 135
0.250386 0.0446113 4.36407 79 115 99
-0.456612 0.0541465 4.3328 163 228 212
0.774481 0.0572462 4.42321 182 233 219
-0.543855 0.0733426 4.3062 78 129 121
0.693975 0.0841352 4.39442 97 167 127
0.792169 0.0868503 4.4106 96 119 104
1.1904 0.0860794 4.48031 125 177 160
-1.19134 0.0854061 4.25494 102 164 152
0.819568 0.086908 4.42325 114 154 152
1.06767 0.0891081 4.45513 91 128 120
1.71636 0.0937567 4.53288 122 192 179
0.77601 0.0917368 4.41795 153 209 188
1.91562 0.0946042 4.54157 78 158 121
0.373236 0.0952503 4.39449 127 221 167
1.3006 0.0988324 4.48481 121 183 171
-1.25679 0.100978 4.24906 80 131 117
-0.527998 0.110178 4.32318 45 83 65
0.820711 0.110196 4.42353 113 136 128
-1.26118 0.108387 4.23845 136 198 184
0.791871 0.118964 4.42907 83 123 112
-1.72015 0.117726 4.18682 89 139 129
0.746233 0.126236 4.40507 139 218 185
-2.45442 0.118911 4.09582 105 153 141
-0.260451 0.12577 4.35078 71 114 105
0.361206 0.122054 4.36703 56 104 78
-1.11572 0.123589 4.26842 93 137 120
0.665153 0.133576 4.38256 95 156 130
0.943967 0.13533 4.443 64 102 84
-1.13654 0.134763 4.2664 49 98 82
-2.36298 0.137149 4.11151 54 104 86
-0.0693136 0.150906 4.37712 96 178 160
0.794403 0.166543 4.4377 145 185 180
-1.17146 0.163475 4.25253 156 223 216
0.326781 0.171591 4.381 102 170 147
-0.00709586 0.180526 4.37349 102 148 135
1.44598 0.186911 4.51125 114 181 172
-1.21486 0.181621 4.23895 65 115 103
1.96097 0.198236 4.56064 98 176 145
-0.223288 0.191287 4.35553 139 200 186
0.00986877 0.197418 4.37632 156 230 206
-1.36716 0.193925 4.22639 65 95 76
-1.07975 0.200397 4.27843 104 158 153
0.81023 0.204045 4.43015 80 126 113
-0.927397 0.20504 4.28268 146 236 217
-0.0866704 0.206185 4.36634 103 132 116
1.93776 0.220136 4.54251 156 235 208
-0.963288 0.227497 4.29532 162 221 200
-0.290635 0.230189 4.35554 157 225 202
0.309662 0.228781 4.39844 86 107 104
0.437975 0.23274 4.40054 174 235 215
-0.0411437 0.23365 4.37983 148 211 202
0.296716 0.236371 4.41475 166 211 214
-0.222642 0.238202 4.38096 154 216 204
-0.770897 0.240724 4.25013 146 221 199
-1.34814 0.241787 4.25588 90 158 141
-1.1592 0.253632 4.27179 72 101 110
2.49692 0.272407 4.63678 117 189 176
-0.673213 0.256671 4.25269 73 130 115
0.0591238 0.265791 4.37466 154 209 190
-0.306481 0.269137 4.37061 62 79 65
-1.76324 0.261642 4.1924 165 235 212
-1.39138 0.265901 4.25681 82 123 115
0.582214 0.288099 4.42059 95 135 124
0.594944 0.286504 4.4159 158 217 203
0.908777 0.28881 4.48389 67 112 95
-1.95305 0.279876 4.17907 162 231 218
-0.993987 0.288254 4.30924 146 214 213
0.550228 0.306177 4.43415 175 231 208
-1.01007 0.312712 4.30004 170 223 226
-1.41566 0.323826 4.24912 101 157 146
-0.442893 0.321863 4.2983 49 86 70
-0.988918 0.329422 4.31185 147 206 215
-0.211949 0.337018 4.36738 135 187 177
-0.327581 0.331847 4.26757 158 217 202
0.0539551 0.34311 4.39635 165 227 197
-1.48492 0.337709 4.24555 97 147 135
-1.07016 0.339515 4.27373 52 80 81
-1.05549 0.342452 4.30071 74 107 103
-0.411901 0.343382 4.28997 26 68 43
0.349603 0.354385 4.41141 105 134 119
0.942871 0.35822 4.47511 120 162 155
-1.91265 0.347126 4.20583 145 213 188
0.552977 0.363855 4.42205 164 220 201
1.35544 0.366615 4.5051 110 187 166
-1.83437 0.356614 4.22282 70 115 96
-1.73766 0.35622 4.21921 80 120 108
-1.53778 0.355404 4.22773 115 152 144
-1.53959 0.359253 4.2397 109 143 133
-1.06967 0.365907 4.30611 95 135 130
-0.978375 0.365039 4.30605 171 226 231
-1.76117 0.358987 4.20041 94 137 126
-1.67731 0.364735 4.22535 164 238 212
-0.373942 0.369795 4.28686 154 211 180
0.132443 0.377819 4.38835 158 215 200
2.04274 0.39924 4.59244 83 163 126
-1.71894 0.374302 4.22235 76 107 100
0.628767 0.389886 4.45463 76 102 89
0.757239 0.396949 4.45394 131 180 166
0.430439 0.400904 4.43033 114 155 147
0.448419 0.401263 4.43413 178 231 221
0.692918 0.398086 4.45189 106 151 142
-1.84594 0.383039 4.20597 99 140 132
-1.1697 0.39149 4.29461 85 142 133
0.415953 0.405717 4.43068 170 233 213
0.93935 0.407288 4.47347 171 236 215
-1.74928 0.394609 4.22292 60 105 89
0.399188 0.413445 4.41887 51 72 63
-1.90953 0.39986 4.21391 57 89 70
-1.88821 0.398675 4.2031 166 218 200
-1.42077 0.410634 4.27147 87 131 114
-1.72954 0.405945 4.20758 55 69 58
-1.62963 0.405391 4.23722 76 122 103
0.461606 0.424556 4.41349 76 109 102
0.686853 0.434151 4.46718 138 183 166
0.892122 0.42843 4.4716 91 140 124
-1.75174 0.410139 4.20976 166 206 195
0.368203 0.428346 4.42563 160 230 213
0.668329 0.431098 4.44731 106 142 120
1.98214 0.450244 4.58407 92 180 140
-1.85929 0.420008 4.19658 204 244 233
0.983447 0.459753 4.47865 113 160 158
-1.12339 0.448678 4.30928 89 142 145
-0.740883 0.444312 4.27801 79 137 112
-0.204843 0.454646 4.39699 61 82 74
-1.29377 0.4502 4.2885 68 94 88
-0.0741723 0.470407 4.39739 144 215 199
1.9362 0.489821 4.58881 103 180 146
-0.624943 0.46211 4.28005 20 47 31
0.51444 0.477106 4.42399 62 84 60
-1.75824 0.460433 4.20265 168 216 198
0.167123 0.489351 4.41237 163 225 211
2.15793 0.508 4.61381 91 172 133
0.187826 0.491141 4.4243 87 129 112
0.214496 0.491023 4.42328 97 133 127
1.96986 0.508628 4.58461 71 133 109
-1.30563 0.48419 4.29997 138 190 180
1.02695 0.506021 4.50313 81 130 116
-1.69867 0.477758 4.20827 130 187 162
0.286953 0.503756 4.43895 77 109 98
0.820886 0.505171 4.4663 78 136 107
-1.61957 0.490206 4.2418 170 230 212
-1.32153 0.498661 4.30043 53 73 54
0.88312 0.517218 4.47779 86 116 105
1.80999 0.528022 4.56758 169 245 214
1.87908 0.527272 4.57884 83 117 93
-0.740488 0.49377 4.2552 61 107 88
2.26671 0.546685 4.62585 105 173 150
-1.24 0.512065 4.30362 141 210 200
0.0120258 0.532752 4.40773 59 107 83
-1.23278 0.519087 4.29548 110 148 142
