ply
format ascii 1.0
element vertex 1286
property float x
property float y
property float z
property uchar blue
property uchar green
property uchar red
end_header
-0.987711 -1.10143 4.60804 162 210 182
-0.666239 -0.955066 3.97532 172 234 204
0.0870209 -0.586468 2.30601 201 230 207
-0.560606 -0.89976 3.74059 187 252 227
-0.0523087 -0.637901 2.56258 45 53 36
0 0 0 79 105 82
0.0837793 -0.578566 2.30556 151 188 154
0.410596 -0.432626 1.6099 126 118 111
-0.00621505 -0.615676 2.486 147 223 189
-0.982347 -1.06689 4.56409 158 203 170
0.0432395 -0.589195 2.38226 93 134 102
-13.318 -6.91182 30.8593 136 194 166
-0.921693 -1.03053 4.42748 190 241 204
-0.853963 -0.994845 4.27154 64 115 95
0.137026 -0.545427 2.17958 67 102 92
-0.846686 -0.988684 4.24927 125 192 161
0.00933586 -0.596999 2.4448 59 90 61
0 0 0 129 161 137
0 0 0 72 107 87
-0.869586 -0.989274 4.29532 164 243 192
0.107836 -0.554957 2.24761 99 156 135
7.60715 3.00951 -13.774 142 207 185
-0.964961 -1.03424 4.51091 71 94 72
-0.888915 -0.994928 4.33961 160 243 188
-1.04765 -1.05613 4.68342 173 241 206
0.0832754 -0.552376 2.29019 102 135 114
0.136062 -0.5295 2.17142 38 74 57
0 0 0 86 133 117
-0.973689 -1.0147 4.51544 192 233 205
-0.873571 -0.964205 4.28438 32 90 66
0 0 0 172 227 208
-7.54666 -4.00238 18.5783 172 237 205
0.13458 -0.522526 2.1704 105 152 114
0.0889664 -0.537765 2.27322 72 121 101
0.124463 -0.523729 2.19327 128 167 159
-5.43303 -2.96832 14.1192 183 230 208
-0.0169656 -0.574251 2.48369 107 169 133
0.0884752 -0.529621 2.26446 136 194 170
-1.02995 -1.00047 4.62005 46 98 75
0.120146 -0.514252 2.19614 100 133 112
0.104326 -0.51638 2.22296 125 164 132
0.0186083 -0.550864 2.402 130 191 157
0 0 0 175 237 207
0.0726264 -0.525104 2.2937 156 195 173
0.0795344 -0.523076 2.28013 107 146 131
0.0960809 -0.515243 2.23742 135 181 168
-0.603051 -0.810182 3.77797 69 136 131
-0.14244 -0.614703 2.76678 180 160 135
0.0756011 -0.523884 2.2884 54 92 74
-0.131198 -0.603126 2.73488 95 81 69
0.0193082 -0.535211 2.38959 71 131 97
-5.59258 -2.86598 14.3614 50 77 67
-5.34034 -2.75366 13.8141 147 194 172
-4.71695 -2.51813 12.6338 61 133 110
-0.13559 -0.593661 2.74071 77 67 57
0 0 0 139 192 172
-0.137904 -0.588092 2.73678 72 66 53
0.376893 -0.390445 1.64374 85 102 88
-5.38879 -2.68224 13.8684 67 119 109
-3.86357 -2.08971 10.7632 117 171 194
-0.177575 -0.597775 2.82207 159 148 126
-0.165541 -0.592111 2.79859 150 136 113
0 0 0 61 128 107
0 0 0 137 196 175
-5.95412 -2.85342 15.0061 79 149 136
-1.11856 -0.938257 4.75637 92 114 102
-1.06117 -0.912721 4.62702 48 74 56
-0.16599 -0.578168 2.78639 142 126 90
0.0737843 -0.488872 2.28092 104 118 117
-0.944573 -0.8571 4.37608 147 211 182
-1.22415 -0.954877 4.98379 111 145 121
-0.900859 -0.829625 4.2745 72 127 110
-1.95464 -1.23368 6.54763 102 158 145
-1.02735 -0.87567 4.53231 69 103 79
-0.966627 -0.853245 4.41038 81 135 122
-1.22686 -0.95482 4.99568 115 145 126
-0.663368 -0.75142 3.85981 176 248 226
-0.632222 -0.738542 3.79499 94 160 149
-0.163422 -0.557849 2.76601 96 77 64
-2.47907 -1.40914 7.63877 117 169 146
-1.34445 -0.978596 5.23889 101 191 148
-1.05262 -0.865091 4.57008 33 87 70
-0.774758 -0.779586 4.09771 252 252 252
-2.4699 -1.38898 7.61001 66 131 115
-1.80446 -1.14279 6.20671 79 137 132
-1.33242 -0.96427 5.20036 81 153 117
-2.52612 -1.39849 7.71752 167 241 223
0 0 0 146 217 184
-2.51375 -1.37551 7.68079 120 182 168
-0.0500762 -0.496425 2.49842 163 248 210
-0.99284 -0.813098 4.4359 158 237 204
-0.795136 -0.762004 4.13218 190 202 202
-0.634434 -0.706559 3.78914 112 166 166
-1.9566 -1.15084 6.48989 71 118 110
-0.984498 -0.803286 4.42699 70 138 107
-0.743496 -0.731114 4.01131 98 158 147
-1.50364 -0.978618 5.52467 132 170 148
-2.28747 -1.25245 7.21831 60 125 100
-2.14474 -1.19848 6.90788 193 250 235
-0.999786 -0.800894 4.44351 156 244 208
0.0193629 -0.466245 2.37388 222 231 234
-1.74035 -1.04942 6.04096 143 207 185
-1.78704 -1.04347 6.12933 56 99 78
-0.694262 -0.687738 3.87151 98 153 138
-2.82609 -1.37811 8.2931 176 255 218
-0.0487943 -0.468987 2.49363 136 207 181
-2.34562 -1.21821 7.3171 52 98 76
-2.8869 -1.3838 8.39968 79 131 101
-0.136304 -0.491561 2.66303 134 123 103
-0.0486702 -0.464566 2.48879 85 134 120
-1.93532 -1.0636 6.4299 86 159 137
-1.88559 -1.0412 6.31818 113 193 150
-0.81272 -0.706707 4.13151 250 255 254
14.5304 4.30164 -27.7698 103 164 136
-3.76328 -1.65448 10.359 88 156 139
0.00322039 -0.439109 2.3792 216 243 247
-2.27485 -1.14461 7.12167 154 217 207
-1.92834 -1.0327 6.40543 132 216 181
-1.82334 -0.995254 6.16157 50 123 91
-3.6409 -1.54594 10.0681 123 183 165
-1.73992 -0.944247 5.98514 44 97 77
-0.0699678 -0.4454 2.51632 25 38 36
-1.72123 -0.93113 5.93488 123 215 174
-2.87629 -1.27368 8.33069 38 76 64
0 0 0 143 236 181
-1.54117 -0.844901 5.48914 36 64 44
-0.846798 -0.657022 4.18166 188 243 226
-2.09629 -1.00935 6.72446 81 162 143
-0.0695454 -0.426993 2.49489 184 236 219
-0.0688875 -0.425717 2.48405 36 78 67
0 0 0 124 204 167
-0.350257 -0.50484 3.10278 123 108 106
-0.750889 -0.615023 3.95756 101 168 147
-2.45578 -1.05865 7.43343 152 230 206
-1.71252 -0.852915 5.86384 37 93 74
-0.787541 -0.604687 4.02315 86 147 133
-0.373574 -0.489856 3.13986 148 143 144
-0.364429 -0.487701 3.1195 213 213 213
0 0 0 36 60 42
-2.31632 -1.00163 7.13495 79 127 101
-1.96228 -0.907409 6.4179 59 73 61
-0.369522 -0.482991 3.12978 131 120 112
-1.95528 -0.88589 6.36467 136 180 143
-1.80455 -0.846808 6.05857 44 115 88
-1.76518 -0.834416 5.97558 141 241 199
-1.67546 -0.807187 5.78354 70 141 121
-1.83077 -0.843643 6.09593 134 187 154
-0.224151 -0.430129 2.79595 214 189 163
-3.90029 -1.38889 10.5187 87 136 122
-1.9193 -0.855597 6.29747 109 167 143
-4.28698 -1.45311 11.2887 114 177 167
-3.90747 -1.35614 10.5092 177 242 226
-0.753765 -0.551118 3.92188 110 156 143
-2.90021 -1.08442 8.3716 158 222 192
-2.07112 -0.872476 6.60721 112 160 134
-1.6991 -0.775655 5.82506 74 138 109
-3.67552 -1.23023 10.0116 114 160 148
11.7304 2.52383 -21.9907 85 141 118
-0.401733 -0.439045 3.156 223 219 224
-2.88506 -0.994108 8.32975 62 112 112
-2.75046 -0.959956 8.03578 169 247 206
-1.89106 -0.753119 6.17258 83 148 116
-0.758552 -0.504022 3.90979 65 114 106
-4.18481 -1.27686 11.0344 187 240 227
-0.412983 -0.427912 3.17363 142 133 136
-2.39259 -0.858908 7.26096 69 108 86
-3.67954 -1.14401 9.95757 222 255 249
-1.69768 -0.694335 5.78791 58 105 79
-2.40268 -0.842183 7.26436 137 192 175
-0.40934 -0.413616 3.15417 149 138 140
-1.18441 -0.567534 4.66402 165 249 201
-0.881386 -0.508294 4.15857 120 164 177
-1.21708 -0.563318 4.71379 101 165 136
-1.7272 -0.670091 5.82276 147 235 195
-1.21021 -0.555913 4.70112 60 131 105
-1.65107 -0.647196 5.6571 131 201 170
-2.19906 -0.749233 6.75387 63 94 79
-0.897734 -0.497794 4.18745 208 248 253
-1.33275 -0.567953 4.93848 163 246 207
-1.96203 -0.691088 6.29425 77 147 110
-3.32108 -0.960032 9.15311 198 255 227
-1.3412 -0.555688 4.94569 45 124 83
-1.28752 -0.542017 4.83351 77 155 131
-1.56498 -0.591888 5.42484 39 88 60
-1.47612 -0.573381 5.22538 71 120 98
-1.39419 -0.556505 5.05793 90 144 121
-3.17089 -0.895954 8.83589 150 245 201
-3.10848 -0.865571 8.68907 128 195 163
-0.408057 -0.364753 3.1265 177 179 180
-0.92673 -0.449652 4.21664 119 163 164
-0.909908 -0.440407 4.17057 123 152 157
-1.52091 -0.534839 5.28857 152 221 194
-2.02804 -0.624644 6.38974 67 122 97
-0.91286 -0.439462 4.17974 123 158 161
-3.37274 -0.860377 9.21499 169 234 212
-3.14861 -0.818009 8.74609 93 101 71
-4.83378 -1.0905 12.2168 84 145 135
-0.826339 -0.412392 3.98744 74 115 118
-1.48028 -0.503119 5.22252 151 212 184
-0.944613 -0.422144 4.24004 143 135 145
-1.4691 -0.49424 5.20609 77 121 98
-1.30909 -0.466479 4.86086 63 118 91
-0.418188 -0.33102 3.11357 113 102 94
-0.837891 -0.393227 3.98947 152 229 201
-0.794873 -0.38385 3.91032 233 255 255
-4.40445 -0.936878 11.3206 94 154 146
-1.46925 -0.473585 5.19207 50 90 79
-0.439758 -0.32722 3.16728 187 185 185
-0.867999 -0.387217 4.05468 181 238 239
-1.40714 -0.455782 5.06145 135 209 183
-1.33256 -0.446218 4.908 134 179 160
-11.1519 -1.94855 25.1377 236 255 255
-0.897379 -0.376292 4.10288 89 153 164
-3.64956 -0.763073 9.71012 84 151 112
-1.35647 -0.428166 4.94278 126 152 134
-4.11581 -0.820177 10.67 192 242 232
-1.99718 -0.49919 6.29248 69 94 80
-0.445862 -0.298973 3.15685 200 194 195
-1.26503 -0.389693 4.73326 134 226 197
-0.860185 -0.342707 4.00342 224 239 248
-3.60622 -0.682157 9.59746 116 175 155
-2.13685 -0.484963 6.57736 137 205 180
-1.64934 -0.421803 5.53791 86 154 123
-1.863 -0.432894 5.95795 69 121 91
-0.29357 -0.254866 2.69068 156 196 171
-2.18798 -0.462381 6.66798 56 81 67
-1.848 -0.409688 5.96731 55 78 64
-0.447498 -0.264099 3.12898 148 136 126
-2.733 -0.493546 7.76677 124 153 137
-4.25186 -0.651981 10.8853 100 157 142
-3.71445 -0.575337 9.7563 93 136 121
-2.2133 -0.420924 6.70705 126 167 140
-3.96517 -0.586356 10.2684 149 216 201
-0.905857 -0.285414 4.06208 103 153 149
-5.88522 -0.763672 14.1764 87 166 147
-1.70207 -0.351629 5.64729 160 231 214
-1.77739 -0.344041 5.80287 153 202 180
-1.72231 -0.339275 5.68138 83 123 111
-0.94562 -0.273526 4.13705 131 146 172
-0.906285 -0.272289 4.05192 100 174 162
-1.7871 -0.329897 5.80164 70 113 98
-6.89751 -0.736528 16.1902 165 228 208
-4.01289 -0.494683 10.3268 251 255 255
-2.46181 -0.368476 7.17953 102 162 152
-2.34006 -0.358499 6.92902 107 158 150
-0.382201 -0.216532 2.96158 136 142 161
-1.79353 -0.314242 5.80992 175 223 205
-3.58419 -0.442187 9.44767 145 211 186
-0.483292 -0.212824 3.1719 197 197 197
-4.19445 -0.470374 10.6752 124 178 173
-3.54333 -0.416169 9.35622 169 241 211
-1.89317 -0.292317 5.99927 57 91 81
-5.36766 -0.516801 13.0217 71 135 116
-5.55595 -0.523387 13.4264 86 147 119
-0.571302 -0.204335 3.33062 168 160 160
-2.22914 -0.299164 6.67 138 181 168
-0.580487 -0.203777 3.34972 209 209 209
-0.342005 -0.189708 2.76263 112 159 137
-6.81904 -0.57574 15.9561 219 245 239
-0.632482 -0.203705 3.46523 207 205 205
-6.24477 -0.525629 14.775 162 239 201
-2.46827 -0.30135 7.1551 119 175 162
-1.74912 -0.260715 5.71114 56 109 96
-2.8861 -0.31799 8.00591 77 123 110
-0.626634 -0.190115 3.44223 224 228 233
-7.4946 -0.545548 17.2778 101 167 156
-2.46432 -0.268176 7.11798 86 126 115
-1.77455 -0.23856 5.75651 123 156 141
-7.30196 -0.519657 16.877 148 227 206
-1.90232 -0.237663 6.005 72 94 89
-0.93174 -0.189719 4.0595 144 192 196
-1.77474 -0.217452 5.72446 160 176 159
-0.925057 -0.180107 4.0452 215 251 255
-2.86502 -0.246258 7.90782 87 129 106
-2.94327 -0.243065 8.04878 140 193 179
-2.53192 -0.224385 7.23203 120 139 122
-0.496145 -0.16075 3.16249 140 128 126
-7.38469 -0.37128 17.0065 57 138 105
-11.6245 -0.506736 25.5084 99 165 160
-1.69647 -0.172201 5.51262 151 206 179
-2.91871 -0.201739 7.99836 138 163 149
-7.87698 -0.312297 17.9253 95 168 146
-1.9708 -0.153842 6.08796 155 158 142
-0.48527 -0.136361 3.13529 147 145 151
-2.11382 -0.154333 6.38533 120 145 135
-2.34686 -0.150964 6.8318 151 170 155
-4.44336 -0.177734 11.0398 175 224 234
-4.11591 -0.154 10.3796 145 193 197
-2.23445 -0.115308 6.59526 138 175 149
-0.477012 -0.114429 3.08186 140 132 139
-1.5137 -0.100465 5.08438 49 76 60
-5.63128 -0.0927478 13.3928 72 128 129
-2.46798 -0.0469347 7.0317 135 172 164
-3.61451 -0.0160088 9.30101 152 215 199
-1.70042 -0.0520018 5.48 136 194 166
-2.36652 -0.0231073 6.82431 55 67 47
-7.56934 0.149113 17.1895 79 144 129
-3.24658 0.0266782 8.54015 118 167 153
-2.67073 0.013718 7.41108 135 164 161
-3.45756 0.0487668 8.96993 144 187 176
-6.47478 0.176487 14.9963 80 111 104
-4.43055 0.100804 10.9269 73 89 82
-9.0555 0.284567 20.0609 95 176 157
-1.56528 0.00308491 5.17648 54 102 78
-1.67227 0.0156424 5.41014 142 197 164
-14.643 0.645588 31.1002 95 165 152
-1.9472 0.0550046 5.93602 119 164 147
-6.00839 0.27442 14.0025 104 144 143
-1.5236 0.0388487 5.14188 107 137 164
-1.07791 0.00944207 4.2523 156 190 206
-4.61986 0.228209 11.2256 91 114 106
-3.00406 0.139858 8.00845 143 191 179
-1.04767 0.0208615 4.16369 155 188 204
-1.49561 0.0536731 5.0776 222 244 255
-5.89214 0.360239 13.7346 161 212 232
-3.91592 0.235715 9.81506 64 98 81
-1.2976 0.0531516 4.66833 162 204 227
-1.51321 0.0744118 5.10143 111 138 164
-4.06542 0.276795 10.0979 128 188 170
-1.17317 0.0561286 4.4131 90 115 119
-5.83931 0.415299 13.6069 176 226 232
-3.39151 0.233293 8.75267 147 196 204
-1.52094 0.08713 5.11077 244 253 255
-11.2841 0.913597 24.2989 182 244 228
-1.49962 0.106789 5.04677 118 127 147
-1.23366 0.0821026 4.52979 114 139 155
-1.74325 0.129774 5.46459 130 178 160
-1.78552 0.133526 5.55355 108 138 125
-0.49592 0.00967694 3.00548 155 167 185
-2.19492 0.17807 6.37917 180 180 166
-1.08148 0.0747754 4.1973 114 155 157
-1.15989 0.0860588 4.34716 164 217 197
-1.49875 0.125916 5.02147 116 138 166
-1.89051 0.163382 5.75455 79 107 94
-1.25331 0.106701 4.55074 201 224 226
-0.536105 0.026605 3.08491 165 154 156
-1.7703 0.159306 5.49999 162 213 179
-1.19241 0.104172 4.40286 172 233 213
-9.70495 0.984584 21.1014 85 152 125
-1.1849 0.11686 4.37146 81 151 138
-1.14254 0.110853 4.2901 73 133 123
-4.58503 0.489432 11.0528 149 176 167
-3.98018 0.454405 9.85102 134 172 174
-3.60135 0.411354 9.1207 164 208 245
-4.76892 0.574335 11.4144 128 176 164
-3.74266 0.467963 9.34431 138 175 209
-3.48671 0.434549 8.87191 164 217 208
-6.56726 0.859429 14.9084 163 202 217
-9.3725 1.33366 20.2896 88 138 120
-5.05241 0.740515 11.9121 137 188 180
-5.64912 0.841532 13.0686 140 195 198
-3.09659 0.476404 8.07262 126 161 157
-3.40648 0.530982 8.67732 139 184 175
-3.1452 0.555633 8.12551 114 131 134
-5.41565 1.0307 12.5297 104 159 162
-3.94681 0.799292 9.65162 133 193 182
-3.62327 0.753784 9.03 112 134 129
-0.63422 0.173718 3.19022 186 173 171
-0.655788 0.196134 3.22586 166 155 151
-3.9696 0.87894 9.65603 72 102 91
-3.40042 0.81414 8.54704 127 186 172
-5.21423 1.29248 12.0651 149 208 200
-0.771889 0.299341 3.41835 220 224 225
-0.795897 0.346256 3.44279 129 115 109
0.273229 -1.21283 2.0607 141 206 174
-0.252438 -1.92641 3.29145 102 141 133
0.1514 -1.4085 2.42141 142 234 191
-0.358374 -2.07197 3.57475 153 223 193
-0.329369 -2.02486 3.49209 155 203 191
-0.350617 -2.04721 3.5471 69 83 77
0.157121 -1.39524 2.41118 50 108 84
-0.406841 -2.11277 3.69951 51 65 47
0.150994 -1.38595 2.42391 128 220 179
0.152814 -1.34922 2.421 81 163 145
0.184086 -1.31016 2.35732 190 250 249
-0.00952428 -1.56095 2.8145 192 204 204
-0.385703 -1.98099 3.62286 127 224 192
0.112421 -1.3847 2.52649 191 223 228
0.282553 -1.16763 2.13199 148 174 220
-0.422228 -2.01799 3.71058 155 218 192
0.14355 -1.32571 2.43222 156 221 196
-0.442566 -2.03026 3.75001 76 84 83
0.13725 -1.32264 2.44288 59 110 96
0.295191 -1.13841 2.10081 199 221 239
-0.618621 -2.24663 4.1891 89 165 153
0.132128 -1.31996 2.46172 131 214 192
-0.38402 -1.93858 3.63711 154 233 192
0.184956 -1.25448 2.3518 158 215 216
-0.319804 -1.82484 3.45719 118 158 147
-0.341253 -1.83291 3.50488 162 225 209
-0.188645 -1.69124 3.22849 232 255 255
0.414461 -0.957225 1.80086 57 89 58
-0.157403 -1.63938 3.14771 103 148 139
0.102801 -1.31727 2.53454 43 95 77
0.0917536 -1.33027 2.56639 75 118 109
-0.433506 -1.94342 3.77691 64 87 72
-0.52454 -2.01561 3.97297 109 174 153
0.122742 -1.26357 2.48452 41 104 88
-1.78494 -3.42564 6.87158 114 177 157
0.152109 -1.20231 2.41642 104 181 154
-0.644093 -2.0885 4.2438 91 159 142
-0.479759 -1.87926 3.83704 79 96 85
-0.41464 -1.79296 3.66201 104 129 119
0.341051 -0.965471 1.95022 134 211 160
-0.705335 -2.12131 4.36221 81 132 105
-0.406272 -1.77884 3.64791 169 239 208
0.342511 -0.956913 1.94576 82 143 105
0.2947 -1.01151 2.07293 124 153 190
-0.453455 -1.83375 3.81355 82 114 97
0.142168 -1.18092 2.44076 83 146 126
0.355897 -0.940978 1.93014 219 251 246
-0.712302 -2.10026 4.39174 149 235 205
-0.464388 -1.81589 3.79761 186 235 221
0.0914809 -1.2212 2.54102 83 165 143
-1.97953 -3.47706 7.30853 120 178 160
0.277529 -1.02032 2.11481 116 124 141
-0.439741 -1.746 3.71398 140 217 196
0.278251 -1.00379 2.10418 246 255 255
-0.744525 -2.07733 4.4529 87 138 124
0.0540462 -1.24049 2.6395 107 162 153
0.262914 -1.016 2.14303 129 133 151
0.286304 -0.979301 2.07858 90 120 137
-0.600341 -1.91075 4.12757 73 83 77
0.365771 -0.892128 1.89495 68 113 96
0.250422 -1.00773 2.17304 97 113 136
0.287742 -0.967547 2.07693 116 153 167
-2.07464 -3.45017 7.54966 98 139 124
-1.7891 -3.13696 6.87448 97 133 116
0.362989 -0.890263 1.90566 68 141 115
-0.789763 -2.0793 4.56502 103 145 120
-0.573959 -1.84956 4.05306 131 176 159
0.219685 -1.0366 2.24424 105 105 141
-0.762396 -2.04313 4.48225 66 118 94
0.370877 -0.876165 1.88323 55 88 61
-1.72549 -3.04222 6.72458 86 132 110
-0.755631 -2.0223 4.46686 133 210 173
-0.701641 -1.96882 4.35198 116 154 132
-0.430551 -1.67263 3.68272 169 224 207
0.262362 -0.983577 2.14146 127 178 180
-0.888537 -2.16016 4.78735 74 141 120
0.321571 -0.915943 1.9932 99 146 143
0.543037 -0.67701 1.43044 65 102 86
-1.67333 -2.94235 6.58089 162 229 222
0.226127 -1.00946 2.22155 117 151 157
-1.45237 -2.70541 6.08294 167 226 211
0.279803 -0.947626 2.08706 115 169 169
0.309264 -0.919305 2.01962 219 253 255
-1.12784 -2.36353 5.33377 103 175 139
0.260103 -0.966061 2.13731 104 154 152
0.363756 -0.862135 1.89326 186 255 210
-1.70529 -2.94732 6.66787 114 141 131
-0.780096 -2.00592 4.51547 50 92 75
-0.721653 -1.9407 4.38329 67 119 101
0.2366 -0.98806 2.19598 125 177 160
-0.91008 -2.13609 4.83524 78 118 93
0.311949 -0.90651 2.00813 115 150 164
-1.49287 -2.70051 6.15085 134 225 200
-2.30233 -3.50833 8.02673 189 226 255
-0.326569 -1.54451 3.51085 124 177 167
-7.0363 -8.27262 18.9586 119 182 162
-1.27107 -2.47258 5.65671 73 121 103
0.0380571 -1.16978 2.65247 111 178 149
0.194279 -1.01876 2.29425 253 255 255
-0.784362 -1.97281 4.51418 157 213 202
0.365099 -0.843662 1.87855 151 230 189
-1.07745 -2.26898 5.21174 80 147 115
0.255973 -0.946776 2.13219 218 246 255
0.343294 -0.864443 1.93821 155 244 211
-2.26831 -3.45043 7.95674 63 124 110
-0.832526 -2.01063 4.62714 88 120 96
-1.30213 -2.48211 5.72195 139 231 202
0.234279 -0.96948 2.19097 129 176 167
-0.332558 -1.53069 3.53124 107 150 147
0.252391 -0.944275 2.1421 95 143 137
0.312931 -0.884708 1.9971 87 104 130
-1.71382 -2.87028 6.67694 109 129 134
0.296588 -0.89554 2.03469 75 91 103
-1.50761 -2.64876 6.19255 131 206 174
-2.25342 -3.37055 7.90163 156 231 199
0.282929 -0.904978 2.06753 121 181 173
-1.03302 -2.17594 5.09917 172 230 201
0.271454 -0.912166 2.09425 112 183 167
-1.08076 -2.19705 5.19552 80 141 107
0.256729 -0.920206 2.12359 87 115 126
-2.43567 -3.48674 8.31655 166 205 233
-1.71896 -2.80242 6.66927 146 216 203
-1.60871 -2.70742 6.43293 151 219 196
-2.71754 -3.75398 8.95813 73 115 92
-0.883835 -1.99416 4.74586 162 221 193
-2.16882 -3.21419 7.69743 128 182 165
-0.834737 -1.94085 4.63237 166 222 209
-0.831759 -1.93892 4.6231 170 226 215
0.268548 -0.898261 2.09581 163 225 213
0.141488 -1.01273 2.39219 101 218 173
-2.55516 -3.54703 8.57151 162 215 228
-2.4675 -3.46266 8.38338 196 223 250
0.227605 -0.927659 2.19466 131 171 176
0.240693 -0.915002 2.16034 107 158 144
-2.05858 -3.06895 7.43691 76 123 97
-1.82679 -2.84851 6.91946 158 222 223
-1.13431 -2.20052 5.32529 103 160 122
-0.80742 -1.89087 4.55973 159 206 198
0.293047 -0.863696 2.03188 217 250 235
-2.04118 -3.03787 7.40704 152 220 197
0.249674 -0.901745 2.13625 146 215 200
-1.46343 -2.48053 6.06091 158 236 213
-2.80416 -3.72118 9.12949 157 207 197
-2.1243 -3.0947 7.58806 141 209 186
-1.02169 -2.07076 5.06245 70 103 82
-1.91279 -2.88536 7.09337 113 140 136
-1.86471 -2.83913 6.98918 152 199 207
-0.95252 -1.99427 4.89078 154 228 204
-1.30021 -2.31353 5.69771 128 180 157
0.0185204 -1.10235 2.67594 66 126 102
0.352292 -0.796695 1.89172 156 249 204
-1.54706 -2.53545 6.25907 113 138 118
-1.23755 -2.25173 5.55285 132 215 190
0.128262 -0.999095 2.41905 24 98 80
-1.40671 -2.40067 5.93929 76 119 98
0.245664 -0.882384 2.13029 112 144 150
-1.82481 -2.76996 6.88953 145 180 170
0.272757 -0.859096 2.07382 174 230 207
0.350451 -0.790973 1.89859 69 128 107
-1.34284 -2.3229 5.79342 136 207 180
0.290911 -0.836762 2.02002 78 133 114
0.245468 -0.877962 2.13075 253 255 255
-1.26628 -2.24191 5.60762 98 115 88
0.173843 -0.943079 2.30652 239 254 255
0.233458 -0.886683 2.16287 90 116 130
0.268572 -0.853882 2.07622 97 142 123
-3.0712 -3.87519 9.73863 173 229 218
-1.43152 -2.38723 5.98997 99 138 113
-1.0732 -2.05921 5.15523 74 117 96
0.331523 -0.799023 1.93629 49 115 86
-0.828313 -1.81814 4.58187 65 104 82
0.139317 -0.963559 2.38289 75 195 154
0.347148 -0.783458 1.90322 177 224 221
0.528224 -0.607182 1.42616 101 128 94
0.536324 -0.600376 1.40757 116 156 138
-3.4995 -4.21921 10.6858 96 139 136
-0.827812 -1.81959 4.5904 80 101 79
-2.96116 -3.72792 9.47656 157 225 202
0.351015 -0.776501 1.89193 65 101 84
-2.12774 -2.97484 7.56468 85 125 113
-0.87139 -1.84473 4.67269 85 117 106
-0.00269234 -1.08472 2.71437 76 138 116
0.215264 -0.890534 2.20341 149 206 207
0.269503 -0.838103 2.06212 188 255 233
-14.7698 -14.2875 36.5274 100 144 105
0.339637 -0.780384 1.91518 154 243 203
-1.33079 -2.24951 5.74123 115 160 134
-3.11576 -3.83129 9.81726 87 110 96
-3.32619 -4.00025 10.3053 105 131 125
0.334155 -0.777971 1.92455 155 229 199
-3.88678 -4.47829 11.5804 68 130 114
-2.82977 -3.54764 9.19412 84 116 121
-13.4111 -12.7857 33.2742 73 112 90
-2.91242 -3.59716 9.36478 162 230 223
-2.66952 -3.39212 8.80128 174 214 243
0.321566 -0.782529 1.95535 62 97 70
-3.00268 -3.6755 9.55933 85 140 131
-11.5409 -11.0574 28.9385 162 236 194
-1.52146 -2.37177 6.17441 134 209 177
-0.946075 -1.86727 4.85054 171 219 207
0.308457 -0.786934 1.97463 81 143 113
-10.0326 -9.77396 25.5987 167 234 202
0.297078 -0.792439 1.99842 61 87 64
0.331694 -0.763163 1.9173 79 122 101
-1.32553 -2.18143 5.72447 118 161 134
0.160125 -0.910089 2.32769 253 255 255
0.322068 -0.768648 1.93907 148 212 170
-2.56288 -3.25005 8.54843 80 107 97
-0.00454439 -1.04676 2.70752 119 169 159
-0.377263 -1.36601 3.57414 116 170 163
-2.38492 -3.06647 8.13133 140 195 170
-0.928013 -1.80846 4.77846 129 177 149
-0.843897 -1.73414 4.57751 154 215 187
0.156624 -0.903154 2.33274 154 140 151
0.321135 -0.761305 1.93697 166 247 202
-0.700767 -1.60957 4.24644 58 113 96
-2.67545 -3.2922 8.78647 155 219 223
-0.903127 -1.77055 4.71119 145 182 150
-0.00558895 -1.03457 2.7029 86 141 124
-2.569 -3.20091 8.55583 158 202 195
0.293337 -0.776358 1.99598 87 124 104
0.149512 -0.897738 2.3384 184 166 179
-2.83188 -3.39332 9.132 111 129 170
-0.894215 -1.75175 4.69227 136 200 165
0.064513 -0.968632 2.54656 61 144 129
0.524552 -0.571295 1.4115 157 198 167
0.223442 -0.826721 2.15503 250 255 255
0.564497 -0.531457 1.29711 141 204 162
-2.08479 -2.74044 7.42384 147 196 188
0.162517 -0.878375 2.30834 115 147 152
-3.06986 -3.55315 9.66355 160 224 218
0.33056 -0.736931 1.91109 177 245 214
-2.74756 -3.26792 8.91049 89 118 145
-0.70796 -1.57316 4.25288 70 129 109
-0.698849 -1.56501 4.2316 45 98 84
-0.636051 -1.50551 4.06512 117 231 184
0.368 -0.716222 1.85284 141 213 201
-1.9176 -2.5676 7.03836 118 138 119
0.155291 -0.874739 2.3253 253 255 254
0.257785 -0.787439 2.07373 185 238 228
-3.09973 -3.53812 9.71912 95 118 114
-0.836111 -1.65253 4.50971 143 226 188
-2.7629 -3.25394 8.95939 179 226 248
-2.51718 -3.04072 8.38812 139 198 183
-3.2659 -3.66274 10.1072 127 162 172
-2.45778 -2.98762 8.27149 77 99 81
-2.21063 -2.78885 7.70484 133 164 163
0.0319691 -0.966525 2.60817 251 255 255
-3.18931 -3.5681 9.90731 149 230 227
-0.506945 -1.41187 3.86161 249 254 255
-0.0160257 -1.00382 2.71417 200 254 247
0.0310192 -0.965923 2.61288 242 255 255
-13.0617 -11.5361 32.2217 67 114 82
0.102039 -0.904944 2.44287 248 255 255
0.214048 -0.809294 2.17278 142 150 163
0.22932 -0.799209 2.13795 118 157 171
-1.81655 -2.44165 6.78997 116 138 113
-0.888933 -1.65879 4.60972 142 199 166
-0.845887 -1.63794 4.53671 118 192 150
0.261079 -0.77096 2.06325 158 225 210
0 0 0 95 146 112
0.210699 -0.806458 2.17748 160 192 205
-0.0354025 -1.00055 2.74946 87 138 118
0.240324 -0.782493 2.10694 250 254 249
0.27246 -0.752203 2.02467 103 144 136
0.328696 -0.713537 1.91012 161 236 215
0.0952808 -0.899379 2.45973 129 176 173
-6.35876 -6.01292 17.0567 77 147 111
0.324289 -0.714557 1.91928 56 102 90
0.136818 -0.854438 2.35549 195 192 201
-0.0472728 -0.994681 2.77391 142 182 181
-0.0177049 -0.970047 2.70323 115 187 167
0.0678848 -0.901708 2.50879 87 148 134
0.433331 -0.620847 1.65875 59 95 65
0.543015 -0.529554 1.3736 89 96 83
0.212109 -0.783729 2.16059 97 158 132
-4.05211 -4.0998 11.8194 119 192 166
-2.98637 -3.2577 9.40372 87 103 115
-2.61589 -2.97692 8.58578 160 208 202
-0.951273 -1.66098 4.75624 95 138 105
0.119434 -0.856897 2.38455 133 176 161
0.558034 -0.51168 1.31998 177 235 194
-15.671 -13.0596 37.9015 171 248 210
-9.70419 -8.4122 24.549 149 223 193
-6.52401 -5.97217 17.3783 172 242 211
0.0673555 -0.89149 2.50469 226 255 254
-12.4802 -10.526 30.7597 181 255 225
-2.9429 -3.20178 9.3204 102 115 117
-2.50794 -2.87072 8.33947 194 246 236
0.346732 -0.683998 1.87712 148 238 208
-2.28017 -2.68205 7.81836 115 166 152
0.218188 -0.769728 2.14505 110 156 143
0.264175 -0.734031 2.0339 99 149 137
-14.0313 -11.6603 34.2598 59 158 108
-6.79911 -6.11303 17.9733 68 126 98
-6.50985 -5.90905 17.3456 70 116 93
-2.86041 -3.11697 9.12371 151 210 225
-8.3622 -7.31435 21.5722 69 114 81
-4.162 -4.10197 12.0473 91 132 101
0.246354 -0.743397 2.07489 88 118 147
-0.0579907 -0.974488 2.79103 193 240 231
0.0554952 -0.88385 2.52246 136 240 207
0.338106 -0.681162 1.89315 166 239 207
-2.6001 -2.89558 8.52876 147 223 205
-2.51869 -2.8335 8.34695 85 103 96
-6.20528 -5.60919 16.6376 67 108 80
-3.82708 -3.81508 11.2929 84 140 119
0.221092 -0.756476 2.13412 107 155 143
0.307783 -0.695922 1.94791 131 180 188
0 0 0 157 245 209
0.0564283 -0.874037 2.51084 80 164 130
0.315523 -0.685716 1.92818 69 137 114
6.11956 3.65687 -10.9922 123 183 149
-11.6068 -9.61384 28.7713 45 94 72
-2.54116 -2.81786 8.39546 162 219 218
-0.483306 -1.27856 3.76523 239 251 255
0.340947 -0.668617 1.87891 181 255 217
-5.47782 -4.99136 14.9793 81 146 121
-3.79118 -3.72415 11.2113 85 139 116
-0.0330776 -0.935116 2.72155 77 129 112
0.115976 -0.823471 2.37704 115 112 127
0.299964 -0.691531 1.95984 105 178 162
6.46826 3.87187 -11.7317 43 78 64
-8.36514 -7.08101 21.42 125 205 170
0.208871 -0.751672 2.15947 115 138 184
0.356606 -0.64266 1.80958 165 226 182
-12.8839 -10.3654 31.5156 95 153 124
-2.78142 -2.94792 8.9105 79 106 97
0.0734041 -0.851526 2.48154 119 162 149
0.255542 -0.713159 2.04011 90 168 151
0.0155909 -0.889569 2.61068 221 255 255
0.143833 -0.793772 2.30185 142 124 141
-0.072084 -0.949234 2.80267 105 138 134
-3.22676 -3.24982 9.90305 174 237 227
-2.7049 -2.87191 8.73182 152 199 191
-0.492148 -1.25742 3.76143 93 134 129
0.303553 -0.68044 1.95321 124 169 183
9.32439 5.9351 -18.2886 109 167 162
0 0 0 107 162 137
0 0 0 140 220 185
-5.36245 -4.79655 14.6753 72 127 102
-4.87806 -4.45154 13.6056 102 154 137
-3.0055 -3.09168 9.42511 172 206 235
0.0711822 -0.843207 2.47715 255 255 255
0.215833 -0.734098 2.13858 231 255 254
0.143901 -0.779076 2.28741 252 254 255
-13.5135 -10.6302 32.9138 139 232 187
-5.23063 -4.6443 14.3146 148 240 197
-0.0646776 -0.925568 2.77548 108 156 138
0.354906 -0.626932 1.80359 38 38 26
0 0 0 88 146 122
0.132909 -0.77896 2.31322 145 134 154
-2.56744 -2.70501 8.41366 154 213 199
0.239864 -0.704759 2.07774 154 210 205
0.265544 -0.68874 2.01882 132 158 165
-3.76298 -3.55137 11.0811 101 174 148
0.260322 -0.692139 2.0334 175 226 222
0.0480587 -0.834787 2.526 93 177 148
0.264067 -0.684775 2.02353 79 81 82
0.275046 -0.678485 2.00173 73 83 77
8.94392 5.50383 -17.4484 158 227 212
-4.66073 -4.14104 13.0658 101 184 159
-2.97416 -2.96618 9.31147 194 228 255
-2.81386 -2.83572 8.94202 153 205 212
0.0984058 -0.796923 2.39935 243 247 255
0.329928 -0.633788 1.86166 85 133 104
0.360863 -0.611803 1.78496 136 188 141
-5.07089 -4.40918 13.9435 59 127 96
-0.0513623 -0.894904 2.73095 119 194 162
0.0743939 -0.806723 2.45001 94 78 62
-12.2523 -9.34006 29.8635 132 226 179
-0.425049 -1.15171 3.59092 101 151 147
0.285406 -0.662422 1.9746 162 239 212
0.290359 -0.657239 1.96387 77 89 67
0.109594 -0.776513 2.37029 162 131 122
10.0894 6.171 -19.9499 92 156 114
0.317732 -0.633227 1.89166 96 143 105
-5.54901 -4.65085 14.9934 143 235 192
0.306395 -0.637032 1.90876 71 122 88
-3.45135 -3.1929 10.347 85 147 135
0 0 0 164 234 197
0 0 0 76 96 67
-3.69357 -3.34517 10.8718 57 99 76
0.132069 -0.748179 2.30605 250 255 255
-5.199 -4.35493 14.1988 61 114 81
-3.0878 -2.92856 9.5273 146 201 232
-11.1709 -8.33042 27.4173 140 224 189
-0.423246 -1.11722 3.57402 122 152 153
0.178399 -0.704079 2.17811 165 221 178
-3.13779 -2.92322 9.63438 97 118 133
-5.15693 -4.25018 14.0542 127 219 178
0.0899518 -0.764355 2.39646 90 81 68
-7.66173 -5.90114 19.6515 138 200 182
-2.85941 -2.73767 9.03687 78 118 123
-0.0912432 -0.882427 2.82065 103 117 105
0.29034 -0.634813 1.95401 101 107 102
10.8479 6.46116 -21.631 167 229 223
-15.406 -11.0223 36.7398 114 203 160
-13.8002 -9.93547 33.2707 125 208 170
-6.44282 -5.06372 16.9075 52 91 66
0.187829 -0.686993 2.15241 93 121 85
-8.15708 -6.13027 20.6177 87 122 112
-2.85411 -2.69516 9.00754 89 149 165
-0.442353 -1.10634 3.61513 252 254 254
-0.529645 -1.16179 3.80803 126 170 163
15.604 9.50602 -32.2794 99 156 158
0 0 0 171 233 215
0.175969 -0.686733 2.17631 134 200 148
-0.161865 -0.906363 2.96545 216 218 219
0.293021 -0.617568 1.94064 141 143 144
-0.507209 -1.12129 3.74544 174 251 230
-0.155653 -0.897182 2.9488 131 110 102
-5.965 -4.62175 15.8111 139 230 191
10.6573 6.11184 -21.1354 86 120 110
-4.54105 -3.69415 12.6895 124 219 175
-4.26381 -3.52059 12.0757 131 206 185
-0.0676704 -0.83253 2.73493 67 145 104
0.171427 -0.675633 2.17267 126 186 152
11.261 6.4843 -22.4978 86 122 110
0.0509262 -0.756427 2.47513 255 255 251
0.239463 -0.637069 2.04265 156 195 180
0 0 0 117 157 146
0.0670369 -0.740219 2.43631 126 140 129
5.45499 2.57962 -9.11996 157 249 208
0 0 0 137 229 180
-0.790364 -1.24185 4.26589 52 91 70
0.219463 -0.638687 2.07921 153 203 203
-0.589367 -1.142 3.91886 121 172 168
0.0255679 -0.757066 2.52504 71 116 89
0.125094 -0.6878 2.26839 131 179 143
0.0533941 -0.739002 2.46341 180 207 198
0 0 0 133 197 161
7.95287 4.08187 -14.7139 87 121 104
0.0308487 -0.741825 2.50666 59 136 92
0.12023 -0.678048 2.26582 159 198 160
8.79254 4.58401 -16.5354 81 126 109
-0.842134 -1.24809 4.38694 17 83 58
0.0893549 -0.701169 2.36174 150 214 162
-4.45427 -3.46361 12.4232 84 151 112
-3.67468 -2.98767 10.7337 158 220 228
-0.572775 -1.10911 3.88249 79 122 101
-0.144928 -0.839709 2.90165 207 204 200
0.136816 -0.662603 2.23542 87 127 92
6.89338 3.36703 -12.4255 111 171 147
-0.569322 -1.08466 3.83785 138 228 198
0.106706 -0.675113 2.29548 136 217 178
-0.0173615 -0.74672 2.60574 140 221 182
-0.0543847 -0.766926 2.6777 67 85 72
-0.0274414 -0.748544 2.62087 45 109 80
0.139862 -0.646605 2.22276 53 62 49
7.87972 3.89399 -14.584 110 159 131
0.0258548 -0.713507 2.49531 147 221 173
-0.501977 -1.00727 3.67378 74 116 109
0.0463645 -0.694637 2.45052 97 156 112
-0.809156 -1.16032 4.25815 200 253 233
5.79818 2.60363 -9.97574 75 117 100
0 0 0 18 47 22
0.0315865 -0.697846 2.47911 64 66 47
-0.813715 -1.15032 4.27545 74 125 111
-0.84813 -1.1627 4.35568 73 96 82
-8.95522 -5.6886 22.0793 159 235 203
-0.810502 -1.12833 4.26193 83 135 117
-0.622138 -1.04536 3.93827 106 169 153
-0.495199 -0.979855 3.6622 95 163 146
-0.161621 -0.791833 2.91142 208 221 229
0 0 0 118 213 169
0 0 0 135 235 199
0 0 0 124 207 169
-0.642656 -1.0511 3.98602 102 159 160
0.0382573 -0.674853 2.4546 111 145 121
0 0 0 15 65 53
-9.41663 -5.84562 23.0193 152 220 185
-0.168687 -0.781637 2.92603 253 255 255
0.0784137 -0.645118 2.36051 133 176 155
0 0 0 154 249 215
9.98774 4.73118 -19.0882 75 105 86
-0.999027 -1.19312 4.65881 58 124 95
-0.0783034 -0.703224 2.62439 59 69 69
0.0539151 -0.651771 2.40999 109 139 114
0 0 0 100 132 101
-4.31965 -2.9966 12.0124 98 144 122
-0.649085 -1.02233 3.98211 90 151 137
-0.750001 -1.07029 4.20715 138 184 202
9.54459 4.38595 -18.0945 115 152 136
-14.8541 -8.3962 34.4533 47 56 43
-11.1917 -6.51674 26.7142 47 81 51
-0.952602 -1.13155 4.53408 171 244 204
0 0 0 169 215 169
-0.914755 -1.09662 4.43556 233 255 246
0 0 0 101 118 91
-0.842281 -1.05196 4.28325 76 170 135
-0.610886 -0.95582 3.87136 177 242 221
0.0293641 -0.624848 2.42892 115 147 122
-9.46263 -5.32829 22.7728 56 78 59
-0.83678 -1.028 4.25963 99 172 140
0.0230248 -0.61678 2.43244 100 167 130
0.389461 -0.449069 1.66442 120 123 127
0 0 0 80 109 100
0.11275 -0.569541 2.2373 101 138 112
13.816 6.057 -26.7247 117 162 143
-0.0222627 -0.634722 2.53229 45 69 37
-0.216349 -0.716775 2.97793 146 127 122
-6.13823 -3.52525 15.6104 56 86 67
-0.92266 -1.0306 4.43128 190 241 204
0.0432394 -0.589195 2.38226 93 134 102
-1.03822 -1.07571 4.68814 168 225 210
-0.939902 -1.0256 4.46112 57 71 59
0.106582 -0.554458 2.2468 80 132 109
-0.889945 -0.994971 4.34354 158 240 188
0.0099003 -0.595922 2.45101 51 94 57
-0.229073 -0.703111 2.99506 140 115 99
0.111153 -0.543743 2.2317 144 210 181
7.15887 2.73525 -12.7887 164 229 204
-0.855144 -0.961399 4.25338 124 203 160
0.135712 -0.524624 2.16486 86 149 105
-6.77827 -3.59466 16.9451 159 243 201
-1.05286 -1.02384 4.68064 66 124 96
-0.0149138 -0.574939 2.479 95 159 124
0 0 0 119 164 137
0.0876163 -0.524274 2.26765 150 212 194
-5.59591 -2.89733 14.3738 160 220 209
-5.05193 -2.68855 13.3113 154 222 187
-0.596807 -0.797299 3.75141 164 234 221
-0.584606 -0.795011 3.74858 99 164 155
-1.05099 -0.970018 4.65763 56 95 79
0.0051402 -0.53738 2.42358 119 165 143
-5.36451 -2.74132 13.848 36 63 60
-5.36389 -2.74421 13.8734 45 94 80
0.376331 -0.391035 1.64229 107 127 108
0.00364431 -0.522524 2.41037 102 169 137
0.0369919 -0.510864 2.33642 139 193 156
-1.06127 -0.912686 4.62821 38 62 44
0.365494 -0.384383 1.6666 148 185 199
-1.22678 -0.954813 4.99565 115 145 126
-0.972278 -0.850425 4.40602 74 134 123
-1.01565 -0.860816 4.50302 76 110 93
-0.16365 -0.560271 2.76562 85 66 51
0.375406 -0.370922 1.62696 106 161 142
-0.978487 -0.849668 4.43428 152 235 203
-0.891192 -0.814204 4.23749 107 186 159
-2.06175 -1.25479 6.75866 79 138 123
-0.664365 -0.732316 3.85373 215 244 235
-0.0485382 -0.481903 2.49911 136 203 182
-0.754216 -0.706211 4.0127 92 130 118
-0.838307 -0.73228 4.20026 168 184 196
-0.808958 -0.716176 4.12491 139 157 150
-2.78248 -1.33737 8.18114 47 110 71
-2.18022 -1.13035 6.94076 53 106 93
-1.88379 -1.02712 6.30779 57 93 71
-1.76329 -0.983516 6.03502 162 241 202
-2.01411 -1.06588 6.58394 169 243 215
-9.73092 -3.55978 22.9547 89 130 125
-2.14421 -1.0931 6.85305 176 241 220
-4.00686 -1.67995 10.8528 65 117 100
-3.68971 -1.58343 10.1836 89 145 124
-2.29815 -1.1349 7.172 75 155 126
-0.0727037 -0.446478 2.51816 52 59 54
-3.87724 -1.61523 10.5725 177 230 221
-2.73339 -1.24285 8.06271 94 156 140
-1.72688 -0.931224 5.94866 126 217 178
-4.12462 -1.65311 11.0722 97 144 135
-1.51453 -0.846262 5.42983 116 149 134
-1.75984 -0.909855 6.00496 151 246 202
-0.869401 -0.667328 4.22365 179 209 214
-3.0549 -1.28633 8.68611 46 86 74
0 0 0 141 204 164
-2.09145 -0.950938 6.67484 57 98 83
-1.7613 -0.834718 5.96191 141 244 207
-0.896971 -0.621322 4.25782 175 182 197
0 0 0 60 92 57
-2.31138 -0.981705 7.13051 198 254 233
-2.17424 -0.946687 6.8446 160 240 209
-0.383003 -0.47861 3.14483 219 223 224
-1.80214 -0.818521 6.04013 63 102 80
-0.77415 -0.56598 3.97591 155 167 167
-2.90455 -1.08697 8.38312 158 222 192
-3.98475 -1.3364 10.666 85 144 130
-3.01371 -1.09765 8.58202 89 140 120
-2.8183 -1.03244 8.19312 93 137 131
-2.94195 -1.04579 8.43822 159 232 206
-0.402323 -0.438629 3.15885 223 219 224
-2.74458 -0.959882 8.02105 165 244 205
-2.06549 -0.801256 6.53487 68 123 96
-1.12477 -0.580478 4.56217 132 214 179
0 0 0 65 92 66
-2.76678 -0.943362 8.05348 122 138 131
-2.51483 -0.874473 7.51588 153 222 202
-2.08799 -0.781184 6.58796 63 137 109
-0.757163 -0.490202 3.89491 105 153 129
-1.15272 -0.559819 4.59231 64 98 74
-1.14779 -0.559254 4.59078 65 106 85
-4.35267 -1.23506 11.3503 116 176 166
-1.64164 -0.648062 5.63327 146 207 181
-3.36945 -1.01066 9.31207 73 126 113
-2.20052 -0.749099 6.75834 63 94 79
-1.46417 -0.603076 5.23594 55 80 54
-1.15221 -0.536036 4.57564 112 161 145
-1.97068 -0.702546 6.31726 179 243 207
-1.88408 -0.681667 6.15653 159 220 192
-4.04577 -1.11052 10.6728 91 137 125
-2.11698 -0.714634 6.62702 63 131 108
-0.279209 -0.350914 2.86026 255 207 156
-3.31047 -0.917368 9.11795 69 115 93
-2.04195 -0.649689 6.42813 153 234 195
-3.13186 -0.818543 8.70346 108 98 64
-1.45617 -0.521964 5.18527 169 242 210
-2.15788 -0.630987 6.64813 39 84 58
-0.798433 -0.410972 3.93468 134 170 170
-3.08836 -0.793912 8.61117 255 213 157
-1.60407 -0.527705 5.46382 90 145 126
-2.75523 -0.708033 7.86119 148 219 193
-3.34765 -0.79929 9.13899 78 121 94
-1.30929 -0.466066 4.86404 63 117 94
-1.96816 -0.541031 6.21084 137 211 181
-11.1774 -1.95093 25.1988 236 255 252
-1.4484 -0.45884 5.143 115 177 147
-0.881171 -0.372977 4.06935 198 237 251
-3.85572 -0.794147 10.1239 141 228 194
-3.53585 -0.746906 9.48076 170 249 216
-3.37502 -0.709895 9.13384 94 159 137
-1.26103 -0.390755 4.72253 138 225 199
-2.4481 -0.504121 7.18918 90 138 120
-2.83232 -0.527393 7.98327 125 158 137
-2.15299 -0.451254 6.57293 83 125 102
-0.899583 -0.31274 4.07341 99 134 138
-3.17555 -0.556004 8.67169 136 203 182
-0.903418 -0.302818 4.06907 96 138 157
-4.00355 -0.610999 10.3618 99 159 149
-3.42004 -0.513365 9.14232 169 248 221
-2.93439 -0.460025 8.16069 110 136 118
-1.27124 -0.298983 4.6535 133 206 184
-0.932631 -0.273445 4.11263 99 122 138
-4.02619 -0.493354 10.3589 250 255 255
-1.79365 -0.314624 5.80748 171 221 203
-7.12353 -0.689876 16.6015 91 151 143
-15.2534 -1.19983 33.0062 72 149 122
-2.09879 -0.29712 6.39304 126 138 120
-0.716649 -0.207434 3.63033 145 139 144
-0.696092 -0.208738 3.59753 215 220 221
-0.632224 -0.204594 3.46148 212 209 211
-7.37286 -0.585433 17.0562 85 136 122
-1.80233 -0.256695 5.80711 236 255 255
-1.77213 -0.250828 5.73988 177 225 227
-0.651627 -0.190418 3.48301 207 212 213
-0.486596 -0.185138 3.15571 198 191 188
-0.623725 -0.188075 3.43003 221 226 229
-5.34757 -0.397265 12.9651 88 148 130
-2.75678 -0.24233 7.71153 152 214 200
-2.87221 -0.244636 7.92687 85 129 106
-3.11681 -0.234515 8.37535 151 210 196
-1.96643 -0.201704 6.11271 123 144 136
-3.42951 -0.205423 9.03095 147 199 181
-3.08766 -0.2074 8.3297 159 212 185
-4.73992 -0.191282 11.6441 162 206 207
-1.75565 -0.141653 5.61397 110 140 127
-4.11433 -0.16989 10.3858 161 218 217
-2.23501 -0.114896 6.59816 114 151 125
-3.8041 -0.119732 9.7334 119 163 150
-1.51191 -0.105078 5.06552 63 83 71
-3.23577 -0.0804314 8.57664 117 152 142
-2.92936 -0.0738916 7.94556 142 202 191
-4.68031 -0.0421785 11.4775 137 181 180
-1.38371 -0.0727629 4.91803 128 166 196
-1.70132 -0.0519248 5.48454 130 181 154
-11.0677 0.104409 24.1566 93 155 141
-4.81363 0.102021 11.6432 94 100 95
-12.2819 0.383497 26.4875 97 157 149
-3.5229 0.0747101 9.09438 88 110 98
-2.97118 0.0694058 7.94961 86 96 84
-1.66534 0.0116535 5.38715 123 174 147
-4.72446 0.180477 11.4367 155 210 217
-5.87667 0.279222 13.7471 101 123 121
-5.52836 0.258897 13.0345 161 198 224
-3.2068 0.131021 8.42057 88 111 106
-1.52406 0.0397445 5.14596 107 137 164
-1.32195 0.0224805 4.74008 176 205 226
-4.63475 0.231855 11.2614 87 106 97
-1.85306 0.0658158 5.75019 58 64 63
-1.0728 0.016734 4.22383 215 243 244
-3.8445 0.202111 9.69461 176 228 211
-1.79027 0.0946608 5.59974 35 51 40
-2.56361 0.159148 7.13393 120 145 135
-5.82727 0.41248 13.5783 179 229 235
-3.76802 0.27624 9.50923 137 189 201
-1.12552 0.0599359 4.29481 78 112 106
-0.489094 0.00391474 3.00884 206 238 251
-4.52046 0.356649 10.9623 164 219 210
-1.50072 0.107784 5.04765 134 142 159
-1.23174 0.0819646 4.52781 103 128 132
-1.08183 0.0749168 4.19806 114 155 157
-0.498883 0.0147604 3.02232 127 135 148
-4.44121 0.392949 10.806 70 85 64
-0.538469 0.0309136 3.09907 132 120 118
-0.580693 0.0415674 3.16987 214 216 217
-0.554465 0.0403058 3.12284 229 229 229
-8.96771 0.965358 19.662 54 100 77
-7.61211 0.88949 16.9816 137 199 187
-2.44407 0.292847 6.84597 149 180 173
-5.37683 0.651283 12.5885 69 85 78
-3.75792 0.474715 9.38841 170 209 241
-0.541128 0.0664937 3.07159 177 167 160
-3.18554 0.444635 8.2478 144 191 188
-3.12646 0.44415 8.14259 96 125 116
-3.06151 0.446838 7.98856 69 90 87
-5.72599 0.844626 13.2213 116 173 172
-5.6681 0.847778 13.1147 158 214 219
-3.04054 0.482989 7.94699 134 175 178
-5.24843 0.822326 12.2691 140 191 187
-5.42279 0.869293 12.59 84 107 103
-3.46388 0.572289 8.7552 106 156 132
-4.88677 0.803128 11.5563 142 200 189
-0.623694 0.130317 3.19678 209 207 206
-3.15868 0.561903 8.16045 118 136 137
-0.644252 0.186456 3.20966 219 215 214
-3.97606 0.881446 9.67007 72 102 91
-0.669048 0.204793 3.25094 216 219 217
-5.58003 1.3148 12.7759 96 139 136
-0.771569 0.297723 3.41422 220 224 225
-0.74932 0.305088 3.34431 166 154 148
-0.794326 0.343733 3.43573 137 123 117
0 0 0 189 187 193
-0.234796 -1.90503 3.25037 169 251 222
-0.280954 -1.95553 3.36919 68 84 73
-0.328808 -2.02606 3.49941 148 188 176
-0.350855 -2.04788 3.54938 69 83 77
-0.369616 -2.06149 3.59199 152 219 198
0.369153 -1.01799 1.76724 86 145 125
0.128134 -1.41776 2.49103 212 234 240
-0.362396 -2.00831 3.56458 62 98 81
-0.49627 -2.17522 3.90772 77 113 101
-0.240219 -1.86888 3.35399 126 167 159
-0.0509899 -1.61638 2.90384 146 134 140
0.152884 -1.35 2.42631 95 174 155
-0.416777 -2.03368 3.70305 54 102 90
-0.483746 -2.12192 3.86538 91 137 125
-0.474538 -2.10085 3.83488 145 242 215
-0.419165 -2.00484 3.70675 70 126 107
-0.349708 -1.91314 3.55066 60 88 75
-0.311677 -1.85693 3.44216 123 157 157
0.137508 -1.32287 2.4447 62 117 102
-1.09836 -2.85221 5.29221 93 166 144
-0.422088 -2.00856 3.72045 89 150 124
0.125321 -1.34595 2.48958 65 100 90
-0.474808 -2.07117 3.85408 57 102 86
-0.429384 -1.99716 3.72786 163 243 206
-0.401198 -1.9701 3.68352 69 102 88
-0.443944 -1.99899 3.76431 74 141 109
0.118868 -1.32031 2.48412 65 91 78
-0.466048 -2.01778 3.82024 89 143 130
0.41447 -0.957224 1.80092 56 90 59
0.17912 -1.23566 2.36672 158 215 206
0.104522 -1.31934 2.53738 48 98 80
0.12999 -1.27844 2.47152 68 134 123
-0.398599 -1.87443 3.66465 67 72 57
0.122673 -1.26551 2.49169 62 130 113
-0.491934 -1.95544 3.89265 72 114 97
0.0985311 -1.28008 2.53255 51 113 89
0.365746 -0.965508 1.89414 77 111 87
0.167499 -1.18561 2.38493 100 124 144
-0.400339 -1.7759 3.63436 166 245 218
-0.705908 -2.12392 4.37241 68 123 98
-0.26264 -1.64682 3.38961 160 200 212
0.283501 -1.02234 2.10313 139 182 197
-0.713273 -2.10203 4.39881 154 238 209
-0.408414 -1.73764 3.64509 110 156 143
0.38395 -0.908334 1.86603 83 124 127
0.0660304 -1.24598 2.60732 60 115 88
0.366126 -0.918806 1.89987 67 94 85
-0.765435 -2.13882 4.52016 89 149 131
0.268537 -1.02419 2.13465 107 114 133
-0.703531 -2.04474 4.3364 70 112 87
-0.430915 -1.74636 3.68936 68 104 92
-0.729874 -2.08347 4.43114 133 193 175
-0.401456 -1.70947 3.62105 178 234 223
-0.86509 -2.22072 4.74162 96 167 140
-0.610443 -1.94004 4.15099 155 208 198
-0.408428 -1.70185 3.63895 123 174 166
0.287756 -0.980087 2.08119 88 114 130
-0.525589 -1.81753 3.94814 54 58 52
0.259485 -1.00492 2.15152 95 99 128
-0.893735 -2.1981 4.80143 100 162 140
0.267299 -0.991301 2.13301 78 101 133
-2.06872 -3.4394 7.51642 91 132 117
-1.79263 -3.14296 6.89382 107 149 132
-0.871369 -2.1734 4.77058 77 126 110
0.275294 -0.979291 2.10915 109 170 180
-1.75578 -3.08831 6.79873 147 222 194
-0.81249 -2.08866 4.61233 85 118 97
-0.770454 -2.05122 4.51167 80 121 94
0.0448548 -1.21497 2.65518 89 149 138
-1.6724 -2.97057 6.60701 113 156 153
-0.822502 -2.10036 4.66171 91 127 105
0.258663 -0.981777 2.14723 118 157 155
0.360123 -0.875633 1.90105 68 122 99
-1.50548 -2.7786 6.20723 99 126 117
-1.95948 -3.23952 7.25578 91 134 113
0.225492 -1.00956 2.22378 123 158 171
0.369219 -0.864266 1.88278 60 78 61
-1.49378 -2.74605 6.18036 151 207 188
-0.777993 -2.00355 4.5049 67 103 89
-0.767295 -1.98634 4.47301 92 128 111
0.247698 -0.977589 2.16655 124 167 164
-1.70891 -2.94486 6.67481 73 100 91
-0.909079 -2.13646 4.84317 88 134 115
0.0333347 -1.19538 2.67542 175 234 226
-1.87581 -3.11345 7.07928 79 130 103
-1.33794 -2.56889 5.82975 146 220 190
0.038299 -1.17829 2.64952 59 96 70
-0.324549 -1.54445 3.50506 120 182 170
0.238755 -0.978743 2.18855 231 255 251
0.252973 -0.962245 2.14704 76 96 91
0.534892 -0.677116 1.461 88 99 73
-1.51206 -2.71868 6.21635 155 229 211
-2.30154 -3.50946 8.03036 179 219 247
-1.38528 -2.58547 5.92052 70 119 97
-0.676963 -1.87023 4.28245 153 216 196
0.284947 -0.92425 2.06861 127 173 174
-2.52305 -3.71088 8.51839 83 116 89
0.0557443 -1.14581 2.60187 93 177 142
-1.30342 -2.48449 5.73119 133 225 196
0.343526 -0.854147 1.91874 71 106 86
-1.13125 -2.30742 5.33144 98 179 140
-0.825437 -2.00572 4.61972 79 116 96
0.308779 -0.893675 2.00996 137 194 173
0.341927 -0.861985 1.93798 120 213 176
0.0414026 -1.15513 2.63925 80 178 136
-2.67976 -3.82217 8.89104 143 230 204
-1.01858 -2.17844 5.07414 158 235 201
0.350222 -0.845861 1.90914 174 252 205
-1.49326 -2.6432 6.16103 142 226 192
-1.20529 -2.35283 5.50189 106 152 133
-2.42527 -3.55602 8.31577 180 219 241
-2.15756 -3.27977 7.68876 113 161 133
-1.02569 -2.18359 5.096 156 231 199
0.235657 -0.953476 2.18568 117 160 163
-1.32021 -2.4578 5.76127 55 104 72
-1.22511 -2.37542 5.5549 95 126 105
0.143074 -1.04096 2.40112 62 137 116
0.339902 -0.850892 1.93981 84 159 137
-1.48511 -2.59774 6.12886 84 111 77
-1.26338 -2.38368 5.61254 158 234 203
0.292 -0.885611 2.04229 73 84 74
-1.84733 -2.925 6.96538 153 215 201
-2.44137 -3.49256 8.33601 166 206 231
-2.17981 -3.226 7.73849 155 211 190
-1.3568 -2.43845 5.82975 89 115 99
-2.86813 -3.86782 9.30049 99 133 122
-0.945632 -2.05374 4.90766 78 120 85
0.152162 -1.00939 2.38018 63 130 103
0.255391 -0.904171 2.1213 89 112 108
0.314839 -0.852954 1.98769 95 167 144
0.302513 -0.863574 2.017 103 166 146
-1.13448 -2.20148 5.32963 116 172 137
-1.51401 -2.54788 6.19356 115 183 158
0.251853 -0.897519 2.12643 118 159 144
0.537046 -0.623873 1.41693 65 91 73
-1.91226 -2.92225 7.12439 162 226 220
0.285696 -0.856769 2.04561 77 112 98
-2.54363 -3.46993 8.55544 147 172 192
-1.06089 -2.06563 5.1178 152 225 185
0.00996788 -1.10442 2.6944 64 111 89
0.178803 -0.94993 2.29466 174 190 196
0.337301 -0.80796 1.93306 88 162 120
0.120655 -1.0006 2.42841 41 105 83
0.0127498 -1.0936 2.6884 156 233 205
-1.35149 -2.32758 5.80499 143 211 186
-2.74161 -3.58292 8.98683 160 222 210
-2.56487 -3.41175 8.57548 150 169 182
-2.01974 -2.91796 7.33725 128 190 176
-1.53791 -2.484 6.22498 131 170 148
-1.4583 -2.41519 6.03952 144 221 193
-1.26536 -2.24065 5.61014 85 107 83
-0.806269 -1.81776 4.54207 156 204 192
-1.30708 -2.26567 5.70974 112 179 150
0.232263 -0.882552 2.16477 255 255 255
0.528526 -0.60711 1.42617 88 117 84
-3.28015 -4.0264 10.2063 97 136 121
-0.302925 -1.36091 3.42128 115 164 166
0.157223 -0.947721 2.34795 121 167 161
0.269629 -0.837988 2.06384 194 253 233
0.320905 -0.799035 1.95731 106 171 145
4.05157 2.57689 -6.60214 127 184 163
-13.0113 -12.7377 32.5095 149 223 199
-1.56338 -2.46412 6.28511 133 196 164
-0.871289 -1.84507 4.67464 75 105 94
0.189993 -0.908242 2.26168 115 145 150
-3.22632 -3.92706 10.075 97 114 105
0.202976 -0.88971 2.22381 156 195 217
-3.89462 -4.48612 11.6065 65 127 111
-1.22565 -2.13246 5.49538 168 224 181
0.308915 -0.795096 1.97861 62 102 84
0.352771 -0.752746 1.86789 85 121 104
-13.5066 -12.8737 33.5227 68 118 94
-3.41805 -4.03893 10.5209 168 231 239
-1.86579 -2.67531 6.965 134 176 151
-0.939584 -1.86406 4.83341 136 177 169
0.296644 -0.800792 2.00583 152 224 188
-1.67976 -2.51084 6.54083 117 143 120
0.163803 -0.908411 2.32315 255 255 255
0.353609 -0.7451 1.8661 50 107 82
-1.58298 -2.39435 6.3072 131 194 162
-1.48274 -2.3138 6.07574 239 247 247
-3.47911 -4.01571 10.6431 92 147 156
3.86267 2.30082 -6.17065 145 207 183
-3.00121 -3.56407 9.52992 121 177 178
-0.66596 -1.57873 4.16018 73 113 101
-0.00551575 -1.03459 2.70451 95 153 129
0.312329 -0.766248 1.95512 148 236 196
0.141266 -0.911545 2.36722 146 126 125
0.179947 -0.876918 2.27282 157 173 189
0.217039 -0.840924 2.1705 203 232 255
0 0 0 109 160 132
0.0415366 -0.989392 2.59918 108 190 161
-0.669012 -1.5593 4.16151 134 220 190
0.0646345 -0.968634 2.54398 72 148 136
0.243959 -0.817162 2.11389 92 138 132
-0.0274803 -1.04111 2.75272 86 144 126
0.22442 -0.826536 2.15564 253 255 255
0.299835 -0.764988 1.97779 52 87 67
-2.81027 -3.3471 9.07911 193 230 255
-2.75868 -3.27518 8.93878 100 131 170
-0.700921 -1.56607 4.23915 62 127 106
