ply
format ascii 1.0
element vertex 1021
property float x
property float y
property float z
property uchar blue
property uchar green
property uchar red
end_header
-0.275463 -0.500231 1.10243 168 189 187
1.4507 -3.43943 8.08624 108 167 146
0.545648 -1.15689 2.92028 98 152 135
0.0176777 -0.800732 2.4164 170 244 214
-0.00748631 -0.558612 2.31503 83 140 131
0.854646 -0.884691 6.01752 93 132 107
-6.5516 3.33033 -26.3408 142 177 151
-1.35031 -0.00393207 -3.72384 160 190 179
-0.222881 -0.60961 1.40863 166 248 205
0.292989 -1.41448 3.48408 127 185 160
0.366987 -1.50315 3.81209 98 172 146
0.601197 -1.77727 4.79077 58 88 69
0.0198183 -0.806435 2.42313 121 178 139
0.191219 -1.01952 3.16034 152 219 188
0.103975 -0.883856 2.8199 137 227 192
0.0359021 -0.742231 2.48483 160 230 199
0.0601314 -0.726932 2.58739 40 56 38
-0.103133 -0.52413 1.86352 120 141 138
0 0 0 132 159 133
-1.92326 4.75836 -18.9954 94 110 109
0.0277896 -0.599966 2.43105 154 214 184
-0.0325964 -0.527565 2.17809 99 132 148
0.290232 -0.798816 3.63281 75 139 109
0.313687 -0.817372 3.72772 21 69 43
0.0325941 -0.519008 2.45558 85 107 143
0.0263404 -0.485845 2.38935 80 127 118
-1.84982 0.958614 -5.85496 165 205 187
0.0507178 -0.456508 2.45697 40 52 46
-4.5477 2.23476 -17.5717 187 230 209
0.32308 -0.450769 3.66989 103 135 124
0.284585 -0.424503 3.48076 92 135 132
0.173488 -0.353667 2.90425 120 170 170
-0.0797534 -0.270353 1.50044 71 94 86
-1.3519 0.0474886 -3.74045 74 124 114
2.51533 -0.210652 13.3189 92 122 117
-2.21304 -0.713665 -7.53304 152 176 168
0.792357 0.469509 5.11997 170 201 198
-0.264847 -0.570839 1.21336 85 126 158
0.117117 -1.24795 2.7203 143 223 200
-0.272648 -0.546744 1.16208 84 107 103
-0.265685 -0.548828 1.19575 140 227 189
0.215032 -1.3866 3.08012 173 240 219
-0.261223 -0.554311 1.21809 157 217 199
0.128653 -1.19057 2.77445 88 150 138
-0.248833 -0.559138 1.27973 82 121 113
0.156038 -1.21148 2.91138 170 255 239
-0.284094 -0.475185 1.03805 84 100 106
-0.248137 -0.540201 1.26598 77 94 90
-0.287246 -0.464349 1.01019 114 138 136
0.367015 -1.50286 3.81005 118 195 167
-0.230572 -0.542083 1.33642 143 213 182
0.00374253 -0.902512 2.36295 157 203 181
0.106755 -1.05589 2.78319 52 98 85
0.384523 -1.48832 3.90063 82 116 110
0.274412 -1.27994 3.47225 39 95 84
0.364221 -1.4099 3.8278 65 96 81
-0.273097 -0.447798 1.04179 110 110 126
-0.249031 -0.489053 1.21319 178 217 209
0.442731 -1.52877 4.1852 140 179 157
0.0552624 -0.919713 2.57836 128 226 204
0.874448 -2.10012 6.0015 124 163 118
0.952648 -2.20897 6.34584 147 195 153
-0.235214 -0.47437 1.24913 100 120 125
0.0168888 -0.804532 2.41062 177 241 211
-0.211476 -0.498751 1.3704 127 167 156
-0.256606 -0.434221 1.08828 101 127 113
-0.183988 -0.534378 1.53213 69 93 93
4.62745 -7.31504 21.8159 156 232 184
-0.173552 -0.537872 1.58664 196 225 234
0.212775 -1.0281 3.25336 103 150 128
-0.181242 -0.52264 1.53083 98 121 116
-0.1815 -0.521915 1.5332 79 112 105
-0.224307 -0.460087 1.27409 60 77 80
-0.229552 -0.448947 1.23566 83 120 110
-0.214317 -0.467413 1.32827 127 153 153
-6.80582 8.54073 -26.9075 151 234 195
-0.0211709 -0.688526 2.23921 59 93 76
0.132599 -0.881864 2.95718 173 242 209
0.0172671 -0.683937 2.38746 69 108 93
0 0 0 132 190 155
-0.0782127 -0.5599 2.01004 61 117 106
0.204933 -0.84642 3.21929 43 105 89
-0.225024 -0.398589 1.15481 166 238 216
8.59198 -10.3222 39.3634 151 232 193
-2.03528 1.82308 -6.89616 135 152 165
-0.126792 -0.490259 1.726 82 130 112
-0.123253 -0.494289 1.75749 105 148 133
-0.199664 -0.408199 1.28656 49 77 71
-0.116567 -0.492291 1.77788 82 103 95
-0.079244 -0.5315 1.98261 74 107 100
0.308656 -0.921447 3.75319 130 209 166
-0.092144 -0.512117 1.9061 71 121 109
-0.112098 -0.483663 1.78111 116 157 149
0.221872 -0.800315 3.31432 127 185 157
-0.116096 -0.46902 1.75247 79 93 81
-0.0520513 -0.526212 2.10503 84 117 126
-2.76768 2.20706 -9.78865 121 129 112
-0.0035702 -0.537119 2.31341 151 213 195
-0.201228 -0.36069 1.16227 69 105 81
-0.207567 -0.355507 1.11768 139 224 174
0.0136185 -0.528938 2.38627 63 93 82
0.0138195 -0.52886 2.38687 72 98 85
-0.164089 -0.382666 1.39714 128 164 158
-1.51198 0.910428 -4.60422 118 143 145
0.201493 -0.652072 3.20685 155 179 147
-0.0463715 -0.458735 2.05664 106 139 124
-0.16485 -0.366604 1.34821 77 88 86
-0.166109 -0.365036 1.34222 72 100 87
-0.155818 -0.367407 1.40128 162 205 194
0.047748 -0.498084 2.50287 67 120 110
0.0544786 -0.490359 2.51765 94 134 123
0.361625 -0.69014 3.86858 169 214 197
0.409242 -0.726838 4.10137 144 184 159
-0.18658 -0.33645 1.1576 95 116 113
-0.144119 -0.353534 1.41689 162 233 213
0.351223 -0.658867 3.79811 170 244 214
0.381365 -0.677884 3.92634 28 63 49
-0.0592073 -0.393967 1.87735 134 197 181
0.352756 -0.657239 3.81689 152 223 190
0.348519 -0.642704 3.79354 77 129 106
-0.159689 -0.333042 1.2812 168 234 223
-0.0506825 -0.380662 1.87291 52 107 90
-0.173105 -0.321733 1.17388 80 93 91
0.22954 -0.496844 3.29915 77 134 131
-4.5787 2.23679 -17.7545 67 74 69
-0.167474 -0.306562 1.13413 79 94 90
-0.167132 -0.306396 1.13497 95 112 108
-4.3003 2.045 -16.5361 43 51 44
0.247902 -0.471877 3.35754 72 119 97
0.281319 -0.467073 3.49997 76 104 98
-4.76565 2.14114 -18.444 173 233 193
-3.82799 1.63928 -14.4269 55 74 65
0.326468 -0.46002 3.70689 167 221 204
0.284418 -0.423971 3.47757 92 135 132
0.172038 -0.354858 2.89729 84 131 129
0.490391 -0.443557 4.41248 89 142 128
-3.44635 1.09955 -12.7715 40 80 62
-2.57956 0.739883 -8.98332 55 107 90
-1.33474 0.301101 -3.71904 82 126 127
4.177 -1.6731 20.6805 82 127 110
0.350853 -0.360871 3.73397 100 154 137
-3.3004 0.901512 -12.0671 86 121 111
-0.127917 -0.270131 1.18797 139 197 169
-0.128105 -0.270805 1.18111 70 113 98
3.25179 -1.10478 16.4796 76 105 72
-0.0627197 -0.258565 1.54664 68 93 89
-0.0312042 -0.257187 1.73635 40 83 72
-0.0640077 -0.257396 1.53937 68 92 84
-1.41917 0.215952 -4.07262 70 103 106
-2.08635 0.354387 -6.84796 179 248 203
-1.4687 0.222733 -4.2964 113 156 153
-1.51327 0.230417 -4.49588 94 115 117
0.311795 -0.267967 3.43562 85 121 121
-2.28155 0.338801 -7.65788 125 197 175
-0.0646794 -0.24269 1.47723 97 138 123
0.349119 -0.246246 3.60171 65 90 86
-4.1927 0.621108 -16.0072 98 139 131
0.43748 -0.209747 3.96584 112 144 143
-0.0311022 -0.222793 1.61325 53 102 86
0.439785 -0.205867 3.98713 103 135 141
0 0 0 171 245 217
-1.35263 0.0479497 -3.74211 74 124 114
-1.34035 0.0172255 -3.66547 158 201 174
2.18842 -0.0339168 11.7812 84 143 122
1.48716 0.00452691 8.61306 102 102 102
-1.20448 -0.0758378 -3.07944 126 150 156
-5.9907 -0.664801 -24.3337 84 131 122
-3.40106 -0.971826 -12.7561 126 158 153
-1.46554 -0.428664 -4.21598 89 137 125
0.594233 0.312893 4.22376 241 255 255
0.594447 0.312412 4.2224 235 255 255
-1.79691 -0.739213 -5.70534 186 212 199
1.38974 0.918573 7.78967 138 185 176
0 0 0 147 174 164
0 0 0 133 158 144
-1.1188 -0.415497 -2.65252 161 183 178
-1.24976 -0.533014 -3.2887 141 182 175
3.3381 2.74565 16.4458 75 89 87
-1.12455 -0.45348 -2.68769 188 211 207
-0.265097 -0.570593 1.21399 77 124 138
0.196844 -1.36404 3.01471 58 117 103
-0.0415063 -0.937962 2.13526 99 155 142
-0.26628 -0.543708 1.18086 153 216 196
0.215027 -1.38721 3.08455 161 233 211
0.20261 -1.33492 3.08241 168 231 211
-0.270439 -0.521539 1.14629 118 139 137
-0.280563 -0.500236 1.08135 188 231 220
-0.248688 -0.559206 1.2796 81 119 113
-0.252056 -0.545185 1.25289 49 70 71
-0.249905 -0.546102 1.26223 168 222 209
-0.284187 -0.47511 1.03815 85 101 107
-0.288406 -0.460535 0.997693 179 221 220
-0.238621 -0.550522 1.31603 135 203 186
-0.221472 -0.580057 1.40765 89 137 141
-0.267618 -0.494482 1.13333 202 234 233
0.253439 -1.32622 3.31357 47 68 53
0.383918 -1.53319 3.87291 66 79 81
-0.00325828 -0.896204 2.33377 53 64 56
-0.265493 -0.477957 1.11813 71 90 93
0.0203488 -0.910489 2.41861 60 81 72
0.268793 -1.30259 3.41713 169 242 220
-0.262832 -0.472867 1.11917 208 241 227
0.18575 -1.15341 3.11101 139 241 206
-0.216188 -0.547097 1.40701 127 167 192
-0.246418 -0.494332 1.22901 103 126 121
0.599511 -1.77539 4.78341 77 106 83
0.148939 -1.08009 2.97874 91 165 139
0.475479 -1.59159 4.32416 112 193 168
0.0372547 -0.890152 2.49618 166 250 225
-0.211096 -0.536953 1.41734 150 206 185
-0.248722 -0.475324 1.19899 83 116 131
-0.0958527 -0.673367 1.89338 79 102 97
-0.259654 -0.454924 1.1123 80 96 102
-5.56359 7.99305 -21.7208 117 155 157
-0.241748 -0.47883 1.22686 73 73 73
0.01037 -0.805925 2.38112 204 254 230
-0.235342 -0.474214 1.24945 101 120 127
0.0213081 -0.80602 2.43013 69 99 86
-0.178349 -0.549648 1.5745 95 151 146
-0.218387 -0.490477 1.34038 187 227 226
5.11243 -7.9337 23.9091 32 92 68
-0.229044 -0.463896 1.25801 168 218 214
0.0861114 -0.859486 2.72977 29 46 37
3.45719 -5.28561 16.8361 74 148 122
-0.222638 -0.44642 1.26409 106 130 142
0.0853945 -0.818421 2.72826 40 48 37
-0.219804 -0.445961 1.27049 208 240 245
-0.227909 -0.435521 1.21521 61 81 68
-0.244939 -0.412382 1.09245 164 238 202
0.0739453 -0.779811 2.66238 133 187 164
-0.119784 -0.563244 1.83865 84 122 110
0.0156994 -0.691131 2.39315 156 216 192
-0.215424 -0.430375 1.2654 111 156 147
0.00723874 -0.649154 2.32695 35 84 62
-0.119377 -0.523354 1.79824 175 237 219
-0.233327 -0.395772 1.10973 166 225 211
-0.196571 -0.42504 1.34389 61 130 103
-0.103396 -0.523953 1.86402 104 127 123
0.0702744 -0.68593 2.60899 79 98 81
-0.205122 -0.410056 1.27568 118 174 151
-0.126652 -0.488832 1.73123 58 102 85
-0.0922558 -0.527593 1.92334 154 217 191
-0.204777 -0.408627 1.26729 112 142 129
-0.0793155 -0.531269 1.98359 74 107 100
-0.117533 -0.488902 1.76688 94 128 121
-2.86321 2.55558 -10.2446 77 82 73
-0.214914 -0.391236 1.18201 85 127 116
-0.200368 -0.403322 1.27721 98 148 136
-0.225437 -0.377145 1.10505 87 117 104
0.139172 -0.711702 2.91849 70 109 88
-1.78749 1.37379 -5.81599 157 194 190
-0.159023 -0.428282 1.50826 175 225 215
-0.160416 -0.42425 1.4921 104 126 121
-0.221259 -0.369322 1.09731 58 84 66
-0.0618015 -0.501981 2.02479 98 139 132
-0.169116 -0.400952 1.40967 150 203 193
-0.213422 -0.363927 1.11575 153 216 190
-0.0131414 -0.537482 2.27431 102 153 145
-0.0043833 -0.541649 2.31844 92 145 142
-0.069981 -0.474039 1.95197 144 186 169
-0.0223698 -0.516466 2.21287 73 97 85
0.303589 -0.780243 3.65401 59 101 78
0.229262 -0.701747 3.35604 93 144 117
0.337071 -0.78798 3.80895 41 69 46
-0.0903213 -0.436124 1.82186 74 106 95
-1.56775 0.969884 -4.8439 189 218 223
-2.2115 1.48771 -7.41809 89 111 99
-0.193871 -0.357587 1.18966 111 132 129
-0.11816 -0.407112 1.65137 185 230 221
-0.160756 -0.374952 1.38866 76 100 92
-0.033168 -0.465028 2.11461 79 100 101
0.0255487 -0.499338 2.40853 64 104 93
-0.157878 -0.361208 1.37259 157 225 200
-0.0197422 -0.453551 2.15322 55 72 59
-0.153334 -0.359996 1.39144 77 113 96
0.0696989 -0.509984 2.61149 64 96 85
0.0408726 -0.484694 2.46417 95 126 119
-0.150086 -0.356999 1.40297 155 209 192
0.100252 -0.517619 2.75484 172 231 227
0.321426 -0.651094 3.67512 164 223 195
0.026754 -0.451437 2.36091 103 128 124
-0.0607426 -0.383305 1.83256 157 218 198
0.0454042 -0.453573 2.43412 60 73 65
0.43424 -0.682991 4.14406 168 250 207
0.139518 -0.507532 2.91499 182 223 255
0.16497 -0.523282 3.03256 68 132 110
0.0707307 -0.4582 2.56334 218 238 239
-0.0217859 -0.39199 2.01467 46 59 51
-0.180632 -0.321129 1.12614 92 104 104
-0.163577 -0.325877 1.24675 95 135 133
-0.155366 -0.32832 1.29669 180 236 223
0.0723087 -0.431613 2.53635 151 221 198
0.0912212 -0.417008 2.59923 59 102 93
0.222587 -0.466574 3.24122 55 87 76
0.0858103 -0.397183 2.54897 180 202 200
-0.16738 -0.305936 1.13554 92 105 103
-0.154072 -0.30805 1.21894 155 215 207
-0.159109 -0.306228 1.18534 186 225 223
-0.149181 -0.305198 1.24369 79 127 115
0.248889 -0.463833 3.34927 79 106 96
-0.160522 -0.30199 1.16016 188 237 229
0.220576 -0.432003 3.18038 90 120 115
-3.47905 1.43784 -12.9033 57 85 66
0.290328 -0.449852 3.52524 139 157 164
-1.16137 0.294533 -2.99311 110 126 138
0.301999 -0.396608 3.53174 90 135 132
-3.89864 1.31056 -14.7827 51 87 70
-3.53292 1.16391 -13.1539 24 48 36
0.49083 -0.443093 4.41642 95 145 133
0.228174 -0.34971 3.14964 92 129 125
-0.0787775 -0.271359 1.51014 60 86 72
-1.57282 0.330898 -4.77477 57 112 109
-3.00898 0.70174 -10.7813 169 241 211
-0.0703188 -0.255652 1.48561 134 207 185
-1.48448 0.221044 -4.36999 110 144 150
-0.109886 -0.255168 1.23439 73 116 103
-0.0590941 -0.245735 1.52011 36 98 68
-4.39511 0.661869 -16.8991 64 109 93
1.39123 -0.386533 8.4376 108 156 158
0.260489 -0.222202 3.14348 99 114 116
-0.0345667 -0.228245 1.6258 75 116 101
-0.0307715 -0.223048 1.61241 53 102 86
1.82753 -0.348884 10.3098 97 121 119
0 0 0 163 225 185
-1.29512 0.0930066 -3.48896 61 114 94
-1.96143 0.161692 -6.309 46 66 54
0.32682 -0.186271 3.41758 198 231 234
1.19029 -0.226147 7.38431 47 79 55
1.20237 -0.220246 7.4468 63 107 76
0 0 0 55 71 60
0.205686 -0.17133 2.82231 67 109 102
0.211498 -0.173489 2.84224 171 204 200
0.336225 -0.153684 3.44649 135 164 171
-1.37535 0.0311665 -3.84595 192 236 223
1.32556 -0.10599 7.97018 88 92 81
1.71338 -0.0896477 9.72408 195 236 231
-1.33998 -0.0251272 -3.63416 110 137 127
1.45993 -0.00180158 8.50885 103 108 107
1.72266 0.0271555 9.67627 222 240 239
1.43126 0.014443 8.38363 212 243 236
-1.32459 -0.096186 -3.52538 66 89 74
1.37756 0.174354 8.05549 155 202 206
-1.56811 -0.301689 -4.66375 128 151 147
-0.0277693 -0.18116 1.25169 96 132 120
-1.41025 -0.266935 -3.95381 94 121 118
-2.85567 -0.74035 -10.4066 73 99 99
-1.33864 -0.254228 -3.64092 102 122 123
-3.38553 -0.97116 -12.6708 106 139 132
-1.2282 -0.233221 -3.14979 99 136 126
6.04771 2.13572 28.4583 88 143 134
-4.13038 -1.31022 -15.9466 57 110 101
-1.66341 -0.416255 -5.10651 86 141 132
-1.26382 -0.28241 -3.30043 87 112 108
-2.39034 -0.849993 -8.32807 101 151 141
0 0 0 176 213 209
-1.05675 -0.23553 -2.38194 98 128 129
0.971017 0.5216 5.96599 122 147 137
0.595437 0.314301 4.22936 243 255 255
0.858092 0.468396 5.44598 106 130 122
-2.47669 -1.07491 -8.73252 209 227 234
-1.79467 -0.737416 -5.71343 184 221 213
-1.93268 -0.846096 -6.31492 102 119 116
1.38332 0.912131 7.76033 134 178 172
0.975596 0.685942 5.91954 91 109 102
0.76068 0.530918 4.91764 105 123 122
-1.77627 -0.884893 -5.65507 66 82 75
1.10713 0.841639 6.4949 188 217 224
1.77288 1.39752 9.45899 118 162 149
1.8146 1.44807 9.67481 134 167 160
0.850198 0.702725 5.29938 201 229 230
1.52386 1.23256 8.32022 74 91 78
-1.0533 -0.359406 -2.3663 196 238 231
-1.1188 -0.415497 -2.65252 161 183 178
0 0 0 129 182 169
-1.11865 -0.485203 -2.66899 215 240 236
-1.10988 -0.476207 -2.63122 134 144 144
-0.96097 -0.344828 -1.94854 125 141 153
-1.674 -1.32171 -5.47473 74 141 114
-1.08982 -0.644162 -2.63853 59 84 64
0.118219 -0.100634 1.17969 130 212 189
-0.2654 -0.558095 1.20159 152 217 201
-0.264149 -0.560172 1.21217 81 128 112
0.0445394 -1.06869 2.42637 151 245 220
0.304854 -1.54069 3.37372 168 224 203
0.196158 -1.36668 3.03419 62 112 94
-0.267402 -0.536008 1.17131 103 155 145
-0.150293 -0.727391 1.69319 68 114 91
-0.295047 -0.482326 1.0012 93 113 114
-0.283231 -0.505668 1.08337 92 110 109
0.203143 -1.33504 3.08393 165 226 206
-0.283133 -0.496793 1.06858 100 134 124
-0.280977 -0.499682 1.08067 181 224 211
-0.256759 -0.545546 1.23019 141 187 174
-0.280024 -0.495715 1.08108 88 124 108
0.227767 -1.34598 3.20795 33 47 41
-0.260396 -0.525591 1.19813 99 133 126
-0.25077 -0.542249 1.25174 214 238 238
-0.275792 -0.492269 1.09273 104 159 140
0.274711 -1.41355 3.38776 147 219 197
1.41135 -3.40358 7.83702 74 101 92
-0.286247 -0.470663 1.02324 128 145 154
0.203789 -1.27899 3.12428 164 248 223
-0.247792 -0.540303 1.26383 90 110 105
0.385758 -1.57308 3.8445 152 216 194
0.220787 -1.28878 3.18732 52 76 66
0.300805 -1.42192 3.51327 117 182 157
0.40293 -1.58868 3.91461 93 136 125
-0.260132 -0.508333 1.18064 193 229 223
-0.234387 -0.551602 1.33604 147 214 207
-0.216417 -0.581159 1.43107 68 127 112
-0.260663 -0.500098 1.16705 195 229 222
-0.00064911 -0.904439 2.34191 150 250 202
0.375122 -1.5175 3.84074 169 246 208
-0.233334 -0.545929 1.33574 38 55 51
-0.219988 -0.56554 1.40607 101 149 137
0.379142 -1.5216 3.87114 148 214 179
-0.267173 -0.482268 1.12254 93 122 129
-0.276778 -0.462974 1.05715 161 200 185
0.373541 -1.47538 3.86351 65 98 91
-0.225997 -0.541735 1.36228 181 218 216
0.525272 -1.69835 4.45425 73 108 88
0.237632 -1.22905 3.31862 162 237 209
0.129012 -1.0614 2.89007 110 144 127
-0.205374 -0.557824 1.46034 82 122 110
0.600016 -1.77576 4.7857 58 91 70
-0.245413 -0.493762 1.22839 117 148 141
0.066161 -0.931699 2.62603 155 238 206
-0.266537 -0.449515 1.0799 176 225 205
-0.26803 -0.446296 1.06424 94 108 106
-0.194281 -0.555899 1.51463 83 123 118
0.232993 -1.1592 3.32036 45 81 59
0 0 0 157 219 189
-5.55357 7.97847 -21.6853 117 155 157
-0.0722974 -0.705502 2.01922 159 248 205
-0.239258 -0.480016 1.24147 188 223 226
-0.264555 -0.438761 1.06274 186 232 219
-0.244093 -0.470163 1.20342 51 81 76
-6.26633 8.91464 -24.9022 81 108 105
-0.236743 -0.475404 1.23609 78 87 91
0.937823 -2.16566 6.28814 169 225 182
2.68561 -4.72928 13.6227 129 185 142
0 0 0 119 144 124
-0.257798 -0.436749 1.08832 163 229 217
-0.235836 -0.468482 1.233 154 222 197
-0.207603 -0.508932 1.40503 56 86 75
-0.245508 -0.448611 1.15756 102 127 129
-0.197671 -0.516853 1.45607 181 225 224
0.0076539 -0.782481 2.37872 162 237 209
1.73016 -3.21633 9.63216 43 54 46
-0.245483 -0.444774 1.15476 94 121 117
-0.191646 -0.516983 1.48547 163 212 210
-0.215228 -0.481516 1.34189 99 113 109
-0.183526 -0.524451 1.52619 220 244 242
-0.178374 -0.528765 1.54936 177 221 215
-0.151132 -0.565396 1.70674 90 125 121
2.56239 -4.24194 13.1703 158 221 182
0.0907424 -0.846824 2.78004 26 48 36
0.107725 -0.870668 2.8421 71 143 113
3.4512 -5.21801 16.9368 116 176 145
-0.208803 -0.464689 1.34773 61 87 81
2.37726 -3.74941 12.3767 168 218 200
-0.220271 -0.444868 1.27298 204 230 237
-3.35209 3.81978 -12.6357 172 234 212
-0.213103 -0.444814 1.29742 92 120 120
0.0737082 -0.779613 2.66458 130 182 159
-2.347 2.42647 -8.21469 109 130 152
-0.213636 -0.443387 1.29954 122 149 145
-0.204835 -0.450012 1.34184 166 229 219
0.187512 -0.897994 3.17151 173 212 196
0.0617156 -0.74247 2.60177 52 66 55
-2.57813 2.68529 -9.25744 102 113 121
-0.235847 -0.403728 1.11776 119 154 144
-0.134586 -0.517866 1.72576 100 130 135
-0.225907 -0.407959 1.17763 68 103 93
-0.139692 -0.501712 1.6958 109 143 133
-0.23335 -0.395882 1.10945 170 229 215
0 0 0 51 47 29
0.0436631 -0.676054 2.49628 135 200 174
0.142021 -0.781509 2.94441 129 209 172
-3.21125 3.10669 -11.7621 135 200 185
-0.220334 -0.401214 1.19234 84 117 103
-0.166508 -0.453805 1.51097 51 96 79
-0.205213 -0.409942 1.27588 118 174 151
-0.122066 -0.495193 1.75538 100 143 128
-0.126578 -0.48877 1.73153 58 102 85
-0.0966282 -0.519389 1.88719 163 239 207
-0.197041 -0.41483 1.32019 63 89 71
-1.88121 1.58109 -6.24135 94 99 100
-0.181148 -0.42469 1.40144 44 66 54
0.0977259 -0.692341 2.74066 63 114 94
0 0 0 54 78 48
-0.200256 -0.40375 1.27625 43 81 75
-0.136748 -0.465855 1.65687 66 72 67
0.320408 -0.932035 3.81255 139 220 171
-2.83046 2.47384 -10.1145 134 167 152
-1.66773 1.29135 -5.29652 158 185 206
-0.180803 -0.417802 1.39809 165 238 198
0.226632 -0.80124 3.32967 146 194 168
-0.220975 -0.376897 1.12141 60 103 94
-1.84392 1.43466 -6.02447 82 87 85
-0.213505 -0.382067 1.17241 72 99 95
-0.208225 -0.38452 1.19895 78 114 102
-0.197698 -0.392547 1.26469 73 110 100
-0.174921 -0.414077 1.41157 50 83 68
-2.15826 1.6979 -7.21015 151 207 184
-0.166005 -0.420926 1.46901 91 118 109
-0.115892 -0.466979 1.75519 66 86 73
-0.111984 -0.469091 1.77238 175 231 220
-0.0533064 -0.52533 2.0913 66 104 108
-0.172839 -0.4083 1.40431 68 96 90
-2.53448 2.03388 -8.84306 128 174 151
-0.177308 -0.402565 1.38277 160 219 211
-1.72241 1.2369 -5.47716 203 230 240
-0.0927653 -0.476063 1.86381 87 115 109
-0.183452 -0.38954 1.30338 162 229 190
-0.0800435 -0.480287 1.92023 138 186 180
-0.169369 -0.400802 1.40979 145 198 189
-0.0126326 -0.537699 2.27369 90 142 135
-2.47203 1.87117 -8.502 166 192 169
-0.210972 -0.367266 1.14423 113 151 139
-0.141759 -0.4203 1.56703 62 97 77
-0.128467 -0.434496 1.65551 86 127 120
-0.0730927 -0.479469 1.95161 66 83 72
-0.0734401 -0.478192 1.9564 60 79 70
-0.21118 -0.362407 1.13156 71 97 84
0.404719 -0.889741 4.12821 40 68 49
-0.00468896 -0.526604 2.30068 166 224 223
0.198263 -0.6969 3.21041 167 216 196
-1.57027 1.01906 -4.86614 159 182 197
-0.137681 -0.405575 1.56155 70 114 83
-0.206755 -0.355792 1.11731 133 229 175
-0.206889 -0.355601 1.12903 45 64 47
-0.000761219 -0.518925 2.31481 52 76 58
-0.138309 -0.40471 1.56342 65 104 83
-0.137729 -0.40478 1.56387 73 109 93
-0.0960125 -0.435815 1.79389 183 227 221
0.211695 -0.690501 3.28534 26 40 29
0.019422 -0.517122 2.4017 64 90 76
0.223987 -0.67647 3.32404 24 35 27
-0.167283 -0.37233 1.35363 55 97 90
-0.0525815 -0.454499 2.02435 170 231 221
-1.41836 0.803136 -4.18175 143 161 172
-0.196947 -0.351013 1.15702 142 225 193
-0.0460194 -0.455871 2.06078 71 99 79
-0.0890976 -0.41674 1.79045 78 136 107
-0.165208 -0.36596 1.34745 69 83 77
-0.0889644 -0.415375 1.79521 89 137 113
-0.0375633 -0.452983 2.08521 205 242 234
0.0254675 -0.499483 2.40772 55 92 84
0.0225742 -0.493079 2.38824 174 222 216
-0.0154247 -0.461389 2.18178 156 238 196
0.249929 -0.657651 3.4294 76 125 93
0.0516808 -0.511449 2.5432 100 139 131
0.370346 -0.741384 3.9739 46 77 50
0.237851 -0.633391 3.32931 126 180 151
0.200709 -0.599033 3.14477 47 74 54
0.0943067 -0.533142 2.75217 67 114 111
0.436376 -0.775533 4.26026 158 206 178
0.0617447 -0.505834 2.57643 148 215 188
0.0603539 -0.498057 2.55575 65 99 88
0.0768325 -0.514573 2.65001 196 239 255
0.364453 -0.714029 3.91908 155 233 202
-0.157721 -0.355014 1.361 89 131 120
-0.149531 -0.357695 1.404 159 226 199
0.340249 -0.678752 3.7836 40 58 45
0.448022 -0.753471 4.26769 40 60 41
0.0858897 -0.510268 2.6949 51 66 62
0.102882 -0.516029 2.7706 184 238 245
-0.179408 -0.337101 1.19919 59 93 83
-0.164151 -0.344581 1.30128 73 109 97
-0.176023 -0.335641 1.21056 73 97 95
-0.144238 -0.351504 1.4172 143 194 186
0.557035 -0.801888 4.74444 125 153 134
0.109854 -0.505011 2.77631 61 78 74
-0.145702 -0.346035 1.39222 180 231 211
0.0137366 -0.431361 2.26523 68 91 76
0.0461021 -0.455779 2.45357 54 66 60
0.390981 -0.660025 3.96713 65 93 74
-0.153755 -0.337641 1.33672 171 230 215
0.149733 -0.509217 2.95706 74 96 107
-1.37003 0.611927 -3.97166 97 99 107
0.056753 -0.446062 2.49195 52 73 65
0.00347053 -0.412543 2.19653 98 141 120
0.530133 -0.730912 4.58718 29 48 31
0.0459682 -0.434964 2.41434 162 199 189
0.48809 -0.693747 4.38444 48 87 66
0.12983 -0.479174 2.84305 188 222 211
-0.172518 -0.321027 1.17449 86 100 99
0.0473302 -0.420518 2.40456 41 58 49
0.0728964 -0.430556 2.54182 174 232 204
0.105072 -0.438491 2.67846 127 145 152
0.169902 -0.470352 3.005 220 230 237
-0.170127 -0.314141 1.16192 125 150 154
-0.0260406 -0.359701 1.94421 42 95 75
-0.112722 -0.326816 1.49153 39 70 55
-0.112716 -0.32485 1.49657 54 93 77
-0.154026 -0.307845 1.21944 155 215 207
-0.161749 -0.306624 1.16599 189 232 223
0.262054 -0.473451 3.41419 148 199 172
0.254147 -0.463688 3.37612 90 113 105
0.0933085 -0.388753 2.59234 75 86 78
-0.0056402 -0.333411 1.98187 44 96 66
0.284819 -0.45514 3.49847 116 139 134
0.224377 -0.42263 3.20096 80 95 97
0.389017 -0.455854 3.97723 69 121 111
-0.092342 -0.292419 1.50363 48 72 54
0.126346 -0.349275 2.68803 190 221 220
0.296286 -0.409991 3.51547 81 122 117
1.24701 -0.769693 7.6483 57 83 59
0.441166 -0.456866 4.22118 90 140 128
1.81513 -0.97596 10.1627 140 183 156
-0.0857505 -0.287269 1.52331 136 220 178
-0.0901686 -0.28502 1.49287 70 90 78
0.164838 -0.341497 2.86158 79 98 101
1.25552 -0.729304 7.69784 176 241 209
0.0124158 -0.299094 2.02378 86 166 137
0.126652 -0.325587 2.65039 153 188 184
-0.136227 -0.280553 1.19552 132 172 171
0.166817 -0.329205 2.85277 165 218 209
0.562236 -0.435492 4.74725 80 122 111
1.81426 -0.798272 10.0998 15 79 57
-0.12902 -0.273396 1.19628 157 227 210
0.286625 -0.332124 3.40372 208 230 228
0.232995 -0.317519 3.12458 68 101 87
-2.66316 0.646188 -9.33182 122 186 167
-0.0826228 -0.262141 1.45386 54 84 59
-3.01788 0.707703 -10.819 171 245 215
-2.35172 0.522026 -7.96193 48 84 72
0.200763 -0.287372 2.95139 189 222 215
0.361086 -0.324837 3.74175 101 109 108
3.32211 -1.1019 16.7914 44 73 48
3.82133 -1.23818 18.988 174 244 208
-0.0548754 -0.255254 1.60661 101 150 130
-1.12788 0.162357 -2.80047 128 158 169
4.5635 -1.36626 22.3302 72 108 91
-0.105165 -0.259609 1.2828 63 92 66
-0.0744828 -0.257169 1.46664 48 96 67
-0.0702686 -0.255444 1.48617 134 207 185
0.22677 -0.267747 3.05572 109 135 141
-1.54375 0.253212 -4.66079 100 141 134
-0.0203446 -0.247639 1.76641 41 84 71
-1.46621 0.221339 -4.28251 101 144 141
0.312169 -0.268592 3.44458 85 121 121
-0.0582658 -0.246519 1.53918 166 210 174
0.258196 -0.258332 3.1831 115 144 148
-0.0404479 -0.239225 1.62646 58 102 79
1.20826 -0.406227 7.62782 121 179 174
-1.43829 0.176901 -4.15096 128 147 154
-2.12484 0.284303 -6.99156 139 206 179
-3.32485 0.461235 -12.2449 30 49 34
-1.29861 0.126973 -3.52094 118 117 133
0.381493 -0.233484 3.73826 136 181 178
-0.0344995 -0.22819 1.62603 79 120 105
0.225073 -0.212956 2.96454 89 102 104
1.47707 -0.350966 8.75381 78 94 93
-1.41317 0.108243 -4.03805 82 147 132
-3.39868 0.301297 -12.4391 54 80 66
1.86296 -0.294399 10.4443 78 120 95
-1.27903 0.079 -3.40834 239 254 250
-1.15764 0.0652296 -2.90158 151 168 177
1.99834 -0.29222 11.077 81 107 93
-1.51427 0.100842 -4.46729 156 207 193
0 0 0 49 70 55
0.206194 -0.172015 2.82048 90 122 121
-1.40744 0.0662466 -3.98843 60 98 76
-1.30273 0.053576 -3.51858 66 109 98
-1.09258 0.037499 -2.61072 83 140 131
0.337185 -0.152941 3.4505 136 168 173
2.40587 -0.203243 12.8618 49 70 61
-1.38022 0.0342967 -3.85769 215 251 239
-1.34409 0.0393695 -3.7042 97 132 136
-1.19677 0.0220703 -3.0442 147 157 167
-1.31522 0.0173958 -3.55906 151 202 188
1.35212 -0.102417 8.04645 89 89 73
-3.7388 -0.0418568 -14.0816 81 146 120
-1.06738 -0.00187891 -2.49479 135 184 182
1.31318 -0.0317647 7.89288 193 217 215
-1.19549 -0.017622 -3.02527 145 226 201
0.0876553 -0.146377 2.11684 146 180 170
-1.23271 -0.035902 -3.20896 66 78 58
-2.59302 -0.166715 -9.0713 131 214 192
3.70246 0.323207 18.4604 109 169 159
-1.35331 -0.0910978 -3.6533 70 100 81
0.10228 -0.121133 2.12573 116 175 147
0.129006 -0.109115 2.28407 88 134 112
1.4768 0.153923 8.55342 134 182 184
1.39668 0.156841 8.19327 100 107 104
-1.41749 -0.13138 -4.00409 97 137 125
-1.19523 -0.114117 -3.02187 139 175 181
-5.49992 -1.02237 -22.1633 71 124 110
-1.16416 -0.138184 -2.88426 77 107 96
-1.1741 -0.147567 -2.92343 87 137 125
-1.35678 -0.196389 -3.73991 86 126 114
-3.50326 -0.812721 -13.2817 82 118 101
-0.971112 -0.116167 -2.04454 142 180 180
-0.973483 -0.11595 -2.045 137 168 169
-3.33195 -0.847685 -12.4942 159 203 186
-1.50252 -0.289425 -4.3637 80 116 99
-2.8366 -0.741328 -10.349 95 118 114
-1.46375 -0.29178 -4.1816 52 85 78
-3.62519 -1.05941 -13.719 93 128 124
-3.49028 -1.05483 -13.2572 187 234 225
-1.47385 -0.343007 -4.23087 174 198 198
-2.39174 -0.850015 -8.33083 101 151 141
-2.15946 -0.752635 -7.28316 96 126 121
0 0 0 80 101 132
1.19891 0.681327 6.98518 70 98 85
-2.37894 -1.01888 -8.30729 130 164 157
-1.8995 -0.755307 -6.17075 88 106 105
1.61599 0.988857 8.79754 91 96 94
-1.79885 -0.738657 -5.72742 194 228 221
-1.77756 -0.838886 -5.5945 103 122 119
-1.71425 -0.80251 -5.36485 132 154 149
3.1223 2.27417 15.5125 72 81 60
7.54551 5.26254 34.8474 107 138 123
2.89932 2.14629 14.5346 196 218 223
0 0 0 199 228 225
-1.04795 -0.36229 -2.34135 103 134 127
0.687772 0.582887 4.51434 64 98 91
0 0 0 191 223 229
-1.14464 -0.522375 -2.79268 162 194 199
-1.21046 -0.611186 -3.13793 113 138 128
-0.961011 -0.344923 -1.94831 119 133 145
-1.12524 -0.526398 -2.69017 59 82 78
0 0 0 173 207 201
0 0 0 125 143 136
-4.01255 -3.703 -16.1527 191 224 227
-1.12186 -0.559782 -2.68154 220 254 253
-2.71147 -2.51079 -10.3225 79 103 93
-0.999487 -0.504908 -2.16795 74 121 113
0.118701 -0.0984623 1.18391 130 218 195
-0.140204 -0.757585 1.75069 62 97 87
0.338182 -1.59301 3.53787 74 101 91
-0.292717 -0.486334 1.0149 74 90 89
-0.149629 -0.728188 1.701 59 102 81
-0.243208 -0.571098 1.31182 112 165 155
0.174721 -1.26226 2.97581 76 105 89
0.0289423 -1.00141 2.4086 121 149 136
0.196505 -1.29065 3.07028 149 195 172
0.339281 -1.54351 3.63799 147 216 195
-0.268848 -0.508882 1.14169 203 230 227
0.191859 -1.26949 3.07337 175 252 225
-0.269356 -0.50797 1.14379 187 207 208
-0.284145 -0.471393 1.03201 183 217 216
-0.0154121 -0.913599 2.29213 165 247 205
0.220704 -1.29333 3.19781 56 77 68
0.371103 -1.55643 3.79837 130 221 200
-0.00941396 -0.908545 2.3136 49 82 68
0.576903 -1.86434 4.56827 112 136 124
0.224784 -1.27067 3.2252 71 106 92
0.229939 -1.28775 3.24586 136 227 202
0.031067 -0.952827 2.46104 60 70 58
0.00268504 -0.907272 2.36018 153 228 206
1.5962 -3.58832 8.79545 135 174 153
-0.00503492 -0.88571 2.31399 159 207 189
0.0433008 -0.964306 2.52215 47 76 61
-0.269604 -0.47509 1.09766 97 114 117
-0.252455 -0.502907 1.21015 94 101 98
0.618374 -1.87749 4.83254 169 206 202
-0.225228 -0.540321 1.36626 177 224 215
0.524368 -1.69899 4.45766 83 115 96
0.367788 -1.44401 3.854 151 222 196
0.420611 -1.52027 4.07278 161 230 209
-0.243887 -0.500294 1.25047 171 202 199
0.396392 -1.46273 3.9724 50 67 58
1.26944 -2.85716 7.55657 138 181 160
-0.273242 -0.446421 1.04507 72 84 90
0.0768822 -0.963287 2.6741 66 117 97
0.233737 -1.20289 3.3305 50 70 65
-0.266842 -0.453429 1.08287 61 95 85
0.847346 -2.1423 5.86803 114 160 141
-0.268458 -0.446669 1.06295 85 99 93
-0.254321 -0.463899 1.15103 87 114 104
4.11138 -7.07232 19.2917 148 208 184
5.06214 -8.54957 23.2456 56 83 63
-0.181447 -0.568949 1.57809 70 103 106
-0.239463 -0.479902 1.24161 164 205 208
-0.185079 -0.555762 1.5499 93 143 133
0.0672361 -0.900414 2.65819 165 243 220
-0.237535 -0.475051 1.24006 100 106 111
-0.199293 -0.525301 1.45229 76 94 81
0.0879078 -0.918142 2.74354 122 190 159
-0.0488557 -0.71569 2.1269 115 192 164
1.27395 -2.6541 7.80929 170 212 205
-0.245999 -0.447864 1.15896 121 138 141
-0.180088 -0.541755 1.55912 68 83 79
-0.24704 -0.446975 1.16019 146 178 177
-0.19676 -0.516265 1.45812 207 238 241
-0.247035 -0.442538 1.14611 212 246 240
0 0 0 164 206 189
0.0957031 -0.88309 2.78927 130 219 193
-0.229609 -0.454618 1.24103 172 217 208
0.0700395 -0.806992 2.6469 36 74 56
-0.224595 -0.449133 1.25878 68 87 78
0.0498411 -0.77816 2.57695 109 182 156
-0.133681 -0.563776 1.7807 84 121 119
-0.0182471 -0.687591 2.25635 38 79 52
-0.152707 -0.537281 1.67338 46 82 68
-0.121843 -0.56271 1.83515 109 160 146
0.00442035 -0.690107 2.3477 44 91 69
0.140138 -0.855025 2.98057 156 215 200
-0.232181 -0.416295 1.16368 57 72 58
-0.135885 -0.536044 1.75206 89 104 106
0.0752251 -0.771869 2.68719 45 56 46
-0.206013 -0.443102 1.33134 77 90 76
-0.231263 -0.410583 1.15343 165 220 203
0.00163362 -0.662857 2.32053 73 110 84
0 0 0 128 164 147
-0.0046996 -0.653321 2.29689 164 225 199
-0.122317 -0.534017 1.79963 80 103 88
0.262122 -0.963751 3.5328 45 75 56
-0.218689 -0.416052 1.22283 76 92 85
0.206115 -0.87891 3.24692 65 89 77
-0.189475 -0.444322 1.40513 72 95 81
-0.188105 -0.443205 1.40981 95 134 119
0 0 0 73 87 63
-0.209507 -0.413727 1.2595 184 217 213
-0.0899961 -0.531925 1.9365 75 106 97
-0.203686 -0.413764 1.29245 45 58 50
-0.192805 -0.422285 1.35091 158 230 208
-0.203852 -0.405798 1.27058 79 109 98
-0.131546 -0.477094 1.70833 202 239 231
-3.29322 3.06028 -12.1129 70 77 64
-0.181569 -0.423843 1.40141 62 84 65
-0.2108 -0.39222 1.20738 70 99 83
-0.0791653 -0.519257 1.97905 64 103 88
0.0610462 -0.623822 2.58213 102 127 107
-0.100704 -0.475308 1.82785 193 228 231
-2.43811 1.94782 -8.47333 155 204 184
-0.104353 -0.469985 1.81148 94 115 116
0.0841705 -0.636403 2.68784 72 95 67
0.358618 -0.89918 3.95858 44 66 54
-0.19487 -0.385188 1.25888 78 107 98
-0.193997 -0.386038 1.26322 81 107 101
-1.71002 1.2272 -5.45401 181 210 225
-0.0980887 -0.467267 1.8323 93 116 112
-0.171912 -0.399535 1.39717 61 86 76
-0.148872 -0.416692 1.52255 72 115 94
-0.0880574 -0.468324 1.87279 155 213 184
-0.0750221 -0.479512 1.9506 53 66 58
-0.16678 -0.39379 1.41292 58 81 73
-0.173226 -0.385585 1.35874 69 94 84
-0.177117 -0.380912 1.33232 191 232 227
-0.0956037 -0.446971 1.82168 60 102 95
-0.170896 -0.380971 1.36519 56 78 53
-0.0863228 -0.445211 1.86487 150 194 187
-0.170896 -0.380971 1.36519 56 78 53
-0.109736 -0.423387 1.71593 156 204 192
-2.27046 1.57712 -7.72541 146 182 166
-1.54361 0.95557 -4.74138 128 150 156
0.0122394 -0.522781 2.37725 132 177 210
-0.200757 -0.354497 1.15986 54 80 62
-0.192019 -0.360734 1.22026 82 124 113
0.185804 -0.654035 3.14661 166 199 172
-0.0597179 -0.452344 1.9745 58 82 70
0.0156516 -0.51563 2.39839 57 86 71
-1.52008 0.899848 -4.63837 92 103 95
-0.10303 -0.413637 1.73585 65 96 93
-1.61516 0.961238 -5.02082 195 233 238
-0.0466292 -0.454079 2.0507 76 105 79
-0.138663 -0.382426 1.50638 136 224 184
-0.134959 -0.385719 1.53418 71 88 84
-0.032684 -0.456198 2.10468 191 234 225
0.203615 -0.628919 3.19624 42 47 38
-0.191859 -0.344496 1.16114 112 126 120
-0.191444 -0.347472 1.17783 76 104 91
-0.193061 -0.343824 1.16102 103 135 124
0.371113 -0.741707 3.97016 26 54 35
-1.39831 0.729145 -4.06598 86 98 98
-0.116951 -0.387255 1.63029 79 112 105
0.402783 -0.753278 4.08756 160 230 190
0.0745175 -0.516952 2.6501 186 228 251
0.0926198 -0.533459 2.74861 85 135 131
-0.189459 -0.339358 1.15824 187 227 222
0.296574 -0.654289 3.58063 112 144 119
0.333289 -0.682211 3.77211 44 66 47
0.0697817 -0.500905 2.60375 60 77 64
0.21204 -0.593357 3.22281 123 158 138
0.0837391 -0.50522 2.6738 62 78 67
0.386734 -0.709977 4.01156 38 46 36
-0.154662 -0.349012 1.36473 173 229 216
-0.00152464 -0.443149 2.23029 62 76 64
0.265241 -0.616414 3.44214 174 224 206
0.310878 -0.640327 3.64123 101 140 115
0.534719 -0.807519 4.70001 33 53 41
-0.178654 -0.335971 1.20915 76 105 102
0.013518 -0.447951 2.30283 156 208 190
0.0346424 -0.454112 2.40175 208 229 230
-0.145722 -0.342772 1.37718 88 107 86
0.111676 -0.504448 2.80389 65 86 77
0.0582483 -0.455489 2.50273 129 185 172
-1.9097 0.971214 -6.11711 159 213 183
-0.146727 -0.340593 1.38126 49 66 45
0.0575262 -0.455546 2.5017 121 177 166
0.583186 -0.764999 4.82927 160 237 203
0.0097741 -0.414602 2.24135 59 73 62
0.0438891 -0.4356 2.41165 153 194 186
0.0689954 -0.445027 2.55676 96 102 107
-1.38436 0.596731 -4.04083 135 164 171
0.782095 -0.871009 5.75705 166 216 192
-0.0843396 -0.353724 1.67764 151 226 205
0.0210123 -0.403438 2.24949 121 195 167
-0.154418 -0.324034 1.29168 63 80 66
0.0550184 -0.411062 2.433 140 222 187
0.0735557 -0.4232 2.52852 74 83 73
-0.0374922 -0.347724 1.88229 38 62 52
-0.00435258 -0.349759 2.01974 127 211 183
0.0839929 -0.39966 2.57059 210 235 231
0.19432 -0.443769 3.11036 120 157 149
0.0517289 -0.361606 2.30584 134 197 171
0.127664 -0.374435 2.72357 64 70 65
1.10027 -0.786626 7.01736 109 133 109
-0.101376 -0.300587 1.48459 66 94 75
-3.7511 1.40921 -14.1137 104 143 128
-0.13324 -0.289495 1.27047 42 89 80
-3.10017 1.09561 -11.2514 162 209 187
-2.59157 0.865601 -9.11112 41 58 45
-0.0885017 -0.284919 1.50875 63 72 62
-1.33601 0.31084 -3.72378 100 112 124
0.138106 -0.317272 2.67746 92 109 100
0.266191 -0.352735 3.34132 144 148 142
0.271327 -0.349771 3.3618 83 79 74
-0.086994 -0.269944 1.4638 158 211 197
0.227631 -0.316976 3.11475 80 114 104
0.290727 -0.333079 3.43147 166 202 202
-1.59006 0.343365 -4.86948 76 122 116
0.582134 -0.407098 4.81862 145 185 174
0.636369 -0.406967 5.08253 181 218 216
0.675391 -0.42527 5.25604 133 178 169
0.213882 -0.294029 3.01528 92 116 114
-0.0995537 -0.261037 1.34621 53 79 63
4.5577 -1.36591 22.3121 72 108 91
-0.105214 -0.256715 1.28677 57 100 79
-0.0603712 -0.248609 1.53477 182 214 189
-1.08864 0.129627 -2.62526 84 95 93
-2.16312 0.334401 -7.21409 62 85 63
-0.0514301 -0.241783 1.55563 56 85 62
0.453098 -0.258269 4.09668 130 162 161
0.483372 -0.269606 4.24483 88 116 117
-4.8437 0.78541 -18.8852 91 110 89
-0.0456719 -0.235738 1.58553 44 68 50
-4.77431 0.763979 -18.6551 50 71 56
-2.00467 0.248273 -6.4919 150 224 188
-0.00851064 -0.228418 1.77851 73 116 105
0.27229 -0.226822 3.23201 67 98 95
-1.35831 0.148457 -3.80594 140 183 172
-1.33636 0.142198 -3.70513 195 224 228
0 0 0 72 104 87
-5.49443 0.814894 -21.6518 35 54 45
-3.28457 0.443702 -12.097 46 69 55
-1.29999 0.130498 -3.54155 86 89 93
7.53004 -1.23757 35.2434 52 94 71
0 0 0 64 87 73
0 0 0 178 236 208
1.22764 -0.297264 7.65805 67 106 85
1.81325 -0.343212 10.3354 65 95 96
-5.49812 0.604811 -21.6941 141 207 178
0.149795 -0.197463 2.5766 126 169 148
0.192361 -0.184187 2.77117 73 94 95
1.19146 -0.224278 7.42322 77 113 89
-1.32502 0.0717286 -3.6366 223 249 243
0.354649 -0.169546 3.56044 153 182 189
0.216367 -0.17331 2.87218 112 154 147
2.39366 -0.209537 12.8184 72 92 80
1.36824 -0.13135 8.17917 162 220 185
-1.13748 0.0217051 -2.81712 132 159 169
4.63426 0.00375207 22.7874 102 160 142
-1.22578 -0.0218857 -3.18836 103 117 113
-7.76785 -0.328319 -32.2447 92 136 130
0.0765908 -0.145141 2.05249 67 106 80
2.74733 0.196162 14.3173 106 168 156
-1.64738 -0.0965568 -4.98422 69 85 84
1.5174 0.123242 8.78647 83 103 98
1.36147 0.135528 8.03062 151 177 177
-1.31685 -0.101092 -3.49726 38 61 46
-1.28661 -0.0883117 -3.36753 161 222 196
0.124692 -0.110876 2.25187 73 119 106
-1.30792 -0.107182 -3.47348 52 77 63
1.30583 0.173775 7.74168 86 116 111
-5.71515 -1.03257 -23.0802 77 122 113
-1.17074 -0.135534 -2.89357 116 151 137
-1.17463 -0.147202 -2.92469 90 136 123
-0.972401 -0.115898 -2.04514 145 176 177
-2.89219 -0.763649 -10.6227 80 101 92
-2.69121 -0.719672 -9.69639 202 242 254
-1.07625 -0.218209 -2.47976 154 200 194
0 0 0 101 115 114
-1.44498 -0.430801 -4.13891 66 87 79
0 0 0 73 97 125
0.623722 0.32533 4.38894 138 182 176
0.877467 0.500846 5.5581 98 113 105
2.3436 1.29292 12.1201 108 127 108
-2.55853 -1.12848 -9.17212 82 106 94
-2.38481 -1.02477 -8.34381 159 193 186
0.832828 0.491619 5.32532 164 207 204
1.29407 0.80844 7.40002 90 106 95
1.55231 1.01055 8.58507 115 155 143
-1.47098 -0.592875 -4.28246 134 179 206
0.982956 0.689831 5.97899 66 80 68
1.06973 0.808729 6.35681 140 166 178
5.82437 4.18406 27.4618 175 221 222
7.84288 5.51407 36.292 90 123 108
0.888239 0.697284 5.51222 154 204 204
1.35155 1.06049 7.62341 172 205 214
-1.04963 -0.361643 -2.34402 111 142 133
1.5629 1.31597 8.57177 81 87 82
1.70461 1.42474 9.21383 107 141 135
1.31505 1.13617 7.44502 187 225 230
0 0 0 175 213 213
3.9949 3.36655 19.4257 127 171 164
-1.12584 -0.452691 -2.70092 192 221 218
-1.96165 -1.27512 -6.63398 93 133 128
0 0 0 145 191 185
0 0 0 179 219 218
0 0 0 135 176 171
0.0821649 -0.088672 1.32088 89 101 89
-0.965444 -0.362711 -1.97801 147 187 186
-7.5688 -7.37756 -32.3385 174 196 194
-2.90478 -2.65494 -11.2061 84 114 101
-7.0445 -7.31687 -30.1578 154 219 198
-1.09661 -0.651774 -2.67187 104 145 124
