ply
format ascii 1.0
element vertex 1252
property float x
property float y
property float z
property uchar blue
property uchar green
property uchar red
end_header
0.710346 -0.836071 1.8841 97 119 147
-0.286821 -1.10274 2.49448 129 218 175
0.699649 -0.83512 1.89059 59 61 95
-1.69827 -1.52495 3.47132 116 178 166
-0.352491 -1.12352 2.55847 117 132 135
0.359177 -0.845146 1.92142 145 203 185
0.682518 -0.837171 1.90117 156 179 224
-1.22469 -1.3696 3.14585 94 168 144
0.120444 -0.991603 2.2698 153 157 176
0.342569 -0.843552 1.92644 141 231 201
0.113099 -0.986713 2.27077 126 121 123
0.716129 -0.819118 1.87695 112 133 164
0.724224 -0.818046 1.87416 100 116 145
0.808169 -0.73273 1.67977 152 223 183
-0.275428 -1.07487 2.47808 158 239 194
0.707276 -0.819115 1.88622 124 147 162
-1.84653 -1.54227 3.56688 117 179 167
-1.04379 -1.30535 3.0211 94 135 120
-0.861562 -1.2526 2.90343 106 165 150
-0.290416 -1.069 2.47626 142 219 191
0.307018 -0.849581 1.97033 171 230 199
-0.368882 -1.10514 2.57734 182 226 213
-1.66337 -1.46736 3.43682 116 181 155
0.313913 -0.841601 1.96165 50 90 72
0.11395 -0.967631 2.26361 207 217 224
-2.4003 -1.67523 3.94632 123 187 157
-0.264075 -1.04591 2.45991 69 107 85
0.449839 -0.798685 1.87618 45 62 51
-1.2916 -1.3487 3.18478 91 142 115
-0.273064 -1.04569 2.46734 156 233 189
-0.386805 -1.09264 2.58507 114 173 158
-1.1473 -1.30181 3.0894 124 167 158
0.37058 -0.803159 1.90752 93 153 119
0.474432 -0.779001 1.85319 114 165 138
0.37932 -0.799591 1.90586 133 171 141
-0.2673 -1.02254 2.45184 73 176 145
-0.627853 -1.14022 2.73825 95 167 145
-0.155844 -1.02019 2.45071 146 192 200
0.367141 -0.800837 1.91587 160 255 210
-2.31446 -1.60979 3.87493 169 243 215
-1.8666 -1.47697 3.57015 105 153 127
-1.29261 -1.31555 3.17621 120 178 150
0.126367 -0.937367 2.26027 152 164 176
-0.860219 -1.1962 2.897 104 153 139
0.815643 -0.693609 1.67081 116 170 133
-1.21723 -1.28485 3.12915 115 170 143
-0.334132 -1.04092 2.53396 50 120 90
-1.88505 -1.45953 3.57456 78 149 122
-1.34195 -1.31056 3.20834 100 157 132
-0.38747 -1.05471 2.57955 107 128 129
-1.46623 -1.34074 3.29235 127 191 179
-0.3952 -1.05167 2.58209 176 220 219
0.143602 -0.916576 2.24542 155 189 219
0.804109 -0.684966 1.67256 79 132 99
0.67864 -0.74802 1.83745 119 129 193
-0.860796 -1.1681 2.89149 90 133 118
-1.30142 -1.28115 3.17969 114 152 130
-1.34074 -1.29084 3.20715 87 125 97
0.808461 -0.675312 1.6672 52 77 67
-1.3608 -1.29357 3.21673 76 105 90
-1.32825 -1.28486 3.19827 125 153 140
0.299446 -0.786712 1.94938 117 204 170
0.642605 -0.753234 1.86564 141 152 214
-1.39425 -1.30062 3.24162 88 137 117
0.304202 -0.784179 1.94889 140 232 191
0.743224 -0.730369 1.81908 237 235 234
-1.10492 -1.21772 3.05069 94 151 130
-1.32876 -1.26922 3.18537 159 218 180
0.623286 -0.753781 1.88151 86 117 186
-1.33995 -1.27131 3.19367 67 129 89
0.308093 -0.778167 1.94697 143 232 182
0.299574 -0.779794 1.95346 136 222 182
0.312447 -0.774735 1.94316 54 93 61
-1.31515 -1.25966 3.17676 152 227 181
-0.904996 -1.15433 2.91495 96 160 141
0.284674 -0.78017 1.96338 110 184 154
-1.46571 -1.29669 3.28095 108 164 135
-1.372 -1.27123 3.21624 93 173 120
0.302653 -0.77334 1.95122 113 187 153
-0.38885 -1.01403 2.57333 255 253 253
0.310602 -0.768735 1.94499 134 201 164
0.0914746 -0.894498 2.27629 147 138 134
-1.57486 -1.31446 3.35568 100 158 130
0.690599 -0.71677 1.82321 154 164 224
-0.440228 -1.01791 2.60423 112 168 169
0.322406 -0.757418 1.93056 112 186 156
-1.38362 -1.25961 3.22661 53 131 84
0.111901 -0.884353 2.2622 162 174 198
-1.17573 -1.20062 3.08678 78 126 102
-0.860535 -1.11788 2.88502 99 163 144
0.295552 -0.759689 1.95323 34 79 53
0.330197 -0.747722 1.92795 134 237 200
0.750184 -0.703133 1.81646 201 229 236
0.636498 -0.719851 1.86601 95 91 173
-1.89855 -1.36422 3.57018 122 186 174
-1.54245 -1.27307 3.33055 106 169 137
0.754114 -0.698142 1.81452 165 186 207
-1.26913 -1.19981 3.14527 105 165 134
-1.19956 -1.17921 3.09836 118 171 157
-0.915732 -1.10758 2.91455 115 171 160
-0.395726 -0.976625 2.57 155 208 188
-1.54032 -1.26077 3.32349 109 172 133
-0.869254 -1.0924 2.88267 107 179 157
0.595304 -0.740243 1.94492 129 121 108
-1.23541 -1.17183 3.11998 146 205 184
0.155391 -0.838067 2.22957 162 186 222
0.307544 -0.730112 1.94398 141 240 192
0.6734 -0.687964 1.83376 109 118 191
0.269385 -0.74495 1.98871 40 114 80
-1.26195 -1.16702 3.1345 161 238 210
0.789261 -0.678275 1.8205 69 70 96
0.125771 -0.833016 2.24392 87 97 114
0.678342 -0.679873 1.82843 109 116 185
0.152924 -0.824927 2.22817 108 115 142
0.296407 -0.725184 1.95983 107 216 167
-1.19586 -1.13492 3.09434 89 157 126
0.148355 -0.820484 2.23162 160 187 207
-1.20577 -1.13276 3.09799 116 170 153
-0.465643 -0.954271 2.60912 101 162 152
0.174002 -0.807287 2.21283 172 206 230
0.730492 -0.66603 1.81959 208 206 206
0.734582 -0.665177 1.81656 214 209 206
-0.9308 -1.0609 2.91716 123 185 167
-1.00345 -1.07453 2.96254 121 177 158
0.163598 -0.806854 2.21591 136 151 177
-1.59371 -1.21242 3.34903 100 164 134
0.286905 -0.717595 1.97312 112 171 143
-1.31104 -1.14292 3.16049 75 122 90
-1.16965 -1.11177 3.07685 93 134 103
0.155039 -0.805984 2.22299 154 178 200
0.290231 -0.715613 1.97085 46 108 84
0.170004 -0.800888 2.21343 166 189 211
-0.398587 -0.924219 2.56136 184 217 220
-0.393509 -0.922088 2.55864 105 114 123
-1.88522 -1.27081 3.54515 102 168 157
-0.165816 -0.875956 2.43404 161 191 202
-1.65345 -1.21274 3.3879 109 160 133
-0.3899 -0.915235 2.55593 254 255 253
0.538189 -0.694171 1.93221 108 192 158
-1.15971 -1.09413 3.05554 93 159 117
-0.88675 -1.0323 2.88427 86 131 112
-1.20641 -1.10544 3.09612 104 157 143
0.0249171 -0.826934 2.3139 182 187 186
0.55322 -0.687437 1.9209 56 164 142
-1.58234 -1.184 3.33718 92 143 116
0.546895 -0.686421 1.92411 31 100 87
-2.07548 -1.29633 3.66616 93 152 137
0.564472 -0.681577 1.91745 34 65 62
-1.59471 -1.17773 3.34423 79 138 117
-0.896012 -1.01753 2.887 114 157 148
-1.2489 -1.0966 3.11611 127 181 164
-0.887197 -1.01379 2.88024 90 133 122
-0.403063 -0.903625 2.56427 84 132 126
0.0191589 -0.813427 2.31413 186 188 189
0.2657 -0.707784 2.00979 21 63 45
-0.139206 -0.845208 2.41136 137 191 202
0.66753 -0.64254 1.83203 250 254 255
-1.18176 -1.06468 3.06284 87 161 119
0.282774 -0.690894 1.98117 147 225 188
0.377507 -0.682284 1.95566 158 233 195
0.173079 -0.76412 2.19766 70 68 67
0.198595 -0.753399 2.17085 231 253 255
-1.21893 -1.06376 3.08849 64 112 88
-1.24796 -1.07222 3.11467 105 140 136
0.517878 -0.670012 1.9385 152 237 215
-1.17192 -1.04877 3.06003 114 170 141
0.260652 -0.690711 2.00785 118 180 144
-1.24249 -1.0604 3.10455 164 224 206
-1.1145 -1.03129 3.02254 253 255 255
-1.39967 -1.09069 3.21023 97 160 140
0.109939 -0.764465 2.2448 134 163 172
-0.395834 -0.867759 2.55093 180 229 227
-0.912534 -0.97794 2.89064 115 165 155
-1.2379 -1.0427 3.10164 86 142 121
-1.13382 -1.02146 3.0356 116 181 172
-0.889089 -0.963792 2.86985 76 161 123
0.195979 -0.734356 2.18584 174 196 201
-0.906491 -0.962643 2.88086 81 134 124
0.383309 -0.653939 1.95305 138 214 173
0.0996459 -0.744618 2.24468 155 157 151
-0.906301 -0.948677 2.87914 121 175 158
0.513337 -0.638695 1.92938 77 80 108
-1.511 -1.07419 3.27131 127 186 165
0.517711 -0.635677 1.92614 98 116 147
0.528987 -0.629751 1.91398 140 169 206
0.204482 -0.708688 2.17327 180 217 225
-0.560419 -0.85999 2.64675 113 172 164
0.492568 -0.6314 1.93742 160 192 211
0.50803 -0.627787 1.92667 157 190 240
-1.67919 -1.0933 3.37663 125 181 162
-0.546539 -0.855994 2.64029 99 154 151
0.503347 -0.628035 1.93213 158 178 213
0.513351 -0.626006 1.92403 175 205 232
-1.99408 -1.15608 3.58674 113 173 162
-0.366825 -0.818038 2.5314 63 96 89
0.194599 -0.707125 2.18391 86 97 105
0.494571 -0.626905 1.93447 95 99 124
0.539811 -0.619198 1.91041 153 186 231
-1.65399 -1.0822 3.36138 107 167 143
0.526366 -0.618671 1.91644 95 103 133
0.559104 -0.612696 1.89677 163 178 194
0.194073 -0.699675 2.17706 143 181 193
-0.940574 -0.926816 2.89562 173 235 223
0.756963 -0.580056 1.80229 146 216 169
0.916587 -0.547032 1.70131 142 213 180
-0.529503 -0.836403 2.62223 90 162 150
-1.88226 -1.11099 3.50701 114 172 154
-1.2699 -0.985418 3.10741 148 211 185
-0.400555 -0.8085 2.54311 79 113 106
0.753504 -0.576839 1.80494 164 201 167
-1.64694 -1.05836 3.34944 179 240 206
0.192598 -0.689422 2.17753 66 71 69
-0.321587 -0.785373 2.48741 55 82 72
-0.315744 -0.783889 2.48772 126 184 156
-0.907918 -0.903478 2.86972 95 150 135
0.570668 -0.593372 1.88152 154 185 246
0.196012 -0.683571 2.17456 107 132 134
0.456461 -0.609782 1.93855 81 118 138
0.495197 -0.607795 1.92925 179 206 227
0.687706 -0.587359 1.86392 105 108 106
-0.450092 -0.806009 2.57171 93 157 152
0.515834 -0.602008 1.91632 172 211 243
-1.90158 -1.09497 3.51451 86 127 95
0.52115 -0.600593 1.91291 173 200 234
0.901549 -0.538678 1.72486 110 135 101
0.568297 -0.587235 1.88483 53 83 142
0.678829 -0.581343 1.8688 161 150 146
0.92093 -0.528447 1.69456 215 228 250
-0.978531 -0.900602 2.91435 119 179 171
0.550268 -0.586676 1.89279 152 175 213
-0.475548 -0.795351 2.58217 100 162 150
-1.62595 -1.02204 3.32874 81 135 105
0.504189 -0.591438 1.92069 168 196 220
0.661214 -0.580277 1.87949 151 147 146
-1.89748 -1.07312 3.50372 93 169 135
-0.297089 -0.745896 2.45247 99 142 127
0.518437 -0.581563 1.9094 155 194 232
0.551795 -0.575953 1.8903 83 83 101
-1.68499 -1.01608 3.36239 95 149 126
-1.95052 -1.06262 3.5376 163 251 197
-0.445118 -0.771015 2.5613 91 156 141
0.232968 -0.646735 2.14461 152 193 226
0.484601 -0.577822 1.92418 151 193 252
-1.32181 -0.928672 3.12013 106 153 131
-0.335028 -0.743168 2.4882 48 82 75
-0.381584 -0.749983 2.52486 85 134 126
0.698795 -0.551422 1.84979 105 101 90
-1.38314 -0.936614 3.16255 94 155 135
-0.923428 -0.847286 2.86672 80 118 106
-0.305409 -0.728289 2.45413 165 193 173
-0.36023 -0.74222 2.50821 139 169 156
0.551132 -0.558455 1.88197 148 167 188
0.733404 -0.542099 1.82597 135 126 113
0.746547 -0.541584 1.82252 113 101 89
-1.27072 -0.909407 3.08639 89 157 146
-1.95556 -1.03368 3.5261 151 249 203
0.25191 -0.627089 2.13008 128 156 186
0.607201 -0.56208 1.9072 130 126 131
-0.37815 -0.739632 2.52124 96 145 137
-1.92307 -1.02374 3.50712 87 138 104
-1.71467 -0.980509 3.36727 114 154 129
-1.86364 -1.00667 3.46731 89 109 97
-1.42986 -0.926843 3.18681 99 166 139
-1.59874 -0.951314 3.29562 114 159 142
0.928262 -0.489874 1.68422 193 189 188
-1.31115 -0.892511 3.10788 102 164 146
-0.343381 -0.712839 2.48395 150 204 181
-1.80803 -0.979249 3.42375 146 210 180
-1.66758 -0.951135 3.32924 92 150 126
-0.928051 -0.818271 2.8632 100 156 137
0.604336 -0.546558 1.90507 106 110 111
-0.497032 -0.736837 2.58096 94 168 156
0.450626 -0.552495 1.93636 67 90 140
0.0186209 -0.649746 2.28563 185 180 181
-0.946239 -0.811397 2.87081 94 144 132
-1.64685 -0.932655 3.31387 63 107 84
-0.345383 -0.699191 2.47857 67 99 88
-0.310354 -0.68942 2.44433 51 80 71
-0.416686 -0.710911 2.52895 95 124 133
-0.305787 -0.684141 2.44297 121 167 145
0.501832 -0.534006 1.9035 175 192 219
-1.40131 -0.879712 3.15667 84 162 138
0.731031 -0.512723 1.82879 109 100 87
-2.02773 -0.988068 3.55689 128 181 171
0.830981 -0.493902 1.76677 97 116 107
-0.943638 -0.793958 2.8632 91 149 131
-0.89643 -0.783471 2.83193 69 134 102
-0.624536 -0.735922 2.65641 95 163 152
-0.347233 -0.684491 2.47468 157 209 179
0.45097 -0.53588 1.93045 144 147 175
0.518798 -0.522845 1.89086 95 90 121
0.488877 -0.526175 1.90653 169 175 204
0.50423 -0.5225 1.89397 160 205 243
0.520797 -0.520626 1.88661 170 184 212
-1.27709 -0.842113 3.0724 104 166 148
-1.23772 -0.834971 3.04576 106 168 154
-0.312929 -0.671309 2.44457 166 213 181
0.499061 -0.523642 1.89756 196 227 255
-1.89615 -0.946822 3.47386 235 255 252
0.519393 -0.51757 1.88481 168 210 255
0.530623 -0.515481 1.88205 137 144 171
0.673234 -0.508914 1.85714 150 123 103
0.540148 -0.511669 1.87234 158 165 198
0.753042 -0.495615 1.81137 95 92 77
0.451398 -0.526592 1.92807 145 176 227
0.549299 -0.509216 1.865 191 218 255
0.562791 -0.50761 1.85793 141 150 183
0.707666 -0.500158 1.83631 103 94 81
-1.30371 -0.831497 3.08054 253 255 255
-1.99777 -0.948777 3.53648 137 191 168
-1.50753 -0.86411 3.21483 96 163 136
0.66756 -0.502888 1.86009 121 103 92
0.676796 -0.500231 1.85268 148 125 99
0.755512 -0.488152 1.80756 119 118 98
-1.59745 -0.878107 3.27459 121 182 156
-1.4844 -0.856451 3.19756 162 233 216
0.564973 -0.500551 1.85476 85 98 154
0.931601 -0.452193 1.672 116 137 222
-0.327937 -0.654882 2.44526 68 97 81
-1.0256 -0.77515 2.90881 100 167 152
-0.421797 -0.669948 2.52337 81 147 135
-0.361802 -0.657337 2.47722 160 210 198
-1.43388 -0.827531 3.15905 104 169 147
-0.32434 -0.642677 2.44438 51 93 70
-1.47044 -0.832185 3.18287 90 141 127
0.491283 -0.499596 1.90027 194 198 226
-0.784307 -0.717487 2.74418 106 161 152
-0.412379 -0.652627 2.51265 255 255 254
-0.800531 -0.711458 2.75274 115 155 153
0.431193 -0.50369 1.93726 191 213 255
0.687841 -0.477505 1.83849 218 161 129
-0.884968 -0.724186 2.80753 90 144 127
-1.5457 -0.826354 3.22645 107 169 151
-0.43253 -0.647728 2.52108 83 133 123
0.0376237 -0.578698 2.25136 189 194 193
-1.72963 -0.854641 3.33982 95 152 121
-0.450932 -0.649492 2.532 96 147 139
-1.56571 -0.825049 3.23392 94 173 134
-0.904443 -0.722021 2.82015 107 156 142
-0.891134 -0.715761 2.80509 149 228 207
-0.413849 -0.642569 2.51224 181 213 212
0.449231 -0.492088 1.92525 128 132 197
-0.446952 -0.643854 2.52798 158 214 209
0.437794 -0.49374 1.9319 176 198 233
0.437321 -0.489839 1.93594 117 136 203
-0.463402 -0.63739 2.53748 167 224 215
-0.435891 -0.630366 2.51663 189 227 221
-0.369626 -0.622695 2.48106 156 232 191
-0.926206 -0.704561 2.82623 99 147 135
-0.913112 -0.702646 2.81972 92 155 139
0.446794 -0.483246 1.92676 164 192 239
0.682382 -0.460618 1.83572 142 133 123
0.682394 -0.460396 1.8366 153 148 139
-1.72162 -0.823801 3.3247 93 141 123
0.668541 -0.459594 1.8398 138 122 106
-1.58765 -0.801312 3.23811 51 108 75
-0.950445 -0.704318 2.84651 108 161 152
-1.49086 -0.781433 3.17387 74 114 96
-1.97303 -0.857373 3.48929 86 157 124
-0.896744 -0.685758 2.80038 145 220 192
-0.464088 -0.621366 2.53002 99 155 144
0.671322 -0.452527 1.83706 150 133 120
-1.01859 -0.70518 2.8831 85 141 128
-0.886302 -0.681811 2.79618 170 231 211
-0.398841 -0.605049 2.48362 87 122 108
-1.5407 -0.776759 3.2025 90 137 105
-0.319821 -0.589866 2.43673 140 189 167
0.0445842 -0.54055 2.2266 188 189 193
-1.81442 -0.812717 3.37902 72 138 126
-1.14688 -0.711761 2.95221 82 154 131
-0.938897 -0.682221 2.82878 168 223 204
-1.64306 -0.783968 3.26579 72 130 101
-0.906866 -0.670212 2.80119 67 120 100
-1.64607 -0.776368 3.26006 154 221 190
-1.62845 -0.772303 3.25234 75 125 93
-1.62635 -0.772859 3.24967 68 128 94
-1.49217 -0.748698 3.16701 140 235 184
0.527726 -0.447147 1.87475 231 249 255
-0.427503 -0.589173 2.49372 58 102 79
-1.62965 -0.761394 3.24564 88 158 117
0.538011 -0.440443 1.86829 175 209 255
-1.8337 -0.788091 3.38736 107 149 124
-0.507341 -0.595564 2.54996 83 154 134
0.184786 -0.464898 1.9808 133 239 202
-1.42175 -0.718934 3.11613 58 104 85
-0.562379 -0.598424 2.58296 77 139 125
-1.54129 -0.735601 3.19042 87 146 115
0.180464 -0.456705 1.98118 141 186 153
-1.57958 -0.730074 3.21369 68 118 86
-0.978648 -0.64393 2.84053 142 180 168
-0.474645 -0.572635 2.52178 125 170 154
-0.609615 -0.590401 2.60685 155 232 218
-1.41402 -0.70109 3.1107 91 158 121
-0.847147 -0.621337 2.7521 110 171 157
-0.582804 -0.579037 2.58609 148 213 198
-0.545822 -0.573141 2.56716 144 209 193
-1.54317 -0.703484 3.18036 66 120 85
-0.978539 -0.626446 2.83477 105 172 157
-1.57859 -0.704737 3.20375 77 125 96
0.5684 -0.40365 1.82027 36 52 45
-1.53505 -0.694989 3.16949 157 241 193
-0.907495 -0.612834 2.78745 81 137 118
-1.48943 -0.686993 3.14362 94 160 118
-0.962843 -0.619036 2.82508 84 149 128
0.584472 -0.400185 1.81666 84 104 91
-0.954884 -0.612361 2.81673 77 120 109
-1.04802 -0.622691 2.87719 102 173 170
-0.341247 -0.513652 2.39428 100 122 98
-0.173284 -0.50564 2.3512 158 197 211
-0.943741 -0.597975 2.80393 111 158 142
0.0618334 -0.471181 2.20167 159 180 208
-1.61487 -0.67962 3.21677 83 149 107
-0.930381 -0.592273 2.79048 106 145 137
-0.345883 -0.507902 2.39569 164 173 147
-0.329127 -0.502989 2.38101 138 154 130
-0.806361 -0.569622 2.70981 107 182 166
-0.958545 -0.586111 2.80941 79 107 101
-1.82816 -0.696704 3.35539 79 141 117
-1.16248 -0.597614 2.93051 77 157 144
-1.82642 -0.681487 3.35353 97 162 140
0.0660835 -0.448222 2.18783 117 146 173
-0.509548 -0.510121 2.52427 114 153 132
-1.49653 -0.624488 3.13645 88 160 124
-1.43429 -0.61491 3.09405 180 249 229
-1.50964 -0.615051 3.13985 75 153 122
-1.70597 -0.6371 3.26381 205 246 225
-0.996062 -0.5529 2.82347 92 166 142
-0.25493 -0.467651 2.38744 126 153 174
-1.60457 -0.617943 3.1956 98 158 128
-1.10358 -0.556216 2.88559 93 156 147
-1.6027 -0.61049 3.19277 81 160 133
-1.46893 -0.593163 3.10557 88 160 138
-0.720197 -0.506812 2.64294 96 147 127
-0.261847 -0.460627 2.38872 212 231 238
-1.38771 -0.583242 3.05472 78 149 123
-0.533717 -0.485558 2.53239 113 149 133
-0.878129 -0.521912 2.73586 99 173 161
-1.65016 -0.603582 3.21649 162 241 208
-0.726551 -0.496961 2.64215 140 176 162
-0.27969 -0.450643 2.39637 152 167 176
-0.26457 -0.439947 2.38196 152 171 179
-0.789381 -0.4935 2.67555 104 166 154
-1.41402 -0.559862 3.06683 79 163 145
0.0686118 -0.389159 2.16869 110 133 178
-0.263426 -0.424368 2.37676 184 215 236
-0.258734 -0.422657 2.37493 128 151 173
-0.80254 -0.47261 2.67096 98 161 145
-1.01413 -0.49124 2.81237 93 151 126
-0.911885 -0.474355 2.74125 112 179 158
-0.725467 -0.450254 2.62363 127 145 128
-0.244719 -0.405158 2.35854 161 171 195
-0.96504 -0.471031 2.77343 156 228 192
-0.187773 -0.395006 2.32339 159 185 222
-1.0308 -0.475719 2.81578 89 149 139
-0.241909 -0.40026 2.35615 240 254 255
-0.940622 -0.465087 2.76064 97 158 124
-0.259395 -0.398507 2.36842 119 131 135
-0.267893 -0.394885 2.36784 101 100 109
-0.0142676 -0.362799 2.20358 147 150 148
-0.534971 -0.410021 2.50551 128 173 154
-0.990541 -0.452398 2.77967 64 125 99
-0.966407 -0.442964 2.76508 159 222 182
-1.01288 -0.443909 2.79144 82 130 106
0.138058 -0.318501 1.99424 124 183 155
-0.637206 -0.401273 2.54962 122 171 157
-0.777651 -0.416259 2.64833 95 153 135
-0.666529 -0.399632 2.5709 163 216 203
-1.00448 -0.430073 2.78441 76 147 107
-0.76306 -0.407011 2.63297 126 156 143
-1.01371 -0.418914 2.78584 90 164 128
-0.979855 -0.417407 2.76386 79 142 110
-0.745436 -0.394591 2.61567 81 97 80
-0.642821 -0.382567 2.55424 113 142 126
-0.576553 -0.364744 2.51282 121 192 152
-0.688498 -0.363431 2.57305 106 149 134
-0.63879 -0.359707 2.54407 125 150 140
-0.762635 -0.367573 2.61736 138 205 178
-0.657882 -0.359818 2.55337 137 177 166
-1.04654 -0.378667 2.78763 104 164 158
-0.655994 -0.347839 2.54946 147 177 158
-0.742122 -0.352298 2.5966 74 95 86
-0.735826 -0.352474 2.59854 106 144 132
-0.751778 -0.35145 2.60322 141 192 184
-0.767999 -0.352487 2.61722 90 144 131
-0.473808 -0.324228 2.43432 84 125 94
0.0480139 -0.284304 2.14436 109 129 164
-0.717021 -0.338448 2.5791 104 123 102
-0.695881 -0.333163 2.56723 107 134 114
-0.991866 -0.345036 2.74671 150 237 217
-0.794953 -0.323448 2.61708 72 116 87
-1.00852 -0.336767 2.74839 88 134 122
-0.964483 -0.323682 2.72021 93 155 133
-0.334447 -0.266567 2.20744 53 63 51
-0.66352 -0.301986 2.53744 126 176 166
-0.342272 -0.264974 2.21122 146 181 155
-1.01931 -0.32249 2.75104 85 138 124
-0.64084 -0.289817 2.51569 103 138 124
-0.0589108 -0.251184 2.1954 147 142 144
-0.565528 -0.283442 2.48246 94 145 108
-0.733948 -0.28115 2.56496 113 154 133
-0.116687 -0.246173 2.22975 197 198 196
-1.02139 -0.29445 2.74132 88 163 142
-0.629807 -0.271299 2.50942 99 150 130
-0.446266 -0.24505 2.25266 61 81 46
-0.633454 -0.263466 2.50557 108 155 129
-0.665568 -0.260099 2.51961 118 176 152
-0.970873 -0.268373 2.70303 82 143 109
-1.0169 -0.243722 2.72005 149 221 201
-0.678631 -0.218249 2.51351 102 167 135
-1.0231 -0.203214 2.70872 80 142 126
-0.802141 -0.184884 2.56799 78 154 130
-0.703976 -0.164539 2.50015 244 243 229
-0.729194 -0.150874 2.50931 72 91 66
-0.747479 -0.130926 2.51563 77 127 109
-0.741226 -0.125397 2.51067 174 240 215
-1.00532 -0.11539 2.65828 89 146 121
-0.332496 -1.56642 2.5689 171 220 218
0.408553 -1.23456 2.02031 236 237 227
-0.699937 -1.70702 2.81606 111 163 153
0.943508 -1.01005 1.65964 71 63 64
0.369387 -1.24165 2.04861 251 241 231
0.416838 -1.2182 2.01441 97 58 43
0.202462 -1.30698 2.17278 255 255 254
-0.244405 -1.50525 2.50572 65 84 67
0.319756 -1.24924 2.08244 212 186 180
0.208287 -1.30159 2.16985 170 173 201
0.311708 -1.2521 2.08961 157 134 142
0.336813 -1.23918 2.06845 173 139 110
0.459942 -1.19103 1.98986 241 242 240
-0.376219 -1.54539 2.58965 177 217 215
0.220297 -1.28628 2.15393 132 129 168
0.278519 -1.26029 2.11505 173 156 153
0.522117 -1.16787 1.95472 250 254 255
0.267124 -1.25611 2.1144 224 216 216
0.324645 -1.23282 2.08176 180 164 148
0.459595 -1.17751 1.98805 173 165 166
0.206002 -1.28166 2.16739 126 111 125
0.252008 -1.2538 2.12823 102 82 87
0.200919 -1.2806 2.17621 234 235 219
0.51154 -1.15713 1.96355 136 129 132
-0.223431 -1.46205 2.49639 107 148 120
0.12541 -1.33492 2.27571 113 90 82
0.465438 -1.1633 1.98113 202 209 188
-0.399032 -1.52205 2.60863 159 215 210
-0.215461 -1.44935 2.48794 130 180 140
-0.36971 -1.51285 2.60065 153 207 200
0.113137 -1.32303 2.28231 128 103 99
0.527892 -1.12729 1.94251 225 228 213
0.249957 -1.2241 2.13476 110 71 63
0.483302 -1.13136 1.97655 126 126 140
0.520926 -1.11597 1.94959 148 140 150
0.248362 -1.21349 2.13493 100 78 67
0.803483 -1.00459 1.76369 218 185 140
0.485157 -1.12175 1.98445 125 133 162
-0.772006 -1.61818 2.8686 112 154 136
0.650512 -1.04969 1.86121 173 190 217
0.680745 -1.04823 1.85839 219 221 231
0.624431 -1.06129 1.88487 236 255 255
0.823403 -0.985668 1.74935 164 165 156
0.890237 -0.911481 1.6134 88 145 112
0.550647 -1.08657 1.93574 148 159 189
0.144239 -1.25514 2.23824 255 255 254
0.17001 -1.2432 2.22256 252 245 242
-0.859091 -1.62474 2.91682 87 120 85
-0.375944 -1.43356 2.5966 92 130 124
0.468057 -1.10244 1.99415 182 162 131
-0.387145 -1.43813 2.60936 170 218 224
0.883427 -0.897943 1.62743 64 99 72
0.139154 -1.22314 2.23543 255 254 249
0.289457 -1.15478 2.11123 180 163 142
-0.763707 -1.56172 2.86284 86 112 106
-0.401094 -1.42594 2.61601 170 213 240
0.168537 -1.20409 2.21956 207 162 141
-0.931468 -1.61181 2.9794 109 162 149
-0.89252 -1.59322 2.94447 89 153 107
-0.84429 -1.56766 2.89859 183 255 213
-0.905857 -1.59198 2.95143 163 230 201
0.106713 -1.2261 2.293 169 167 159
-0.901761 -1.57365 2.94518 67 117 87
0.106966 -1.22611 2.29314 169 167 159
-0.860109 -1.55219 2.91547 81 153 111
0.141954 -1.18728 2.23902 255 255 255
0.540867 -0.967923 1.8296 46 94 82
0.627383 -1.00023 1.89605 167 175 205
0.0987353 -1.19536 2.29736 131 116 107
-0.806488 -1.49849 2.88997 102 133 118
0.478263 -0.958146 1.84375 131 218 174
0.531617 -0.94979 1.8265 128 214 180
0.858294 -0.859486 1.64875 103 152 120
-0.786453 -1.48538 2.87288 90 128 116
0.5227 -0.95248 1.83301 25 69 52
-1.04227 -1.56084 3.04258 93 166 144
0.470041 -0.952614 1.85001 141 217 186
0.355957 -0.997432 1.94682 31 116 84
0.807841 -0.875011 1.70468 34 59 45
0.834874 -0.854241 1.66663 101 160 132
0.8282 -0.860398 1.67878 119 190 163
-0.840154 -1.48084 2.91001 114 165 138
0.807235 -0.870307 1.70378 122 174 144
0.686359 -0.964546 1.89388 218 191 157
-0.778769 -1.4532 2.86468 79 106 96
0.318217 -1.00235 1.97743 130 212 170
0.36395 -0.977939 1.94027 117 215 171
0.806781 -0.854173 1.70323 143 207 165
-2.14553 -1.89425 3.80385 108 180 160
0.452122 -0.91073 1.84807 110 156 133
0.300831 -0.974484 2.00248 134 216 167
-0.363931 -1.24041 2.58187 146 166 171
0.112529 -1.09331 2.28087 201 207 214
-0.345626 -1.21594 2.56696 117 128 125
0.417853 -0.885941 1.87367 45 67 55
-0.93555 -1.38003 2.96412 115 184 171
-0.360214 -1.20149 2.57859 212 240 240
0.64831 -0.900371 1.92677 250 253 255
-0.260118 -1.15428 2.4925 132 180 156
0.262677 -0.948664 2.06193 70 94 60
0.468448 -0.843587 1.83817 88 137 123
-0.364401 -1.17245 2.57657 203 228 230
-0.210648 -1.13665 2.50096 179 181 191
-0.827256 -1.30707 2.88689 112 171 151
0.713692 -0.854371 1.88053 120 155 195
0.644674 -0.874373 1.92478 229 251 255
0.122887 -1.02048 2.27325 221 233 243
0.357922 -0.865955 1.92117 184 236 212
0.377786 -0.851768 1.90223 101 173 143
0.127483 -1.01008 2.2647 177 191 190
-0.282591 -1.10647 2.49159 25 61 47
-0.322842 -1.11537 2.51716 137 198 170
-0.299046 -1.10784 2.49847 141 236 202
-0.366341 -1.1338 2.57914 205 233 234
0.729386 -0.823461 1.86848 83 104 132
-0.421507 -1.14408 2.60793 130 171 166
0.321463 -0.853735 1.95462 143 210 179
0.724497 -0.817957 1.87516 100 116 145
0.867252 -0.712503 1.63153 87 161 133
-1.7251 -1.50265 3.48389 112 158 145
-1.04618 -1.30554 3.0246 97 137 125
-0.861311 -1.25255 2.90286 106 165 150
-1.68403 -1.4805 3.45264 90 158 127
-0.156569 -1.05675 2.45747 136 189 192
0.372494 -0.826275 1.91646 104 154 136
-0.368373 -1.10509 2.57654 164 207 196
-0.376429 -1.10066 2.5772 86 112 112
0.104518 -0.973062 2.27727 145 139 134
-0.363762 -1.09126 2.56998 174 232 221
0.376367 -0.813757 1.90907 48 86 68
0.107701 -0.964043 2.27346 198 207 210
0.376963 -0.8054 1.9047 119 172 145
0.456044 -0.789652 1.86586 149 212 180
-1.26485 -1.32322 3.16254 69 127 103
0.814005 -0.701916 1.66881 112 173 147
-1.04296 -1.257 3.01793 116 166 156
0.398332 -0.793265 1.89622 119 186 154
-2.31247 -1.61114 3.87538 166 234 211
-1.83771 -1.47552 3.5496 119 175 154
-1.86374 -1.47619 3.56428 78 116 98
0.126107 -0.937485 2.26029 152 164 176
-1.36464 -1.33409 3.22382 110 148 142
0.137296 -0.919182 2.25261 114 128 146
0.143637 -0.916564 2.2457 155 189 219
0.458101 -0.758691 1.85525 37 102 76
-1.38585 -1.31228 3.24117 108 145 125
0.0927738 -0.926691 2.27741 174 171 173
0.137589 -0.915257 2.24831 105 122 148
0.807888 -0.675365 1.66717 68 91 83
-0.268003 -0.991167 2.46653 98 189 166
0.121025 -0.906786 2.25847 177 207 234
0.158534 -0.896354 2.23206 85 91 110
-1.48425 -1.3173 3.29958 108 159 139
-1.31545 -1.27487 3.18706 71 87 69
0.12803 -0.90051 2.25611 123 122 148
0.298194 -0.779651 1.95408 136 226 180
0.310296 -0.773435 1.94193 57 90 63
0.738965 -0.723961 1.81942 213 198 195
-0.608379 -1.07257 2.71798 113 179 168
0.0431251 -0.916855 2.31895 163 158 155
0.122715 -0.891627 2.25696 187 221 244
0.301973 -0.77268 1.95065 121 188 156
-1.57347 -1.31418 3.35283 107 162 135
0.185467 -0.869875 2.21611 91 98 117
0.133871 -0.879155 2.25037 103 107 131
0.104005 -0.88328 2.26488 118 106 104
-1.15067 -1.18794 3.06486 161 245 211
0.039972 -0.897789 2.3155 167 169 170
0.0989665 -0.877086 2.2681 191 190 192
0.0302752 -0.894856 2.32119 159 162 166
0.147821 -0.863849 2.2376 153 201 235
0.30107 -0.754558 1.94951 149 245 198
0.75352 -0.700984 1.81382 114 124 148
0.1118 -0.868708 2.26116 178 202 222
0.635983 -0.720231 1.86762 97 93 175
0.75915 -0.698494 1.8128 192 219 229
0.315336 -0.743426 1.93446 99 191 148
0.760877 -0.697674 1.81798 241 255 255
-1.59115 -1.27302 3.35557 93 145 108
0.117637 -0.855469 2.25223 160 190 215
0.0204899 -0.877219 2.32647 144 133 135
-1.24729 -1.17684 3.12933 84 141 103
0.816372 -0.635611 1.68126 129 200 160
0.300212 -0.732402 1.95485 112 213 168
0.150039 -0.82581 2.22697 117 123 146
-1.36749 -1.18176 3.20303 111 155 138
-0.379542 -0.941013 2.55652 162 193 190
0.790675 -0.669967 1.81404 49 59 83
0.148607 -0.820529 2.23077 154 192 210
0.594914 -0.714028 1.93841 140 120 103
-1.89074 -1.30137 3.55763 113 172 157
0.157593 -0.812862 2.22196 107 116 136
0.162803 -0.809493 2.21465 150 166 189
0.7879 -0.664566 1.81677 119 193 241
0.302072 -0.710189 1.96009 52 125 93
0.55011 -0.69234 1.92554 88 172 147
-1.09369 -1.07396 3.01642 113 172 158
-1.58405 -1.18414 3.33767 94 145 118
-1.42464 -1.14994 3.23511 110 152 121
0.289149 -0.698952 1.97694 114 213 165
0.729491 -0.637914 1.81918 255 255 255
0.519024 -0.676249 1.93675 69 136 115
0.277928 -0.689657 1.98521 138 224 176
-0.384387 -0.877694 2.55093 88 119 120
-1.39521 -1.09776 3.20803 111 162 148
0.511333 -0.665474 1.94336 114 153 138
0.52494 -0.662761 1.93399 137 233 203
0.109835 -0.764592 2.2436 138 170 181
0.162213 -0.746872 2.20112 88 85 77
0.516733 -0.655184 1.93673 111 150 129
0.515701 -0.655801 1.9333 59 109 97
-1.21033 -1.02839 3.07502 91 157 122
-0.389471 -0.851857 2.54391 117 149 148
-1.83538 -1.16328 3.48642 109 170 156
-0.413142 -0.852173 2.56231 154 215 201
-0.460895 -0.848781 2.59145 83 128 112
0.436493 -0.640503 1.94504 39 143 120
0.0511906 -0.74007 2.27725 123 104 91
-0.437553 -0.830101 2.56908 168 227 219
0.216945 -0.700679 2.16314 143 191 215
-1.65399 -1.0822 3.36138 107 167 143
0.430364 -0.631492 1.95246 59 151 126
0.208913 -0.692841 2.16677 74 101 111
-0.939776 -0.917213 2.89185 89 141 134
-1.84189 -1.09603 3.47807 113 166 152
-0.878538 -0.899465 2.84915 79 148 121
0.192242 -0.688511 2.17636 70 73 71
0.712169 -0.58208 1.83346 117 212 167
-1.89854 -1.08991 3.50858 81 118 86
0.708777 -0.574402 1.84395 188 229 231
-0.308807 -0.761441 2.46802 90 139 117
-1.37527 -0.967457 3.16453 89 137 125
-1.16634 -0.925754 3.02481 94 167 129
-0.362368 -0.769074 2.51574 196 233 225
-0.34958 -0.762401 2.5012 78 111 104
0.0443596 -0.695695 2.27687 130 112 101
0.839836 -0.541041 1.77168 57 59 60
0.0416261 -0.687107 2.2725 186 179 182
-0.688159 -0.81139 2.71396 121 173 166
0.485262 -0.577426 1.92589 155 200 255
0.717663 -0.55303 1.84119 169 152 133
0.864914 -0.527256 1.75203 116 143 117
-0.390652 -0.754781 2.52689 112 166 153
-1.89935 -1.03921 3.49639 67 115 86
-1.78382 -1.01414 3.42003 137 181 174
0.733562 -0.542104 1.82588 135 126 113
0.920943 -0.502081 1.6902 220 222 203
-1.71393 -0.980439 3.36792 84 123 98
-1.8403 -0.999984 3.44773 146 224 183
-1.61874 -0.953997 3.2994 116 153 143
-1.96455 -1.0136 3.52804 79 126 94
-0.337994 -0.710331 2.47598 51 99 81
0.0200044 -0.655582 2.28667 130 124 117
0.923796 -0.486832 1.68721 164 151 165
0.738632 -0.519047 1.82167 148 136 118
0.797164 -0.511571 1.79022 156 167 147
0.0406979 -0.644334 2.2682 157 148 135
0.717097 -0.523152 1.83791 107 104 100
0.0166581 -0.644575 2.28508 133 115 108
0.491987 -0.537435 1.9029 101 103 134
0.730718 -0.515457 1.82591 128 113 97
0.456661 -0.536545 1.92566 195 214 235
-0.329629 -0.680264 2.45919 69 83 71
0.711978 -0.509704 1.83425 155 139 103
-1.66972 -0.912919 3.31641 114 165 145
-0.312154 -0.67235 2.43974 133 185 155
0.549642 -0.517232 1.87349 137 138 159
-1.2757 -0.842237 3.06958 109 169 151
-0.321412 -0.671554 2.44872 64 78 67
0.736811 -0.500258 1.81987 127 120 103
0.548896 -0.51053 1.86277 186 216 255
0.643501 -0.514227 1.8748 206 176 147
-0.302893 -0.66314 2.43126 82 120 102
-0.379188 -0.6778 2.49788 185 232 224
0.529734 -0.507437 1.87635 167 173 202
-0.421044 -0.672224 2.5169 88 126 120
0.660111 -0.490283 1.85541 139 133 120
-1.4339 -0.827577 3.15853 87 153 128
-0.305384 -0.638708 2.43076 113 159 146
0.0483243 -0.5885 2.24239 141 132 123
-0.357972 -0.647298 2.48428 42 70 57
0.759521 -0.471339 1.80422 118 104 76
-0.41216 -0.652658 2.51231 255 255 254
-0.308489 -0.63037 2.4296 164 225 205
0.684139 -0.478735 1.84092 211 171 136
-0.95909 -0.74197 2.86395 122 184 172
-0.937776 -0.733355 2.84194 98 141 130
0.0260826 -0.580756 2.24815 167 172 171
0.249178 -0.500755 1.92664 91 130 114
0.694337 -0.475808 1.83584 129 97 84
0.433157 -0.500307 1.93762 116 131 204
-0.434047 -0.647411 2.52166 83 132 124
0.708522 -0.465743 1.82695 89 85 80
0.675568 -0.461037 1.83831 65 52 50
-0.345684 -0.613915 2.45674 159 225 190
-0.445313 -0.628904 2.51869 78 110 105
0.67806 -0.458282 1.83377 126 115 107
-0.40923 -0.61645 2.49719 75 122 100
0.591125 -0.468957 1.89259 107 105 104
-1.76598 -0.818726 3.34378 165 242 205
-1.01555 -0.705696 2.87394 65 129 107
-0.941617 -0.690141 2.8316 97 129 118
-0.387956 -0.605311 2.47744 182 235 208
-1.54086 -0.776761 3.2026 90 137 105
-0.877407 -0.675962 2.78524 78 138 127
-0.398974 -0.604032 2.48417 84 121 105
-0.409745 -0.602397 2.48837 144 203 183
0.0453339 -0.532302 2.22494 148 144 150
-0.215528 -0.569361 2.39325 140 189 229
-0.916803 -0.663785 2.80475 64 126 96
-0.558183 -0.61055 2.5851 104 162 144
-0.453965 -0.59351 2.51157 100 148 136
0.538057 -0.440364 1.86857 175 209 255
-1.42129 -0.718972 3.11552 58 104 85
0.193314 -0.457013 1.96942 116 173 142
-0.471301 -0.57661 2.52441 63 112 96
-0.455439 -0.567831 2.50688 76 85 72
-0.414897 -0.565568 2.4776 118 182 140
-0.42296 -0.559725 2.47939 56 75 60
-0.726326 -0.601884 2.67493 89 148 133
0.0549137 -0.498867 2.21043 128 124 136
-0.943987 -0.628738 2.81268 189 237 225
0.0581042 -0.491327 2.20863 170 180 198
-1.54575 -0.703678 3.18445 74 131 100
-0.514851 -0.561036 2.54612 73 101 81
-0.954007 -0.607529 2.81551 86 129 116
-0.498197 -0.533769 2.52704 135 187 169
-0.361924 -0.508533 2.4072 132 155 127
-1.50456 -0.649015 3.14514 93 153 119
-0.620608 -0.531097 2.59226 67 79 61
-0.626186 -0.524979 2.59182 103 142 121
-0.655373 -0.523943 2.59728 89 141 124
-1.84918 -0.665157 3.35624 89 144 125
-1.49884 -0.622683 3.13694 80 133 94
-0.267575 -0.47446 2.39612 152 167 193
-0.270094 -0.46539 2.39683 166 202 220
-0.264173 -0.462715 2.38812 229 247 255
-1.65972 -0.618646 3.22917 159 239 204
0.526871 -0.356639 1.85179 78 65 57
-0.727932 -0.502733 2.64326 147 204 189
-0.279788 -0.450513 2.39696 153 169 176
-0.973441 -0.524125 2.80006 91 140 124
-0.494998 -0.469384 2.50277 93 114 99
0.242537 -0.35743 1.90841 35 53 36
-0.265283 -0.440125 2.38157 160 178 189
-0.240771 -0.433553 2.36622 230 249 255
0.222609 -0.354249 1.92472 108 196 160
-0.701201 -0.474812 2.61454 151 224 198
0.0694837 -0.395395 2.17099 167 199 235
-0.747258 -0.470782 2.64125 158 221 205
-0.259048 -0.422642 2.37514 143 169 193
-0.802367 -0.472324 2.67214 110 172 154
-0.943108 -0.468075 2.75519 74 116 81
0.073792 -0.361281 2.15548 118 139 166
-1.74263 -0.525536 3.24651 109 179 162
-0.528396 -0.402691 2.49489 109 149 121
-0.975078 -0.436138 2.76985 86 133 117
-1.00407 -0.430172 2.78462 74 147 109
-0.745956 -0.393845 2.61875 82 98 80
-0.999903 -0.408171 2.77272 65 113 87
-0.576791 -0.364897 2.51237 105 179 137
-0.975745 -0.395098 2.75314 69 118 104
-0.733277 -0.370894 2.60022 130 166 154
-0.687601 -0.362429 2.57089 112 159 137
-0.741929 -0.364303 2.60285 120 153 132
-1.03331 -0.379483 2.78099 81 146 137
-0.733053 -0.349732 2.58728 94 132 120
-0.734955 -0.347599 2.59566 116 155 134
-0.587854 -0.310547 2.49912 109 143 132
-1.67668 -0.38332 3.15672 192 244 227
-0.663167 -0.30195 2.53741 127 179 169
-0.598525 -0.293171 2.49421 87 122 96
-0.313521 -0.259546 2.19242 134 190 155
-0.989238 -0.316998 2.72923 75 121 99
-0.99387 -0.314372 2.74024 93 145 128
-0.564679 -0.283523 2.47687 118 169 135
-0.434999 -0.244042 2.24 144 201 168
-0.412176 -0.228042 2.22032 123 159 137
-0.75955 -0.257809 2.5658 76 111 91
-0.741434 -0.250705 2.55436 136 205 184
-0.678139 -0.218448 2.51273 102 167 135
-0.723375 -0.203389 2.52488 126 200 174
-0.699918 -0.197966 2.51481 95 132 112
-0.715456 -0.180977 2.51623 107 179 149
-0.747802 -0.130844 2.51597 75 127 109
0.203631 -1.32395 2.16965 252 252 252
0.943012 -1.01005 1.65879 70 64 65
0.377425 -1.23732 2.04241 255 247 240
0.416495 -1.21785 2.01127 88 54 38
-0.377839 -1.56266 2.59362 112 146 140
-0.346702 -1.54921 2.56856 106 140 133
0.793757 -1.06643 1.76498 210 227 224
-0.332651 -1.53944 2.56573 144 195 187
0.864532 -1.03446 1.71953 233 248 251
0.319203 -1.25037 2.08452 221 201 196
0.933134 -0.999379 1.65864 235 248 250
0.312248 -1.25202 2.08905 159 136 140
0.515619 -1.1726 1.9587 153 161 220
0.307795 -1.25352 2.09929 168 165 181
0.220649 -1.28664 2.15666 115 113 149
0.286421 -1.25345 2.10824 215 220 221
0.297762 -1.24608 2.10085 110 87 71
0.201029 -1.28047 2.17525 234 235 219
0.25357 -1.25399 2.13014 102 90 90
0.377643 -1.20724 2.04853 173 148 128
-0.397661 -1.53379 2.60862 92 116 104
0.125644 -1.33504 2.27654 117 91 79
-0.337793 -1.49537 2.56611 143 197 190
0.700534 -1.04506 1.7865 102 122 123
0.844325 -1.01062 1.73335 154 141 119
0.53063 -1.12978 1.94637 222 228 211
0.562877 -1.11271 1.92203 255 255 254
0.622969 -1.08571 1.87856 188 174 202
0.62435 -1.08563 1.87826 184 157 190
-1.34213 -1.87321 3.25662 101 145 132
0.510232 -1.12762 1.96001 132 123 126
0.548575 -1.11436 1.92852 194 185 198
-0.360698 -1.48427 2.58676 80 112 101
0.178108 -1.27697 2.22442 246 191 140
0.501674 -1.1293 1.96306 255 254 255
0.232515 -1.23377 2.15068 107 78 73
0.233669 -1.23366 2.14998 101 76 72
0.10588 -1.30473 2.28431 193 197 192
-0.393448 -1.47732 2.60367 107 144 142
0.482522 -1.125 1.97927 182 208 222
-0.859552 -1.65548 2.92221 92 129 103
0.248536 -1.2117 2.13839 97 71 64
0.229723 -1.21803 2.15153 97 71 65
-0.592533 -1.54621 2.74354 120 185 163
0.917877 -0.907444 1.60339 114 167 134
0.650854 -1.04969 1.86175 171 189 218
0.453905 -1.12121 1.99577 85 57 40
0.913519 -0.900243 1.60472 43 64 49
-0.859387 -1.62542 2.92005 78 110 75
-0.387146 -1.44753 2.60448 99 122 124
-0.756577 -1.58582 2.86016 82 111 96
-0.377067 -1.43 2.59607 106 148 141
0.194836 -1.20413 2.18414 187 165 140
0.166659 -1.20179 2.19464 255 250 243
0.168928 -1.20417 2.22055 207 162 141
0.864821 -0.87471 1.64028 56 108 90
0.869856 -0.86353 1.64065 68 105 89
0.163822 -1.17239 2.23745 216 189 152
0.0986459 -1.19556 2.29957 146 132 126
-0.809889 -1.49558 2.88556 92 134 111
0.522994 -0.952463 1.83313 40 77 61
-1.19579 -1.62377 3.14524 77 122 113
-0.187056 -1.25933 2.43655 124 190 178
0.342162 -1.01624 1.96184 112 195 156
0.515311 -0.951372 1.83433 116 203 167
-1.04252 -1.5611 3.04405 93 166 144
0.4702 -0.952588 1.85164 133 191 162
0.5163 -0.947135 1.83625 116 181 149
0.364223 -0.992819 1.94272 111 235 181
0.835459 -0.854139 1.6678 107 165 137
0.331657 -1.0019 1.96589 44 90 68
-0.779005 -1.45359 2.86725 72 102 91
-0.874529 -1.48157 2.92687 107 175 150
0.374849 -0.988769 1.94713 84 132 108
0.505376 -0.927276 1.83037 55 93 71
0.104798 -1.15299 2.289 177 173 179
0.335142 -0.988545 1.96513 104 222 181
0.815959 -0.854154 1.69196 116 180 144
0.456461 -0.9339 1.85874 148 215 184
0.351023 -0.976905 1.95151 46 65 50
0.295709 -1.00242 2.01089 160 227 190
0.284099 -1.00905 2.02597 116 165 149
0.448573 -0.919929 1.85675 123 177 164
0.748686 -0.903468 1.8321 116 109 94
0.332673 -0.966964 1.96892 49 86 66
0.676222 -0.932551 1.90761 102 139 183
0.320678 -0.964917 1.983 154 248 207
0.286901 -0.983813 2.0268 130 178 150
0.289946 -0.969214 2.01941 65 112 79
0.33964 -0.938566 1.96296 102 153 125
0.691602 -0.904087 1.89992 128 185 236
0.775473 -0.862837 1.82035 144 110 86
0.115233 -1.0783 2.28235 189 197 197
0.404215 -0.888061 1.87958 38 48 35
-0.258064 -1.15406 2.49022 170 224 187
-0.357216 -1.19175 2.57418 138 173 163
0.634881 -0.894852 1.93477 104 100 129
-0.800632 -1.30096 2.86763 106 174 133
0.446978 -0.840507 1.84925 50 82 65
0.371756 -0.86453 1.9074 120 156 134
0.345534 -0.862913 1.92339 134 228 197
-1.59441 -1.51747 3.40428 125 179 162
-0.262002 -1.10352 2.47212 72 96 78
0.127179 -1.01001 2.26803 154 159 162
-0.948688 -1.31873 2.96699 113 183 153
-1.08004 -1.35073 3.05067 103 144 123
0.36129 -0.851972 1.91747 163 238 217
0.707195 -0.837217 1.88585 104 133 172
0.0921572 -1.00593 2.28909 172 171 173
-0.357418 -1.1199 2.56592 129 159 160
0.112088 -0.994873 2.27473 217 223 228
0.6975 -0.826101 1.8909 125 175 195
-0.36007 -1.12052 2.57823 178 207 204
-0.214137 -1.05781 2.43841 68 140 120
0.114391 -0.985057 2.27303 125 118 121
0.367978 -0.833962 1.91913 65 89 79
-1.72465 -1.50249 3.48283 106 152 139
0.324661 -0.848285 1.95642 57 77 64
-0.3525 -1.09498 2.55682 71 80 70
-1.72632 -1.47477 3.48548 125 192 155
0.182154 -0.941936 2.22696 232 174 122
0.431719 -0.799382 1.88439 20 63 48
-0.237654 -1.03223 2.4504 91 155 143
0.456051 -0.78948 1.86769 138 203 171
0.418885 -0.795711 1.8925 120 182 158
0.435265 -0.791538 1.88119 109 201 166
0.824624 -0.699581 1.65804 149 183 152
-0.62947 -1.14555 2.74243 109 174 153
0.834511 -0.691707 1.64682 118 170 140
-0.85338 -1.20313 2.8932 113 160 151
0.100214 -0.950948 2.28342 193 202 205
0.366924 -0.80027 1.91359 147 244 200
-0.332588 -1.04686 2.52447 150 247 213
0.349039 -0.800301 1.92374 128 193 167
0.816568 -0.698545 1.67206 127 176 148
0.844358 -0.686081 1.63881 118 173 140
-0.37428 -1.05904 2.56156 192 226 225
0.126382 -0.937456 2.26086 152 164 176
0.824399 -0.688407 1.65645 109 179 143
-1.17905 -1.27307 3.1063 100 149 127
-0.889241 -1.19233 2.91403 122 164 157
-0.36725 -1.05269 2.57082 89 103 97
-0.390544 -1.03422 2.57787 173 204 205
0.120819 -0.904647 2.25668 176 205 232
-1.13025 -1.22159 3.0647 85 130 104
-0.866708 -1.15246 2.89644 105 152 143
0.0450081 -0.926763 2.3202 129 112 109
0.129232 -0.901749 2.25454 126 124 144
0.102002 -0.904253 2.27744 170 175 176
0.302751 -0.780656 1.94883 23 69 46
0.159457 -0.886955 2.23104 139 169 204
0.33084 -0.766611 1.92743 141 229 193
-1.33756 -1.26337 3.19219 111 183 137
-0.382194 -1.0156 2.56806 255 255 255
0.122555 -0.891596 2.25791 179 213 236
-1.41379 -1.27663 3.25416 106 176 136
0.163601 -0.875944 2.22997 86 87 115
0.186216 -0.871598 2.21664 95 95 109
0.287648 -0.7709 1.96477 52 115 95
0.299311 -0.76774 1.95505 144 232 192
0.832593 -0.648533 1.65071 128 196 155
0.104785 -0.883046 2.26871 118 103 107
0.138667 -0.877739 2.2469 100 111 133
0.0319229 -0.895755 2.2982 200 208 208
0.0311695 -0.894757 2.32213 161 164 169
0.117308 -0.867381 2.26234 104 119 138
0.337306 -0.743285 1.92559 131 228 178
0.764159 -0.696312 1.81091 119 122 150
0.163102 -0.84366 2.22567 161 200 232
0.604155 -0.736838 1.93875 134 122 104
-0.387046 -0.971985 2.56582 106 119 121
0.302997 -0.740693 1.95581 39 61 42
-0.890675 -1.09405 2.89866 102 155 145
0.128683 -0.846385 2.24224 165 199 229
0.0208445 -0.877159 2.32718 144 133 135
-1.42109 -1.21562 3.24609 108 173 141
-0.271791 -0.920668 2.45022 90 118 105
-0.387309 -0.953237 2.55578 103 128 132
0.156869 -0.832918 2.22896 184 217 243
0.0342166 -0.863831 2.32004 182 187 188
0.288437 -0.730787 1.97757 88 181 144
-0.382666 -0.939042 2.55517 165 199 199
0.297817 -0.724987 1.96357 132 222 169
0.594879 -0.713998 1.93868 130 110 92
-0.405651 -0.938342 2.56982 116 149 142
-0.379816 -0.932482 2.55124 85 100 102
0.281219 -0.722863 1.97715 42 73 46
-1.14756 -1.10748 3.05558 112 177 145
-1.00498 -1.0747 2.96548 124 179 162
0.282156 -0.709215 1.98297 163 236 196
-0.391766 -0.909206 2.54994 255 255 255
0.70597 -0.655689 1.82903 149 121 134
-1.28248 -1.11219 3.13572 82 139 100
0.720463 -0.651253 1.82121 133 109 109
0.26605 -0.711408 2.00577 41 56 42
-0.885573 -1.01453 2.87918 119 165 152
-1.08039 -1.05432 3.00529 99 174 152
-0.00133109 -0.821563 2.34036 174 172 178
0.0349739 -0.807767 2.30091 139 129 122
0.520412 -0.675885 1.93847 82 173 150
-0.909452 -0.999936 2.89462 97 166 153
0.278338 -0.689564 1.98561 155 235 188
0.755659 -0.628846 1.8091 254 254 254
0.136308 -0.770567 2.23117 113 126 128
-1.19151 -1.05177 3.06839 58 122 87
0.516906 -0.662979 1.93742 75 115 103
0.534981 -0.659409 1.92858 122 202 171
0.759023 -0.617308 1.80819 205 146 84
0.0455177 -0.776059 2.2883 191 200 204
0.174148 -0.745791 2.19663 224 239 241
0.0346406 -0.775981 2.29285 133 131 131
0.527943 -0.655839 1.93071 82 181 163
-0.458346 -0.87582 2.59015 76 122 109
0.372142 -0.66056 1.95343 85 139 116
-0.395308 -0.849786 2.54146 90 124 117
-0.31044 -0.823691 2.47949 81 109 103
0.505505 -0.640786 1.93526 116 133 159
-0.387431 -0.837282 2.54807 103 171 140
0.11773 -0.736138 2.23271 123 146 142
0.202351 -0.71234 2.1761 155 210 225
0.0521602 -0.740292 2.27455 115 92 77
-0.393613 -0.820473 2.542 153 224 208
0.0237351 -0.746173 2.29963 158 150 151
0.217898 -0.700575 2.16333 175 216 238
0.194935 -0.699235 2.1799 123 158 171
-1.27254 -0.9839 3.10407 114 180 151
0.911583 -0.540644 1.70408 131 210 166
-0.321306 -0.778517 2.47616 47 66 57
0.0551424 -0.709103 2.26896 170 168 168
-1.89224 -1.08646 3.50007 82 119 87
-1.52607 -1.01035 3.25365 90 135 116
0.708564 -0.574443 1.84384 184 228 229
-0.378829 -0.782159 2.52644 102 153 139
-1.62272 -1.02088 3.32688 78 135 104
-1.17067 -0.926351 3.03319 67 146 113
-1.49515 -0.989169 3.23754 91 136 103
-0.3624 -0.768838 2.51808 186 227 219
0.0467542 -0.69425 2.27198 121 96 80
-1.97411 -1.07819 3.55646 105 141 119
-0.30551 -0.753191 2.47083 110 174 144
0.722133 -0.561976 1.84061 185 175 157
0.736281 -0.558123 1.83161 129 124 109
-0.36244 -0.758495 2.5108 94 118 118
-1.89843 -1.03918 3.49485 67 115 86
-1.70906 -1.00197 3.37101 92 140 122
-1.95376 -1.04226 3.52716 91 142 105
0.855152 -0.52131 1.75604 112 150 138
0.925034 -0.501915 1.688 156 138 145
-0.334159 -0.727435 2.48579 38 52 48
0.0374051 -0.668877 2.28713 189 191 191
-0.323424 -0.713709 2.4636 138 189 175
-1.966 -1.01359 3.53143 79 126 94
-1.55462 -0.935341 3.25466 88 123 97
-1.808 -0.973876 3.41959 84 133 113
-1.83713 -0.974702 3.43952 140 218 177
-0.307755 -0.69311 2.44867 75 99 89
-0.350635 -0.699812 2.48237 77 104 95
-0.301052 -0.68339 2.4459 92 141 121
-0.389317 -0.699673 2.50938 122 164 153
-0.374956 -0.692948 2.49578 169 218 210
0.554 -0.519528 1.86039 182 209 253
0.55641 -0.51761 1.86779 212 239 255
-1.23732 -0.834899 3.04498 106 168 154
-0.329207 -0.678564 2.46881 60 71 61
-0.309355 -0.671636 2.44136 133 183 151
-0.311276 -0.668854 2.46185 84 121 101
0.512839 -0.51631 1.88859 95 86 113
-0.391962 -0.675598 2.5052 69 94 96
0.450148 -0.512768 1.92871 130 168 240
-0.436513 -0.662248 2.52242 94 153 145
0.205531 -0.517821 1.97465 104 166 126
0.026278 -0.580602 2.24888 177 179 179
-1.73413 -0.856171 3.34694 110 162 132
0.0372665 -0.575623 2.24323 189 193 194
0.433376 -0.500048 1.93864 116 131 204
-0.778426 -0.694443 2.73443 93 146 136
-0.537872 -0.655815 2.58507 103 160 151
-1.72889 -0.83999 3.33171 176 229 216
-0.403824 -0.624631 2.4944 146 200 183
0.43734 -0.486911 1.93634 92 119 186
-0.409376 -0.61643 2.4974 75 122 100
-1.01928 -0.708001 2.88519 65 129 107
-0.906198 -0.690082 2.80755 131 176 157
-0.387895 -0.605149 2.47834 188 239 212
-1.28764 -0.732693 3.04093 136 205 178
-1.27669 -0.729549 3.03649 110 186 155
-0.953566 -0.680691 2.84196 110 147 137
-0.401299 -0.590759 2.48041 132 191 163
-0.443399 -0.588458 2.50581 134 178 165
-1.44861 -0.73274 3.13905 94 134 106
0.531061 -0.441432 1.87427 107 115 168
0.537469 -0.436807 1.86619 166 200 254
-1.42239 -0.718704 3.11838 66 118 95
-0.459534 -0.580074 2.51631 146 206 195
-0.415342 -0.565451 2.47846 121 190 147
-0.60047 -0.589159 2.60551 85 137 119
-0.550611 -0.573396 2.56842 159 225 206
-0.492385 -0.564191 2.53362 137 198 178
0.0580516 -0.491367 2.20847 170 180 198
-1.56177 -0.69226 3.18599 254 254 254
-0.542803 -0.558121 2.56098 78 104 81
0.0575268 -0.480303 2.20651 142 137 158
-0.52328 -0.548373 2.54372 144 206 188
-0.615301 -0.551733 2.60285 77 96 75
-0.361542 -0.508618 2.40662 142 169 136
-0.612394 -0.538073 2.59247 115 158 137
-1.5073 -0.647181 3.14635 93 154 120
-0.641985 -0.534773 2.60712 72 131 110
-0.564016 -0.519642 2.55707 116 142 128
-0.626225 -0.524012 2.59431 92 119 99
-0.509604 -0.510541 2.52412 114 153 132
-1.4621 -0.623892 3.10947 103 148 131
-1.502 -0.622238 3.14148 78 141 102
-0.947027 -0.535244 2.7843 96 141 124
-0.236537 -0.449879 2.37128 143 159 202
-0.596417 -0.483443 2.5644 101 149 125
0.0717261 -0.414281 2.17454 170 205 238
-0.737803 -0.49615 2.64926 83 119 102
-0.678082 -0.488506 2.60602 80 113 92
-0.495414 -0.469062 2.50436 84 106 88
-0.569931 -0.471769 2.54544 75 114 92
-1.00756 -0.51915 2.81834 121 182 162
-0.605457 -0.468336 2.55984 122 192 161
-0.960731 -0.488162 2.77515 77 119 101
0.160946 -0.342257 1.98471 129 171 146
-0.772597 -0.434991 2.64414 87 141 112
-0.970231 -0.438313 2.75851 67 102 76
0.0196454 -0.348728 2.18893 146 143 145
0.0506977 -0.343841 2.15467 137 157 182
-0.7698 -0.407226 2.62959 132 191 176
-0.785354 -0.398452 2.64316 94 110 87
-0.986148 -0.405857 2.76683 253 255 255
-1.00341 -0.390953 2.77134 90 165 137
-0.638571 -0.359739 2.54397 125 150 140
-0.762449 -0.356935 2.61075 85 116 89
-0.675718 -0.333418 2.55008 118 177 157
-0.108881 -0.289665 2.24129 124 122 122
0.0520716 -0.281845 2.15904 113 117 142
-0.325832 -0.265632 2.19874 122 169 137
-0.987975 -0.315748 2.729 67 113 94
-0.331589 -0.252401 2.20454 60 71 51
-0.0845442 -0.249386 2.20278 206 218 220
-0.115766 -0.246415 2.22866 203 203 203
-0.75452 -0.284991 2.57716 85 129 98
-0.72464 -0.202767 2.52802 115 193 169
-0.713692 -0.183539 2.50844 109 188 155
-1.02552 -0.122315 2.67233 71 134 114
0.32031 -1.23811 2.0791 141 102 80
0.238244 -1.2694 2.14632 94 80 86
0.261949 -1.26238 2.12502 255 254 255
0.469766 -1.17389 1.98462 82 74 74
