ply
format ascii 1.0
element vertex 775
property float x
property float y
property float z
property uchar blue
property uchar green
property uchar red
end_header
-1.00494 -1.01427 2.1597 152 204 211
-0.133092 -0.886464 2.01175 149 229 206
0.579337 -0.802647 1.89832 68 119 99
0.327144 -0.805006 1.94604 92 150 121
0.738054 -0.699569 1.88138 85 141 136
-0.326929 -0.717222 2.0254 158 228 175
0.219534 -0.603608 1.97141 81 130 108
-0.230538 -0.551948 2.02953 129 205 174
0.167232 -0.503371 1.97786 81 142 114
0.046396 -0.49348 1.99033 69 145 104
-0.203916 -0.497337 2.024 69 148 121
0.364458 -0.473027 1.94603 136 216 193
-0.301109 -0.493483 2.0387 150 213 204
0.228429 -0.46626 1.97288 56 125 92
0.190822 -0.347322 1.97726 65 142 98
0.357931 -0.174974 1.74601 57 101 72
0.272662 -0.190066 1.9696 122 183 155
0.257074 -0.150174 1.97517 131 189 160
0.314987 -0.906602 1.94403 84 151 136
0.520761 -0.87189 1.90196 113 200 162
0.607174 -0.854168 1.88396 151 214 174
-0.241948 -0.907412 2.03121 89 146 137
0.114267 -0.870083 1.97685 149 212 202
0.407904 -0.810726 1.92034 35 68 53
-0.615256 -0.878244 2.09437 69 127 109
0.504905 -0.794992 1.90477 145 241 217
0.370981 -0.67258 1.9445 71 148 121
0.592106 -0.64897 1.90849 61 140 127
0.118423 -0.672329 1.98189 73 134 108
0.693212 -0.632464 1.89313 50 121 95
0.465898 -0.637636 1.93009 123 198 160
0.0535154 -0.651458 1.98325 156 229 191
0.0508722 -0.643254 1.9887 152 226 208
-0.111095 -0.62243 1.99874 143 223 176
0.219775 -0.603593 1.97144 82 124 106
0.544712 -0.586306 1.9185 79 133 110
0.477169 -0.58365 1.92813 151 210 172
0.472972 -0.494318 1.93317 134 221 188
-0.111633 -0.500301 1.99145 153 244 195
0.577025 -0.478399 1.91274 97 155 120
-0.205525 -0.497438 2.02448 82 161 134
-0.194334 -0.490625 2.02248 70 147 120
-0.0610097 -0.468649 1.98204 45 107 59
0.228167 -0.466517 1.97195 58 122 86
0.871955 -0.437977 1.87853 110 184 156
-0.0846305 -0.386159 1.99998 9 89 46
0.333475 -0.281316 1.94988 147 212 173
0.329383 -0.276169 1.95291 53 105 82
-0.425168 -0.249965 2.05035 100 164 142
0.287941 -0.217734 1.96302 168 227 223
0.224461 -0.205119 1.97914 53 105 82
0.264992 -0.155641 1.97574 39 66 40
0.960866 -0.0816226 1.88876 84 125 118
0.226952 -0.0849911 1.97652 62 89 73
-1.00529 -1.01427 2.16123 170 227 228
-1.00606 -0.99731 2.16192 100 156 161
-0.444488 -0.948452 2.06235 106 147 119
0.422964 -0.88361 1.92258 74 123 115
0.654872 -0.861511 1.87982 86 138 115
0.586381 -0.864737 1.88659 158 240 205
-0.369542 -0.938763 2.05379 80 147 120
-0.204564 -0.922952 2.02271 78 143 128
0.442619 -0.869491 1.91849 155 223 192
0.607262 -0.854167 1.88392 151 214 174
-0.216317 -0.905584 2.02388 93 154 128
0.0549301 -0.88235 1.98188 176 241 220
0.662202 -0.838633 1.8802 74 122 96
-0.1417 -0.894434 2.00986 69 131 109
0.0513881 -0.881676 1.98086 81 138 123
0.152766 -0.873226 1.97211 73 153 124
0.712893 -0.830132 1.87331 95 156 136
0.588826 -0.837304 1.89108 42 125 93
0.556786 -0.839848 1.9006 84 147 121
0.63873 -0.829907 1.8824 76 140 121
-0.49109 -0.9091 2.0746 74 137 127
0.378602 -0.847533 1.93548 69 118 110
-0.537858 -0.907981 2.08137 104 154 136
1.07944 -0.793445 1.81911 61 126 110
0.577333 -0.823849 1.89244 33 103 80
0.193336 -0.85504 1.96775 92 158 147
0.610669 -0.818729 1.88295 72 140 109
-0.697457 -0.907074 2.107 94 156 144
-0.267028 -0.875869 2.03435 74 136 122
-0.366185 -0.876264 2.05188 73 144 117
0.495318 -0.812877 1.90629 164 233 183
-0.468536 -0.880577 2.07069 72 145 119
-0.310447 -0.866625 2.04143 60 134 108
0.666803 -0.797741 1.88346 56 128 105
0.683506 -0.786915 1.88129 67 131 109
0.280679 -0.813778 1.95552 73 131 113
-0.441846 -0.858219 2.06644 76 142 130
-0.299294 -0.841416 2.04244 87 152 136
-1.00492 -0.883994 2.15365 81 137 114
0.757698 -0.770134 1.87354 71 130 109
0.467484 -0.781608 1.91299 111 192 143
0.685397 -0.769468 1.88295 85 102 91
-0.424045 -0.839213 2.06315 91 153 135
-0.493443 -0.84112 2.07481 105 162 153
0.780653 -0.75661 1.87131 76 160 136
0.453956 -0.775253 1.92191 144 224 187
0.613228 -0.764086 1.89358 76 148 118
0.40557 -0.771373 1.92406 120 202 160
-0.0339671 -0.799494 2.00022 227 255 252
-0.550124 -0.83029 2.08478 90 139 125
0.293648 -0.779121 1.95658 70 130 119
0.399677 -0.764039 1.92393 148 219 179
0.494207 -0.751856 1.9118 156 231 185
-0.307583 -0.792005 2.04103 79 123 106
-0.298848 -0.789543 2.03837 70 132 108
-0.288558 -0.787971 2.0399 93 159 148
1.00333 -0.708721 1.83787 113 178 153
0.221426 -0.742022 1.96716 92 136 129
0.838017 -0.698462 1.87069 71 154 132
0.838176 -0.698775 1.86843 91 164 148
0.0164886 -0.741116 1.99107 161 239 215
0.187484 -0.732096 1.97362 96 153 144
0.882996 -0.693582 1.8654 61 123 109
0.0320556 -0.736853 1.99041 52 107 88
0.715311 -0.693652 1.88631 105 169 150
0.0337966 -0.715499 1.98941 69 145 127
-0.130963 -0.711853 1.99178 75 149 97
0.0966732 -0.708009 1.98397 59 138 117
0.807078 -0.667224 1.87584 82 118 112
-1.01318 -0.763079 2.15293 87 164 137
-0.317384 -0.714086 2.02344 152 194 141
0.576082 -0.667614 1.90938 84 149 134
0.060229 -0.680229 1.98724 92 161 140
-0.21418 -0.680636 1.99908 66 131 106
0.390432 -0.656005 1.93961 66 115 95
-0.299516 -0.674069 2.02034 137 214 153
0.236514 -0.655492 1.96916 54 111 86
-0.204427 -0.661841 2.00091 64 102 74
0.663113 -0.625704 1.89286 82 118 118
0.687863 -0.624994 1.89046 66 116 98
0.663211 -0.625396 1.89452 77 114 110
0.512628 -0.62886 1.9229 148 224 190
0.351343 -0.631801 1.94635 73 119 97
-0.14143 -0.642784 1.98997 38 74 38
0.0835181 -0.635148 1.98453 62 126 104
0.648633 -0.599372 1.89891 158 233 217
0.652594 -0.596721 1.89778 65 105 93
0.55513 -0.599066 1.9147 146 218 182
0.534574 -0.596511 1.9216 54 95 80
-0.287193 -0.62637 2.02577 109 182 144
0.298221 -0.604333 1.96032 80 139 119
0.544984 -0.586323 1.91836 86 135 113
0.44515 -0.585717 1.9361 145 200 175
0.0593427 -0.597208 1.98773 67 129 115
0.498263 -0.576476 1.92092 149 230 183
-0.240408 -0.600528 2.01445 65 128 88
-0.360852 -0.608132 2.05161 74 136 114
0.326359 -0.572254 1.95051 96 157 131
0.0516666 -0.582409 1.98678 166 233 212
0.327018 -0.572008 1.95155 82 148 123
0.558936 -0.559308 1.92025 74 136 112
0.551216 -0.558851 1.92094 61 106 87
-0.345347 -0.590241 2.04757 83 123 111
0.232553 -0.568206 1.96826 89 150 124
0.486552 -0.555168 1.93573 103 154 140
0.0671675 -0.56026 1.97515 70 156 116
-0.507252 -0.569719 2.07328 89 158 145
-1.19901 -0.587705 2.17419 197 253 242
0.498195 -0.518972 1.93102 56 133 96
0.490264 -0.517129 1.932 35 111 77
-0.040953 -0.527206 1.98876 125 194 144
-0.217958 -0.534642 2.02125 128 203 175
0.322043 -0.511691 1.95085 134 194 176
0.318282 -0.511087 1.95169 55 112 91
-0.274858 -0.53102 2.03136 143 198 173
0.273745 -0.512312 1.95943 180 254 218
-1.0227 -0.545232 2.14751 82 125 104
-0.111666 -0.500462 1.99082 157 246 196
-0.240936 -0.497278 2.0248 95 159 137
-1.24875 -0.528964 2.17107 42 86 63
-0.339611 -0.499739 2.04635 95 133 121
-0.194283 -0.490482 2.02304 67 143 119
-0.847334 -0.489124 2.10492 157 176 183
0.503062 -0.4461 1.92429 97 151 128
0.502079 -0.440639 1.9202 170 236 194
0.498464 -0.439819 1.92346 106 146 121
-0.25388 -0.453642 2.02801 65 120 101
0.971432 -0.396395 1.86353 66 112 120
0.413415 -0.409246 1.93568 84 146 122
0.422158 -0.406739 1.93247 176 242 191
0.102053 -0.407929 1.98533 60 117 78
0.241374 -0.403743 1.97007 64 123 85
-0.0164202 -0.402249 1.97971 50 94 63
0.0880042 -0.404045 1.98668 73 140 111
-0.173305 -0.40718 2.01798 81 122 107
-0.0885306 -0.383156 1.99621 65 135 98
0.124259 -0.371048 1.98159 41 99 70
0.377326 -0.358155 1.93304 73 146 120
0.396902 -0.349874 1.92912 27 57 38
0.319148 -0.339 1.95024 127 194 162
0.344609 -0.337612 1.9481 55 126 99
-0.582374 -0.349056 2.07928 113 187 169
0.329891 -0.301354 1.95709 68 127 112
-0.00631234 -0.299981 1.99687 60 109 77
0.258933 -0.294352 1.96933 73 136 104
-0.344028 -0.298676 2.04204 71 129 94
0.318831 -0.287098 1.95203 155 229 195
0.333502 -0.28146 1.94948 147 212 173
-0.358881 -0.273673 2.04291 94 155 129
0.332581 -0.261038 1.94821 107 170 114
0.436309 -0.219319 1.72621 144 211 180
0.22741 -0.246207 1.9734 62 117 92
0.326681 -0.231734 1.9466 132 173 145
0.238079 -0.228936 1.9707 155 221 179
0.291672 -0.209235 1.96235 49 75 69
0.292002 -0.20946 1.96175 54 74 69
-0.295224 -0.205051 2.03673 65 105 80
0.0665751 -0.200845 1.99371 82 137 122
-0.279867 -0.199644 2.03381 70 137 110
0.197832 -0.191822 1.97783 88 119 86
0.203713 -0.179174 1.97636 108 154 125
-0.357634 -0.174604 2.04156 238 253 255
-0.30796 -0.174983 2.03408 66 125 94
0.247499 -0.164352 1.97736 127 198 158
0.287078 -0.161194 1.97077 71 105 75
0.264779 -0.155161 1.97261 41 63 38
0.270718 -0.151752 1.97334 83 126 89
0.189129 -0.141771 1.98108 121 175 152
0.240916 -0.132349 1.97603 107 144 124
0.241146 -0.131386 1.97823 109 140 119
0.27901 -0.100672 1.97214 96 126 107
-0.284369 -0.0794308 2.03352 82 154 134
0.242906 -0.0755904 1.97505 126 177 163
0.258271 -0.0627329 1.97461 119 149 130
0.186889 -0.0527888 1.98422 129 155 137
0.647194 -0.495987 -2.49816 105 160 133
-0.341691 -0.948758 2.04981 88 154 135
-0.444795 -0.948452 2.06265 97 141 112
0.467188 -0.879562 1.91266 91 150 130
0.509605 -0.874314 1.90495 78 133 114
-0.574747 -0.956837 2.09127 101 161 155
0.396756 -0.88015 1.92765 100 156 137
0.234872 -0.886535 1.95806 106 172 147
0.597147 -0.85513 1.88637 135 205 158
0.576281 -0.857825 1.89402 81 133 109
-0.126425 -0.90736 2.00824 80 143 127
0.584495 -0.852928 1.89083 147 230 192
0.405959 -0.866155 1.92717 70 114 97
-0.298022 -0.910167 2.03905 93 153 142
1.07073 -0.814031 1.81799 43 108 87
-0.311833 -0.907615 2.04164 88 149 139
-0.141622 -0.894426 2.00996 69 131 109
-0.109473 -0.887612 2.00872 79 142 122
0.116066 -0.870799 1.97362 117 186 175
0.556596 -0.839895 1.90005 92 153 125
0.11611 -0.870605 1.97667 118 184 172
0.662821 -0.826885 1.8816 80 133 119
-0.538343 -0.907915 2.08293 90 140 122
0.192798 -0.855371 1.96329 90 152 140
-0.372723 -0.89122 2.0523 141 237 197
0.550564 -0.81634 1.89665 76 118 101
-1.14693 -0.934329 2.17929 185 229 236
-0.595266 -0.896992 2.09212 68 117 101
-0.301699 -0.866785 2.04055 86 160 126
-0.328452 -0.864716 2.04557 100 167 138
-0.661131 -0.886651 2.10378 105 148 127
0.363263 -0.804698 1.9396 166 228 198
0.661095 -0.778274 1.88443 86 157 124
-0.298943 -0.841542 2.04078 83 145 127
0.243401 -0.805319 1.96251 86 153 132
0.30058 -0.802997 1.95269 59 127 104
0.758167 -0.770047 1.87418 74 133 112
-0.423989 -0.839199 2.0633 86 146 128
-0.251313 -0.826943 2.03212 163 223 215
-0.493834 -0.841051 2.07577 112 168 157
0.698801 -0.762221 1.88069 140 233 188
0.706389 -0.759345 1.88048 56 108 91
-0.0278693 -0.802761 1.99602 114 169 154
0.413282 -0.77236 1.91695 162 237 193
-0.437758 -0.8259 2.06415 84 131 122
0.450242 -0.765275 1.92099 157 218 184
0.38784 -0.765903 1.92711 123 195 153
-0.0944919 -0.792389 2.00645 75 156 131
-1.01078 -0.846174 2.15654 83 149 120
0.355743 -0.752387 1.9432 62 107 90
0.387723 -0.743755 1.93834 61 74 60
0.892107 -0.710086 1.85867 87 142 127
0.797546 -0.7152 1.87689 90 157 142
0.806161 -0.711929 1.87419 113 175 159
-0.138394 -0.753917 2.0126 97 164 133
0.772192 -0.70587 1.87927 88 144 139
-0.335581 -0.761093 2.04272 70 157 121
0.882597 -0.693673 1.86489 66 128 114
0.436641 -0.713436 1.93558 148 220 200
0.715506 -0.693547 1.88697 93 159 140
-1.23838 -0.794578 2.17856 61 97 85
0.636966 -0.692315 1.89541 112 167 158
0.720773 -0.682648 1.88562 91 138 129
-0.327071 -0.723661 2.02731 24 80 45
0.591982 -0.666153 1.90654 75 131 110
-0.166328 -0.689887 1.99496 139 229 183
0.00922785 -0.684883 1.99205 66 122 101
0.423897 -0.664784 1.93847 59 101 78
0.432487 -0.664861 1.93385 117 183 142
0.422476 -0.661688 1.93617 35 84 62
-0.0127476 -0.677634 1.99416 65 129 93
0.0119038 -0.676498 1.99262 79 150 124
0.311862 -0.656927 1.95612 72 133 105
0.470213 -0.646576 1.92586 154 219 174
0.535906 -0.643375 1.91555 152 233 194
-0.299055 -0.67418 2.01958 135 218 156
0.691888 -0.630686 1.88865 50 121 95
-1.22095 -0.724523 2.17825 105 133 114
0.236537 -0.649906 1.97003 71 127 106
0.510267 -0.633717 1.9255 79 145 120
0.697958 -0.618297 1.88879 82 108 138
0.351526 -0.631664 1.94706 73 119 97
0.416884 -0.626688 1.94076 161 223 207
-0.407787 -0.659274 2.05959 81 140 119
0.507411 -0.612152 1.92136 73 121 103
-0.386694 -0.650488 2.05374 90 145 120
0.600839 -0.605152 1.90646 76 118 107
-1.26242 -0.685683 2.1794 55 91 75
0.504008 -0.605727 1.92049 148 226 195
0.662759 -0.587621 1.89609 92 144 126
0.508563 -0.577855 1.92412 162 231 188
-0.127498 -0.59657 1.98946 146 235 179
-0.0602448 -0.600445 1.99898 53 137 95
-0.0220421 -0.597706 1.99682 74 130 107
0.213229 -0.588875 1.96887 109 163 146
0.446473 -0.577371 1.93167 70 112 95
0.18546 -0.58927 1.97554 57 128 102
-0.320811 -0.595801 2.03753 62 106 75
0.551007 -0.558684 1.92175 57 109 91
0.892567 -0.542883 1.87371 66 127 117
-0.369665 -0.590843 2.05052 81 132 112
0.541436 -0.553116 1.92504 69 127 103
0.756679 -0.529698 1.88959 66 114 102
-0.313751 -0.564 2.04022 103 167 145
-0.23754 -0.553288 2.03137 74 138 108
0.224929 -0.532519 1.96963 78 136 118
-0.22541 -0.537905 2.02821 69 128 97
-1.0168 -0.561943 2.13063 94 150 129
0.286752 -0.516128 1.9599 78 145 118
0.318212 -0.511154 1.95143 50 101 81
0.469786 -0.506868 1.93125 69 139 122
1.03411 -0.469837 1.8564 68 142 124
0.247351 -0.495343 1.96831 92 154 140
0.458805 -0.48592 1.93232 79 144 122
0.39061 -0.486401 1.94313 84 127 116
0.490803 -0.476359 1.9292 82 140 111
-0.304798 -0.496275 2.03959 80 135 120
-0.33625 -0.495639 2.04533 86 135 119
-0.182362 -0.490882 2.01856 79 140 112
0.205293 -0.476489 1.97286 87 156 119
-0.0150454 -0.473165 1.97503 84 162 115
0.216618 -0.469785 1.97238 79 133 103
0.504117 -0.459522 1.93035 56 107 87
-0.116602 -0.467027 1.99376 35 86 49
0.321537 -0.456206 1.95269 82 140 111
0.870448 -0.420609 1.87905 65 129 117
-0.255256 -0.452781 2.03134 84 141 120
-0.25 -0.448226 2.03035 120 198 175
-0.92368 -0.457764 2.12308 120 185 159
-0.0243883 -0.426794 1.96985 63 110 94
1.0218 -0.401965 1.86104 83 127 120
-0.351474 -0.439561 2.04432 97 159 143
-0.231109 -0.432824 2.02441 70 98 79
-0.225264 -0.426776 2.02629 86 145 125
-1.02546 -0.440666 2.13829 65 100 86
-0.971538 -0.436695 2.13357 99 138 113
0.359947 -0.394596 1.93894 161 235 207
-0.173859 -0.407166 2.0181 73 116 101
-1.02636 -0.42318 2.13853 94 139 122
-1.0249 -0.423478 2.13731 94 136 119
-0.00144392 -0.389315 1.97769 48 88 60
0.311473 -0.384278 1.95004 51 113 91
-0.178707 -0.386675 2.01668 71 135 105
0.408619 -0.32946 1.75266 180 237 212
-1.02276 -0.400554 2.14172 106 166 148
-0.192489 -0.373942 2.02165 71 139 116
0.194372 -0.349497 1.97353 162 244 202
-0.0583697 -0.351257 1.9953 42 81 55
-0.0994515 -0.348697 2.00526 66 133 104
0.343554 -0.33704 1.94637 54 119 97
0.335501 -0.331842 1.94556 92 179 145
0.426504 -0.294032 1.73835 43 93 63
0.30747 -0.321151 1.95614 31 77 54
-0.114722 -0.320537 2.00715 90 154 135
0.0485199 -0.318583 1.98855 39 128 102
-0.014377 -0.318696 1.98999 41 80 54
0.0405583 -0.309672 1.98533 45 117 87
-0.0854571 -0.296209 2.00755 78 144 119
-0.649901 -0.304491 2.08477 79 116 106
-0.358879 -0.273673 2.04291 94 155 129
0.391678 -0.2215 1.73375 114 211 167
0.231836 -0.248446 1.97194 153 220 183
0.227629 -0.245857 1.97431 60 109 87
0.219451 -0.237613 1.97745 36 109 83
0.166363 -0.238015 1.98085 103 160 135
0.280713 -0.219363 1.96116 43 93 81
0.173185 -0.212872 1.97892 86 146 116
0.291638 -0.209751 1.96105 43 62 59
0.259432 -0.198621 1.97253 45 75 56
0.218149 -0.19837 1.97554 53 75 51
-0.0198409 -0.197029 2.00163 89 147 129
0.378615 -0.16241 1.73242 127 192 136
0.267143 -0.183344 1.97108 142 216 188
0.364566 -0.155828 1.7316 173 252 209
0.247161 -0.164513 1.97701 104 174 134
0.340409 -0.144413 1.73539 115 213 167
0.275928 -0.160174 1.97014 90 139 107
-0.917509 -0.168923 2.11215 126 186 152
0.264734 -0.153438 1.97279 43 70 44
0.223003 -0.147687 1.97767 152 196 179
-0.263258 -0.129157 2.03724 88 159 142
0.196641 -0.120792 1.97997 65 84 63
-0.889284 -0.122891 2.10354 58 100 75
-0.100061 -0.115811 2.01292 80 137 99
0.197294 -0.115023 1.97921 108 174 155
-0.086967 -0.108699 2.01468 96 157 129
0.280026 -0.100216 1.97235 112 145 130
0.233269 -0.0835622 1.97715 115 175 165
-0.0910879 -0.0812156 2.01533 73 134 108
-0.284247 -0.0792414 2.03392 62 137 116
0.235451 -0.0724561 1.97161 77 77 71
-0.350507 -0.0654515 2.04068 60 135 97
0.186889 -0.0527889 1.98422 129 155 137
0.416521 -0.87368 1.92325 104 153 145
0.467543 -0.8669 1.91007 60 107 85
0.235175 -0.88654 1.95778 118 184 159
0.5937 -0.851232 1.89034 82 118 96
-0.23601 -0.913947 2.02966 89 146 125
-0.299046 -0.911635 2.0328 129 182 172
0.507225 -0.856259 1.90588 83 122 96
0.601615 -0.848535 1.88794 55 99 68
-0.297931 -0.910113 2.0401 100 161 151
-0.153851 -0.889926 2.01352 86 170 142
0.109587 -0.873065 1.98278 74 118 105
0.63931 -0.828765 1.8811 96 161 145
-0.373149 -0.898853 2.04819 81 137 108
-0.421777 -0.898291 2.065 124 189 168
-0.271567 -0.883707 2.03162 96 142 130
1.08086 -0.79319 1.82158 67 133 114
-0.326101 -0.883803 2.04428 96 148 124
-0.195241 -0.876152 2.02504 72 159 121
0.416083 -0.833166 1.92455 71 132 112
-0.312489 -0.87142 2.04261 121 169 140
0.383598 -0.820342 1.93188 147 224 197
0.666382 -0.798916 1.88049 87 154 123
-0.33561 -0.859829 2.04586 92 154 132
0.231095 -0.819849 1.95961 76 128 111
0.782542 -0.785102 1.87361 83 156 130
-0.466674 -0.864783 2.06899 75 112 92
0.366374 -0.810343 1.93964 56 112 93
0.606993 -0.788457 1.89145 64 115 88
-0.299151 -0.841303 2.04376 95 166 146
-0.15504 -0.830158 2.01505 50 92 67
0.369795 -0.800364 1.93821 47 83 66
0.634032 -0.776273 1.88642 105 166 140
0.509202 -0.778881 1.90973 89 128 103
0.685042 -0.769281 1.88556 63 102 87
0.743058 -0.767476 1.87791 75 128 119
-1.17483 -0.886834 2.18284 211 241 242
-0.412919 -0.832517 2.06208 106 171 156
0.461562 -0.775335 1.9176 74 108 78
0.928331 -0.74241 1.85416 80 162 143
-0.200421 -0.800516 2.01505 89 141 117
0.474167 -0.761924 1.92285 61 112 84
0.474115 -0.761987 1.92231 53 104 76
-0.272041 -0.805424 2.03636 87 149 131
-0.201076 -0.80036 2.0168 87 135 109
0.685628 -0.74831 1.88453 60 111 84
0.318605 -0.766774 1.95503 74 115 107
1.01558 -0.718356 1.83625 144 203 182
0.333914 -0.758448 1.95009 67 100 96
0.345097 -0.756553 1.9464 124 186 172
1.00212 -0.710546 1.83731 118 179 159
-1.02127 -0.826362 2.15827 97 142 126
0.477452 -0.73485 1.92121 77 115 97
0.759373 -0.714693 1.88094 82 127 118
0.632528 -0.715486 1.89267 89 153 141
1.0042 -0.686133 1.84644 76 141 115
-1.18168 -0.797145 2.18319 162 189 193
0.832104 -0.669902 1.87212 68 102 91
-1.01303 -0.76333 2.15046 97 161 139
-0.0126439 -0.706112 1.9929 82 152 122
0.805399 -0.666317 1.87327 74 109 99
0.219949 -0.696512 1.97003 79 121 96
0.592248 -0.666187 1.90626 82 138 117
0.468643 -0.666245 1.92852 155 231 189
0.263851 -0.677202 1.95999 88 155 124
-0.214617 -0.683765 1.9981 69 136 107
0.257901 -0.666774 1.96164 77 141 119
0.246578 -0.658934 1.96249 82 156 132
-0.418069 -0.68471 2.05634 76 126 102
-0.0227026 -0.665655 1.99671 134 218 190
-0.437873 -0.687668 2.06273 111 168 153
0.054015 -0.656518 1.98536 83 129 110
0.663082 -0.626031 1.89526 93 131 125
0.0549826 -0.655351 1.99195 89 152 113
0.544412 -0.628834 1.91531 77 116 94
0.69836 -0.618435 1.8902 70 110 122
-0.514233 -0.67508 2.0748 120 170 160
-0.122348 -0.646699 1.98738 153 228 177
-0.411518 -0.666604 2.05785 82 130 104
-0.314581 -0.659988 2.03162 31 56 28
-0.360398 -0.66106 2.04541 34 96 66
0.605665 -0.616165 1.90477 43 132 112
-0.411895 -0.665876 2.06224 99 162 136
0.528263 -0.614327 1.91614 135 205 165
0.555496 -0.615535 1.91493 58 89 80
1.03729 -0.595645 1.84651 89 141 131
0.594266 -0.612259 1.90933 63 107 94
-1.24236 -0.691222 2.17463 95 137 112
0.601816 -0.604666 1.90875 89 132 121
-0.383604 -0.649459 2.04774 79 133 110
-1.26047 -0.686823 2.17367 116 178 138
-0.129995 -0.626788 1.99181 151 222 182
0.565553 -0.60177 1.91673 163 232 212
0.574379 -0.598627 1.91221 53 103 85
0.648603 -0.594127 1.90155 75 106 91
0.319211 -0.605992 1.95378 89 132 121
0.662368 -0.587898 1.89687 92 144 126
0.269619 -0.604891 1.96129 149 234 196
0.299653 -0.604137 1.95968 87 142 123
-0.37769 -0.62742 2.0533 76 129 102
0.219588 -0.59838 1.96853 75 102 82
-0.0600564 -0.599868 2.00182 62 154 119
0.509438 -0.577403 1.92611 165 236 193
-0.360631 -0.607056 2.04938 74 136 114
0.503289 -0.569549 1.9221 78 134 99
-0.346284 -0.603687 2.04508 84 156 133
0.493206 -0.567145 1.92856 69 117 89
-0.322218 -0.596875 2.03813 54 92 64
0.524132 -0.564898 1.92481 66 94 75
-0.306544 -0.590112 2.03586 67 109 92
0.498587 -0.556069 1.92577 60 97 87
0.232504 -0.568482 1.96755 86 144 119
0.486689 -0.555742 1.93343 90 141 127
0.541919 -0.553323 1.92332 74 123 103
0.0116822 -0.552617 1.97808 61 123 83
0.756955 -0.529589 1.89003 66 114 102
-0.0774843 -0.546697 1.98769 87 138 104
0.703734 -0.5187 1.89827 97 172 151
-0.284422 -0.551958 2.03548 86 134 108
0.489476 -0.516671 1.93073 52 132 95
-0.226228 -0.537612 2.0296 68 135 103
0.0811394 -0.528717 1.98132 60 134 100
-0.906629 -0.555862 2.12058 87 106 109
0.157331 -0.523958 1.9784 63 102 76
-1.28142 -0.563336 2.17848 116 167 133
-0.325783 -0.527841 2.04222 92 124 113
0.368625 -0.496303 1.94523 72 104 85
0.471735 -0.490542 1.93024 71 110 94
-0.192244 -0.503206 2.01408 110 189 156
-1.00025 -0.519743 2.13773 83 125 90
-0.21608 -0.487203 2.0265 85 159 131
-0.137439 -0.47468 2.00167 138 210 158
0.216826 -0.469377 1.97389 52 106 76
0.329479 -0.462082 1.94908 65 148 116
-0.659532 -0.490414 2.09245 88 124 110
-0.10508 -0.458105 1.9912 133 217 163
-0.178201 -0.449858 2.01556 82 126 103
-0.0135976 -0.437649 1.9724 61 109 91
-0.0242721 -0.426713 1.9701 65 117 100
-0.203772 -0.436934 2.01921 97 153 124
-1.03367 -0.454699 2.14273 88 137 123
-0.97455 -0.450351 2.1346 87 100 84
-0.122777 -0.421044 2.00795 70 102 78
-1.24412 -0.455439 2.1728 67 113 84
-0.218319 -0.414616 2.02192 81 122 101
0.239274 -0.403839 1.96999 77 128 94
0.966516 -0.374498 1.86286 111 180 167
0.149211 -0.394453 1.97873 71 130 99
0.970696 -0.372884 1.86743 84 137 127
-0.0790246 -0.389053 1.99709 122 203 164
-0.100143 -0.385541 2.00084 38 88 58
0.10324 -0.37637 1.9789 63 115 91
1.00451 -0.354549 1.86322 52 107 92
0.14734 -0.370841 1.97483 131 200 155
-0.121372 -0.368106 2.01044 66 119 99
-0.0877313 -0.36551 2.00148 142 221 180
-0.15508 -0.36082 2.01424 69 115 79
-0.0580221 -0.350891 1.99638 33 78 51
-0.187962 -0.354182 2.02535 93 145 127
-0.0683727 -0.33571 1.99756 32 78 55
0.319881 -0.328748 1.95296 139 223 194
-0.0945592 -0.324872 2.00818 85 155 132
-0.052029 -0.323004 1.99593 147 233 193
-0.080329 -0.313788 2.00633 73 123 99
0.0163712 -0.312785 1.98389 113 192 149
-0.101458 -0.307915 2.00938 60 104 81
0.295573 -0.28551 1.95522 142 207 192
0.326705 -0.284217 1.95166 52 107 82
0.0770258 -0.276632 1.98587 54 114 84
-0.347322 -0.282815 2.04509 89 152 132
0.0974756 -0.266941 1.98329 63 93 74
0.39393 -0.218491 1.7357 129 219 166
0.114795 -0.248015 1.98449 104 165 139
-0.0345571 -0.248512 2.0071 80 119 104
0.388378 -0.21384 1.73528 53 93 58
0.167628 -0.240139 1.98036 73 140 113
0.293358 -0.233192 1.95753 161 237 196
0.306098 -0.219299 1.96532 107 188 163
0.465021 -0.187045 1.68026 30 92 62
0.00624761 -0.221145 2.00211 112 169 148
0.0891732 -0.217869 1.98946 53 106 67
0.284307 -0.215501 1.9575 160 234 216
0.291907 -0.208711 1.96365 56 82 76
0.227416 -0.210903 1.97603 38 63 37
-0.138563 -0.208458 2.01667 88 165 138
0.0650372 -0.203527 1.98947 117 172 153
0.0661777 -0.203091 1.99045 106 161 144
0.240194 -0.19883 1.97135 48 98 64
0.385852 -0.172538 1.7305 111 206 162
0.209942 -0.193842 1.97613 117 196 152
0.228216 -0.195298 1.98005 139 219 182
0.197967 -0.191249 1.97717 75 101 71
0.206459 -0.193285 1.98002 130 213 188
0.291009 -0.185956 1.96724 41 57 39
0.177154 -0.176224 1.97994 95 122 102
0.182112 -0.162064 1.98215 176 247 204
-0.91821 -0.168461 2.11335 112 172 138
0.242972 -0.15653 1.97347 57 69 49
0.264666 -0.153544 1.97255 43 70 44
0.255262 -0.153741 1.97501 116 197 164
0.17161 -0.149517 1.98942 80 132 115
0.141451 -0.137656 1.9861 59 112 92
0.188223 -0.139885 1.97948 118 173 156
0.239844 -0.135494 1.97341 124 166 148
0.1948 -0.12915 1.97774 109 147 129
-0.19521 -0.127182 2.02006 102 174 152
0.18288 -0.123799 1.98148 77 115 97
-0.889986 -0.121296 2.10728 67 117 93
0.283197 -0.11558 1.97317 112 146 129
0.263292 -0.110485 1.97366 96 118 106
0.194158 -0.0945369 1.97982 78 110 86
0.268024 -0.0894873 1.97309 127 163 151
0.182625 -0.0814762 1.98226 58 92 68
-0.445135 -0.0777226 2.04806 87 150 124
0.171685 -0.0717109 1.9817 77 108 87
0.236174 -0.0713662 1.97389 74 81 68
-0.990363 -0.06997 2.12004 87 134 112
0.177327 -0.0655203 1.97836 119 159 117
0.168199 -0.0626829 1.98534 158 222 193
0.259617 -0.0617695 1.97589 96 128 109
0.279705 -0.0440138 1.97295 96 124 111
-0.27978 -0.0220742 2.03433 92 149 124
0.797125 -0.825756 1.87061 53 130 92
-0.330218 -0.885011 2.04602 80 137 112
0.44209 -0.830311 1.91478 112 166 136
0.564494 -0.819723 1.89739 132 191 160
-0.393886 -0.880611 2.05432 87 132 113
-0.560741 -0.890197 2.08524 143 215 203
-0.541872 -0.871829 2.07962 60 101 86
-0.429563 -0.861667 2.06002 66 126 95
-0.267107 -0.845099 2.03328 79 135 112
0.672832 -0.774316 1.88303 84 157 131
0.671872 -0.763406 1.88487 141 215 185
-0.234884 -0.816609 2.02808 144 222 198
0.483629 -0.772557 1.91716 56 87 58
0.64382 -0.756027 1.88657 117 178 144
-0.265879 -0.804011 2.03737 103 163 145
0.317191 -0.769479 1.94905 67 118 104
0.360594 -0.758485 1.94638 54 79 59
0.355701 -0.751682 1.94432 58 101 86
0.616285 -0.735406 1.89367 115 157 140
0.426483 -0.740808 1.92905 48 75 55
0.778964 -0.726181 1.87818 77 135 107
-1.02134 -0.826381 2.15809 97 142 126
1.00867 -0.695252 1.84057 56 79 64
0.886952 -0.695109 1.8625 60 122 106
-1.17437 -0.809466 2.18377 126 129 127
-1.15097 -0.796285 2.17428 195 202 217
-1.18142 -0.785629 2.17685 103 116 108
-0.412627 -0.735845 2.0651 115 177 153
-1.00372 -0.750325 2.11935 136 217 184
0.402643 -0.683487 1.93298 87 135 111
0.652628 -0.668017 1.89346 96 162 151
-0.0139687 -0.70009 1.99301 84 149 123
-0.0570687 -0.689711 1.99494 61 117 94
-1.22111 -0.746753 2.18257 109 155 126
-0.441318 -0.707407 2.06481 75 113 83
0.425504 -0.663532 1.93963 92 131 109
-1.25776 -0.730366 2.17518 58 85 51
0.235803 -0.65275 1.96789 80 133 113
0.461488 -0.641352 1.9323 66 120 91
0.687846 -0.626064 1.88998 76 113 97
0.779924 -0.625278 1.88416 108 157 149
0.66165 -0.626132 1.89426 90 133 124
-1.25823 -0.713204 2.17696 74 105 72
0.573814 -0.625557 1.91229 74 124 106
-0.103901 -0.63355 1.98972 46 90 59
-0.398801 -0.644701 2.05477 84 139 120
0.647429 -0.594247 1.90119 102 141 125
-1.22949 -0.678544 2.1773 102 151 129
0.655494 -0.584376 1.89888 82 125 110
0.260406 -0.600375 1.96244 67 121 98
-0.150831 -0.605986 1.99619 147 223 182
0.217456 -0.596756 1.97083 91 120 97
0.524474 -0.577418 1.91647 153 219 194
-0.27725 -0.603293 2.02838 135 214 171
0.521687 -0.566363 1.92297 46 82 58
0.889698 -0.543692 1.87316 101 155 142
0.0979997 -0.566562 1.97737 98 157 129
-0.328939 -0.580284 2.04537 96 157 137
-0.269105 -0.568606 2.03119 168 242 206
-0.313116 -0.565427 2.039 87 144 123
-0.0142898 -0.535557 1.97885 139 217 170
0.155075 -0.524054 1.9819 59 116 91
-1.0196 -0.560767 2.14028 93 132 110
-0.272929 -0.531048 2.03386 78 126 100
0.22181 -0.505638 1.97264 85 129 112
0.367013 -0.496668 1.94453 82 126 103
-0.0246277 -0.505461 1.98937 55 102 64
-0.206272 -0.507199 2.02439 69 97 68
-0.336705 -0.499828 2.04112 101 141 123
-0.321946 -0.488889 2.03938 94 148 131
-0.278625 -0.477509 2.0305 68 94 71
-0.623166 -0.489809 2.08532 92 133 118
0.866557 -0.441035 1.87864 41 99 75
-0.848828 -0.4841 2.10381 179 241 255
-0.253656 -0.46134 2.02268 60 93 72
0.0929385 -0.449561 1.98337 85 151 126
-0.17613 -0.443904 2.01657 81 121 96
1.09436 -0.411706 1.84874 135 226 200
-0.177315 -0.443172 2.01936 98 140 123
0.240247 -0.415889 1.9679 98 161 129
-0.122508 -0.409125 2.00319 140 212 169
0.327623 -0.400658 1.94257 154 237 205
0.209919 -0.393962 1.96891 176 239 219
-0.17077 -0.401185 2.01607 73 123 99
-0.156745 -0.39924 2.0153 140 215 194
-0.115842 -0.397368 2.00382 50 89 74
-0.0666279 -0.381508 1.98711 26 75 47
0.198344 -0.382477 1.97688 55 96 65
0.317615 -0.359648 1.94897 106 190 165
0.293514 -0.363016 1.95756 82 105 83
0.338009 -0.357706 1.95019 92 133 112
0.299806 -0.347731 1.9643 45 89 60
-0.0945524 -0.350213 2.003 52 103 75
0.306817 -0.338695 1.95528 120 223 178
-0.0846373 -0.339962 2.0048 160 230 200
0.34127 -0.325972 1.94754 43 79 63
1.00451 -0.309307 1.86805 72 122 112
-0.0167942 -0.319267 1.98722 91 139 110
0.306194 -0.311146 1.95624 255 255 255
0.150365 -0.303474 1.96861 140 224 190
-0.00595977 -0.295379 1.99277 63 118 93
-0.646889 -0.305161 2.07905 81 125 112
-0.0042863 -0.287315 1.99911 88 146 122
0.24223 -0.269703 1.96963 52 82 69
0.267543 -0.267464 1.95882 55 102 86
0.0956232 -0.265872 1.98554 78 111 90
0.382927 -0.20935 1.73904 64 97 70
0.02202 -0.221498 1.99534 96 146 122
0.2705 -0.216825 1.95938 143 227 185
-0.165693 -0.220228 2.02074 110 175 153
0.0878944 -0.220384 1.98472 68 133 112
0.17401 -0.211604 1.98 84 148 119
0.248023 -0.212784 1.96121 172 249 211
-0.0258542 -0.210841 2.00466 79 126 110
0.284271 -0.20797 1.97394 152 213 203
0.175437 -0.207136 1.99119 105 176 150
-0.294306 -0.2066 2.03625 70 109 83
0.13379 -0.20338 1.9863 85 137 120
0.240818 -0.191638 1.9735 44 69 41
0.194307 -0.188799 1.97958 79 115 79
0.1783 -0.174928 1.97603 79 109 90
0.178541 -0.16189 1.9704 176 243 216
0.178527 -0.159545 1.97597 172 230 201
0.253106 -0.156186 1.97294 108 191 152
0.171257 -0.143658 1.97593 124 181 172
-1.01421 -0.153017 2.12974 86 139 119
0.135945 -0.121908 1.98743 113 178 157
0.194125 -0.109155 1.9785 133 210 189
-0.0839522 -0.105813 2.01739 72 124 94
-0.229878 -0.0857328 2.0223 72 101 76
0.188263 -0.0865204 1.98099 134 201 180
-0.187146 -0.0527294 2.01818 84 145 117
