ply
format ascii 1.0
element vertex 1255
property float x
property float y
property float z
property uchar blue
property uchar green
property uchar red
end_header
1.41722 -0.694333 3.09198 69 131 113
1.51037 -0.693004 3.08428 65 141 123
0.311715 -0.713896 3.18827 165 231 219
0.960049 -0.703636 3.14093 139 215 184
1.62605 -0.687551 3.07072 187 244 229
-0.332255 -0.726798 3.24768 136 194 169
-0.14685 -0.721266 3.23073 61 138 104
0.855855 -0.701748 3.14859 95 154 133
-0.0747709 -0.719284 3.22741 144 223 202
0.255197 -0.710803 3.19314 162 235 219
0.735419 -0.702148 3.15956 87 140 120
-0.635938 -0.731778 3.28805 82 148 129
-0.189395 -0.719136 3.23786 104 168 146
-1.4145 -0.751384 3.38437 88 152 133
0.247046 -0.70623 3.19185 77 152 136
-0.616823 -0.727416 3.29015 76 160 132
-0.222075 -0.716258 3.2425 83 152 125
-0.38071 -0.719426 3.25902 81 154 122
-0.0184592 -0.710986 3.22335 99 166 137
-0.439964 -0.718511 3.26407 84 156 120
-0.215024 -0.713094 3.2423 166 238 216
0.94909 -0.691189 3.14423 145 210 185
-0.469409 -0.716096 3.26277 73 137 95
0.411277 -0.694209 3.17793 146 225 198
1.60924 -0.671655 3.07455 163 229 210
-1.57362 -0.74361 3.39363 81 141 107
-0.525854 -0.716006 3.27757 236 253 249
-0.154706 -0.706073 3.23482 95 166 140
1.047 -0.682852 3.13402 84 155 139
-0.376837 -0.710385 3.25805 82 155 117
0.286652 -0.695649 3.19192 101 170 159
-1.45041 -0.738726 3.38848 64 157 112
0.408138 -0.690912 3.17983 69 141 118
0.751454 -0.685832 3.15667 89 155 136
0.864121 -0.683877 3.14679 100 156 137
1.42078 -0.673121 3.09441 89 154 145
-0.430191 -0.709352 3.26574 65 129 107
0.878318 -0.684367 3.14909 71 135 106
0.894204 -0.682819 3.14664 154 214 184
1.56917 -0.668176 3.08122 68 132 120
0.814976 -0.683785 3.15196 83 144 130
0.950538 -0.680575 3.14241 49 100 73
1.18037 -0.675966 3.1221 73 132 124
-0.495358 -0.708278 3.27205 129 197 162
-0.410485 -0.704936 3.25946 115 192 155
-0.141341 -0.699773 3.23429 68 123 108
-0.105593 -0.699381 3.23205 94 149 124
0.247935 -0.690905 3.19387 90 162 149
-0.366569 -0.703951 3.2575 66 143 109
-0.358843 -0.703147 3.25448 146 219 187
0.518715 -0.684846 3.17392 76 151 135
1.25759 -0.670543 3.10997 142 192 174
0.461105 -0.685895 3.18204 66 150 132
0.878554 -0.677589 3.15008 148 205 180
-0.933017 -0.71561 3.32554 131 215 190
-0.405861 -0.701865 3.26401 148 220 190
0.271126 -0.686 3.19147 97 168 158
-0.432173 -0.701122 3.26859 84 134 104
1.19281 -0.667232 3.11854 100 157 148
-0.502403 -0.701214 3.27416 152 233 200
-0.412894 -0.698545 3.26331 127 200 174
1.26494 -0.664169 3.10903 85 138 125
-0.398421 -0.69655 3.2571 167 228 200
-0.317471 -0.695599 3.25488 109 172 156
0.231514 -0.682877 3.19525 112 169 160
0.229819 -0.682438 3.19817 110 171 161
-0.619619 -0.701541 3.29032 137 202 177
0.838491 -0.670525 3.14898 82 142 112
-1.47076 -0.7229 3.38986 79 152 106
-0.499508 -0.696531 3.2747 124 199 167
0.281116 -0.678151 3.19341 121 190 177
0.860831 -0.668801 3.14891 168 223 204
1.35895 -0.659134 3.10094 84 142 131
1.64127 -0.652503 3.07005 76 155 136
-0.485957 -0.694884 3.2741 51 109 84
0.345559 -0.675334 3.18824 65 149 121
0.899592 -0.667082 3.14982 93 163 140
0.977299 -0.66461 3.14096 73 135 111
0.273968 -0.675518 3.19344 81 148 143
-0.468996 -0.69164 3.27073 145 219 195
-0.0236862 -0.681961 3.22655 81 150 135
1.49956 -0.650411 3.08555 218 247 232
-0.17833 -0.682187 3.24382 106 172 160
0.79018 -0.663023 3.15778 90 144 131
0.953816 -0.660965 3.14414 73 132 111
1.36628 -0.651721 3.10187 83 147 135
0.379317 -0.667088 3.18399 73 148 132
0.422964 -0.667326 3.18255 139 225 201
1.62424 -0.644214 3.07072 65 130 121
-0.0957489 -0.677715 3.23461 143 212 192
0.429975 -0.666959 3.18204 136 221 193
-0.0757205 -0.676723 3.23334 142 207 185
-0.478241 -0.684586 3.27375 64 133 106
-0.22847 -0.678287 3.24719 175 227 203
-0.478188 -0.681314 3.27638 140 218 195
-0.409879 -0.681042 3.26909 90 154 135
-0.601799 -0.684337 3.29511 81 150 130
-0.483858 -0.6801 3.27868 80 151 125
-0.00585865 -0.668778 3.22588 71 143 130
0.69302 -0.655304 3.16478 70 136 124
1.37143 -0.641227 3.09874 163 219 206
-1.55242 -0.704682 3.40682 39 107 82
-0.063425 -0.667107 3.23422 76 155 134
0.32183 -0.656072 3.19006 87 155 138
0.340379 -0.654779 3.18473 155 240 212
-0.598439 -0.676709 3.29473 79 154 132
-0.467208 -0.672297 3.27403 86 150 128
0.0666007 -0.660766 3.2167 88 157 147
0.883991 -0.645418 3.14816 91 158 129
-0.273219 -0.667164 3.25345 90 150 139
1.39528 -0.634904 3.09882 85 154 139
0.387417 -0.65257 3.18824 91 169 145
0.430959 -0.649682 3.18453 154 225 205
-0.634737 -0.673556 3.29754 89 172 147
1.41079 -0.631838 3.09819 98 164 153
-0.226903 -0.66123 3.25021 90 153 133
1.0448 -0.636998 3.13638 87 161 137
1.42146 -0.628202 3.0959 83 137 130
-0.38774 -0.659957 3.26938 94 158 139
-0.0734811 -0.653353 3.23547 85 152 131
0.984086 -0.633317 3.14105 82 135 121
0.391746 -0.642725 3.18905 66 141 119
0.784833 -0.636596 3.15865 162 231 218
0.915273 -0.634632 3.14876 89 158 138
1.49502 -0.621891 3.08899 90 149 134
0.83862 -0.633438 3.15175 146 222 190
0.993855 -0.629578 3.13985 162 232 219
1.40926 -0.620652 3.09465 94 152 141
1.46015 -0.619661 3.09264 89 146 137
-0.982262 -0.669627 3.34365 105 168 158
-0.692574 -0.662753 3.3086 101 173 161
-0.600632 -0.660322 3.2955 157 226 206
-0.361866 -0.653198 3.2667 96 158 144
1.57243 -0.614357 3.07695 88 161 139
-0.557635 -0.657383 3.28799 106 182 148
1.27936 -0.620496 3.11042 75 150 134
-0.395268 -0.652163 3.27298 90 155 134
-0.284366 -0.649956 3.25659 103 165 147
-0.140982 -0.645579 3.24121 84 136 119
0.411538 -0.634979 3.18748 89 154 139
-0.140295 -0.645432 3.24294 74 130 111
0.915433 -0.625022 3.14682 90 152 136
1.30405 -0.616024 3.10536 79 141 125
1.73563 -0.606691 3.05445 193 249 228
-0.346131 -0.647845 3.26954 78 147 132
-0.302431 -0.64653 3.25867 80 142 126
0.294793 -0.633286 3.19508 78 146 129
0.279404 -0.632419 3.19749 74 147 139
0.911209 -0.623176 3.1469 146 217 200
0.985569 -0.621822 3.14633 68 145 131
0.873365 -0.621518 3.14757 167 230 204
-0.358334 -0.644765 3.26904 90 170 141
1.30546 -0.612452 3.10439 79 132 123
-0.172906 -0.639628 3.24673 63 133 103
-0.238592 -0.637974 3.25361 60 106 70
-0.190336 -0.638019 3.24784 136 205 178
1.40863 -0.607707 3.0955 77 135 124
-0.309092 -0.639917 3.26312 91 141 131
-0.0255437 -0.632648 3.2298 128 207 180
0.87022 -0.617446 3.15146 76 152 121
-0.0474692 -0.632907 3.2353 70 136 117
0.617266 -0.620119 3.17178 76 144 133
0.982999 -0.614783 3.1459 82 142 131
-1.5773 -0.67023 3.42173 98 164 153
0.387905 -0.623043 3.19085 80 157 136
0.944555 -0.613868 3.1474 80 160 137
-0.230568 -0.632953 3.2507 134 217 178
-0.0819993 -0.629527 3.23928 77 150 128
0.415683 -0.618933 3.18643 80 153 131
1.48008 -0.599325 3.09058 93 156 146
-0.416716 -0.635063 3.27719 80 154 136
0.411233 -0.616598 3.18822 139 203 184
-0.519379 -0.636443 3.28859 68 141 125
-0.329979 -0.631887 3.26891 103 167 162
0.287255 -0.619306 3.20082 44 127 95
-0.224573 -0.628179 3.25033 145 212 181
-1.69568 -0.659239 3.41492 90 161 121
-1.31262 -0.654011 3.39398 83 150 135
0.670401 -0.607992 3.16679 88 151 141
0.292939 -0.613474 3.19748 67 145 114
-0.374901 -0.628168 3.27449 150 225 204
-0.0706864 -0.620547 3.23642 138 214 182
0.468738 -0.61002 3.18464 88 157 146
-0.583691 -0.629735 3.3006 99 167 150
-1.4724 -0.651751 3.41445 149 222 190
-0.252373 -0.620571 3.2597 89 152 142
-0.061859 -0.616045 3.23402 137 200 184
0.611461 -0.60433 3.17376 57 129 107
0.275766 -0.607185 3.19874 123 191 166
0.384793 -0.606347 3.19168 131 211 180
-0.316755 -0.619916 3.27178 157 228 208
0.942841 -0.594743 3.14604 67 144 130
-0.229749 -0.614391 3.2582 156 225 198
0.415913 -0.600238 3.18863 153 227 203
1.40684 -0.583697 3.09844 182 238 225
1.44731 -0.582494 3.09228 94 159 143
-0.254771 -0.613116 3.26207 95 160 138
1.43641 -0.581062 3.09497 72 144 122
0.678312 -0.594434 3.16999 162 228 203
1.22856 -0.584058 3.11766 111 178 163
0.290832 -0.597957 3.19986 74 148 130
0.509797 -0.59546 3.18279 93 156 147
0.92605 -0.588781 3.14916 79 147 140
1.45441 -0.57736 3.09376 110 166 155
-0.169662 -0.60482 3.25154 99 164 148
0.485094 -0.592559 3.18556 166 226 215
0.595096 -0.591017 3.17604 80 161 142
0.209902 -0.59544 3.20725 99 167 166
0.865499 -0.584639 3.15293 90 162 142
1.41406 -0.572269 3.09546 69 140 114
-1.29474 -0.628574 3.39311 101 168 153
-1.29435 -0.628548 3.39363 105 172 157
-0.308985 -0.603246 3.26834 67 150 128
-0.251017 -0.601295 3.25872 91 160 140
0.416219 -0.58842 3.19119 177 228 214
1.44329 -0.565194 3.09109 63 119 100
0.420943 -0.582928 3.19232 155 229 201
-1.51557 -0.624448 3.41079 87 174 118
0.707594 -0.577846 3.17006 135 213 190
0.602609 -0.578087 3.17598 67 149 131
-0.0541122 -0.589528 3.24255 60 122 110
0.734147 -0.575431 3.16552 72 146 116
-0.222028 -0.589781 3.26051 101 159 148
-1.51736 -0.614288 3.41768 53 140 90
-1.51818 -0.613937 3.42116 76 168 117
-1.45281 -0.611775 3.42162 74 139 124
-0.0224402 -0.577692 3.23966 82 151 140
-0.335093 -0.582995 3.27629 104 173 158
-0.310077 -0.581746 3.26969 146 222 204
-0.129275 -0.577759 3.24889 155 234 207
0.494226 -0.565816 3.18926 163 220 211
0.926484 -0.558488 3.15172 78 155 141
-1.01827 -0.596423 3.36391 90 148 124
0.539586 -0.56016 3.18496 97 160 150
1.39709 -0.545786 3.09669 91 153 135
0.800917 -0.555543 3.16062 96 168 156
-1.58817 -0.605477 3.44 136 176 174
0.367271 -0.561513 3.19968 67 136 116
0.766846 -0.555501 3.1686 93 157 145
-0.798237 -0.584792 3.33574 87 152 136
0.683614 -0.554812 3.17182 81 152 149
0.541276 -0.555251 3.18477 72 139 130
-0.886983 -0.584065 3.34714 222 244 242
0.258835 -0.558091 3.20711 76 139 129
0.899521 -0.546955 3.14999 152 227 206
0.895707 -0.545127 3.15083 75 154 127
-0.960717 -0.581857 3.35626 86 145 131
-1.47647 -0.594044 3.42645 109 174 148
-1.69862 -0.596642 3.45171 83 148 116
-0.932924 -0.576872 3.35018 121 173 166
-1.51642 -0.592229 3.43435 57 127 96
-1.58953 -0.592369 3.44234 119 183 154
0.712509 -0.543186 3.17082 80 157 136
1.57967 -0.527846 3.07809 57 125 114
-1.30635 -0.584182 3.40664 78 167 134
-1.11807 -0.5798 3.37763 78 140 150
-0.0257251 -0.554652 3.23999 152 222 215
-1.53167 -0.586872 3.42522 145 219 167
-1.42987 -0.585809 3.42553 111 166 157
0.88422 -0.537231 3.15337 90 158 141
1.46001 -0.525962 3.09241 158 223 198
0.469006 -0.540359 3.18829 95 157 151
0.229157 -0.543712 3.21213 58 131 123
0.371983 -0.541344 3.19904 126 205 186
0.698973 -0.536326 3.17405 174 231 223
-0.761341 -0.561034 3.33294 110 174 162
0.906977 -0.529664 3.15356 72 147 131
0.259859 -0.536396 3.20898 132 207 191
0.298514 -0.53313 3.20522 76 145 130
1.62541 -0.510734 3.07278 172 236 214
1.58894 -0.511628 3.08054 63 117 104
0.606893 -0.526771 3.18108 78 149 132
0.634987 -0.526269 3.17814 52 116 97
-1.79681 -0.577297 3.47473 131 202 159
-1.02425 -0.55789 3.36614 101 168 153
-0.0517876 -0.53747 3.24366 75 149 137
0.765189 -0.523008 3.16686 102 153 145
1.54728 -0.509849 3.08161 212 255 246
1.01132 -0.518014 3.14399 87 156 146
-0.090059 -0.534354 3.25092 152 222 205
-0.0757382 -0.533383 3.25071 71 140 125
-0.93039 -0.548596 3.35564 159 233 207
0.297329 -0.5231 3.20693 155 222 207
-1.54214 -0.563171 3.44304 71 124 91
-0.720079 -0.541954 3.33084 68 145 137
-0.111734 -0.528859 3.25516 89 156 147
-1.72652 -0.565384 3.47015 66 139 113
0.689587 -0.513856 3.17391 83 152 141
1.23938 -0.505886 3.11835 153 222 209
0.557431 -0.515457 3.18669 83 152 139
1.62776 -0.497163 3.07306 152 223 207
-0.827932 -0.538663 3.34294 95 164 153
0.842263 -0.508149 3.15963 90 165 143
0.360645 -0.514243 3.20217 67 138 121
0.841363 -0.505314 3.15887 141 217 193
1.02154 -0.502858 3.14179 155 224 209
1.60105 -0.491188 3.07719 152 221 210
-1.74992 -0.557143 3.47241 58 95 85
0.781374 -0.503454 3.16547 162 235 219
0.281888 -0.509989 3.21125 101 169 162
0.662531 -0.504035 3.1793 73 157 129
1.29513 -0.494379 3.11177 81 156 135
0.671095 -0.502494 3.17611 86 169 137
1.02296 -0.497259 3.14295 68 124 111
-0.438407 -0.520895 3.29737 95 138 125
0.613463 -0.502374 3.17942 61 132 112
1.03918 -0.496507 3.1445 74 149 128
1.62328 -0.486038 3.07509 179 238 224
0.907738 -0.497966 3.1548 79 148 135
0.669857 -0.49953 3.17359 149 230 197
1.45691 -0.486705 3.09265 124 204 181
1.52582 -0.486272 3.08614 83 155 135
1.70831 -0.480027 3.05996 150 192 167
0.674291 -0.496555 3.1751 58 125 94
0.753362 -0.494609 3.16792 80 150 143
0.604873 -0.496278 3.18541 60 124 105
1.53329 -0.480438 3.08561 165 238 222
-1.57926 -0.538389 3.45464 140 197 176
0.777977 -0.491107 3.16762 97 165 148
0.98025 -0.487664 3.14732 91 159 148
0.800934 -0.489353 3.16239 85 162 135
1.23096 -0.483149 3.12049 154 218 206
1.30987 -0.481329 3.10978 63 134 117
-1.85253 -0.541607 3.48949 60 119 91
0.618264 -0.491199 3.18293 73 152 133
1.37409 -0.478773 3.10401 75 141 122
0.0831849 -0.498331 3.23158 192 244 244
0.155888 -0.495892 3.22219 84 155 138
0.710593 -0.487516 3.17162 147 239 204
-0.529876 -0.509439 3.31206 114 174 173
0.639261 -0.487977 3.17978 139 210 190
0.675933 -0.485788 3.17519 139 216 182
0.811878 -0.484442 3.16726 160 234 200
1.59382 -0.471948 3.08008 156 216 206
-1.6685 -0.531525 3.46602 75 141 106
0.710184 -0.483626 3.17351 70 146 115
-0.645844 -0.507315 3.3249 103 174 148
0.796447 -0.482285 3.16815 79 124 97
0.81574 -0.48063 3.16352 82 158 134
0.866731 -0.479822 3.16201 88 160 124
1.59675 -0.46602 3.07643 147 216 203
1.25787 -0.470117 3.11638 78 136 131
1.27138 -0.470084 3.11396 86 158 138
1.58083 -0.465069 3.08095 92 156 144
0.696771 -0.477876 3.17356 64 120 107
1.16668 -0.470821 3.12704 62 126 114
1.27848 -0.469822 3.11458 79 152 130
0.605657 -0.477855 3.18119 71 136 111
0.697379 -0.477429 3.17629 66 124 106
1.5806 -0.462319 3.07959 168 228 218
1.52653 -0.461801 3.0838 64 129 104
0.865037 -0.470202 3.15781 71 148 110
1.29156 -0.464334 3.11242 62 133 106
1.49763 -0.461116 3.09048 204 238 231
1.56553 -0.458808 3.08015 48 116 105
1.62317 -0.457229 3.07643 90 151 141
1.31813 -0.461148 3.10971 58 145 131
1.50974 -0.457473 3.08764 226 252 246
-0.868766 -0.499032 3.35781 100 173 157
0.537121 -0.4718 3.18875 145 219 201
0.806915 -0.467406 3.16514 156 226 195
1.29475 -0.458402 3.11369 58 127 107
1.18543 -0.458463 3.12115 79 138 124
1.46903 -0.455148 3.09193 75 151 133
0.840658 -0.463589 3.16224 77 149 127
0.0478898 -0.473477 3.2399 88 155 158
1.2841 -0.453704 3.11344 74 147 121
1.66288 -0.446764 3.06843 86 148 136
1.30733 -0.450072 3.10762 58 133 111
0.882083 -0.457244 3.15963 89 151 129
-0.823397 -0.484843 3.35255 101 158 149
0.669235 -0.45805 3.17717 48 120 98
0.846185 -0.45612 3.16273 81 127 105
-1.58559 -0.501285 3.46497 159 220 200
-0.817406 -0.482804 3.34803 162 236 212
-0.34664 -0.47236 3.29043 164 238 210
-1.49348 -0.495451 3.44864 103 172 159
1.0197 -0.45025 3.14231 64 125 111
-0.114094 -0.466914 3.26398 98 162 157
0.865709 -0.450645 3.15819 83 160 122
-0.790985 -0.478023 3.34947 158 219 209
1.28579 -0.443302 3.11371 47 77 64
0.859363 -0.448804 3.15772 60 119 98
0.861285 -0.44791 3.16302 85 147 123
1.2548 -0.440675 3.11756 88 156 139
1.25928 -0.440888 3.11604 155 218 198
1.46789 -0.434976 3.0924 80 149 129
0.601442 -0.447323 3.18572 149 216 201
0.67438 -0.446579 3.18179 39 116 95
0.691882 -0.445202 3.18198 65 134 121
0.831591 -0.44247 3.16537 88 150 134
1.26774 -0.436085 3.11932 79 144 118
0.610182 -0.444066 3.18572 139 206 191
0.925504 -0.437904 3.15333 64 139 125
0.876708 -0.438568 3.1565 87 137 103
1.13399 -0.435158 3.1359 135 182 160
1.08642 -0.433135 3.13913 74 134 124
1.14554 -0.432437 3.1306 136 214 197
1.15262 -0.431892 3.13088 88 155 140
1.33991 -0.42922 3.10706 76 146 133
0.823071 -0.436316 3.16636 86 151 129
-0.0484849 -0.447864 3.256 145 220 198
1.39996 -0.426757 3.10027 75 134 119
0.841254 -0.434115 3.16227 156 218 170
1.42139 -0.42557 3.10009 66 154 131
-1.81342 -0.481628 3.49993 62 142 107
-1.23612 -0.468962 3.4171 158 220 202
0.831189 -0.432428 3.16257 144 204 180
-0.0652575 -0.44542 3.25897 148 206 188
0.843091 -0.431017 3.15754 85 142 104
1.11444 -0.426994 3.13382 74 132 114
1.02431 -0.426886 3.1452 87 154 139
1.26295 -0.422757 3.11691 79 152 130
-0.0928093 -0.443029 3.26519 84 149 147
0.152715 -0.435326 3.23041 98 172 172
1.28996 -0.419472 3.11579 61 132 115
1.29659 -0.418141 3.11316 96 161 145
1.56506 -0.414524 3.0786 93 154 144
-0.63141 -0.443961 3.33236 96 161 146
-0.447284 -0.440964 3.30613 75 151 140
0.656363 -0.42435 3.18478 82 146 134
0.857341 -0.419176 3.16171 79 155 124
0.133642 -0.425805 3.23229 83 146 130
0.530736 -0.420685 3.19165 147 215 192
0.812432 -0.417609 3.16904 92 166 142
1.13285 -0.412346 3.13197 78 147 132
0.553653 -0.418736 3.1927 153 226 200
1.06138 -0.411573 3.14271 43 121 104
1.36787 -0.405599 3.1036 171 239 222
-0.442076 -0.432536 3.30823 83 152 141
0.141919 -0.421108 3.2291 75 134 114
1.1147 -0.405694 3.1367 56 134 111
1.05184 -0.405267 3.14441 75 146 130
1.10136 -0.404833 3.13722 75 156 131
1.16617 -0.404169 3.12904 98 163 148
1.50222 -0.399207 3.08884 95 160 144
1.05057 -0.405436 3.14327 78 151 135
1.07771 -0.404498 3.14065 56 124 113
1.10127 -0.404684 3.13792 72 150 127
0.831299 -0.406094 3.16844 141 224 192
0.978669 -0.405193 3.15004 65 125 115
1.28512 -0.400535 3.1137 88 152 133
1.62452 -0.39481 3.07058 81 146 125
0.831002 -0.406198 3.16784 141 224 192
1.40298 -0.397916 3.10201 145 218 196
0.678013 -0.405905 3.18372 80 138 127
0.783669 -0.403642 3.17263 63 141 117
-0.761951 -0.42763 3.35217 108 178 161
0.742622 -0.403681 3.17496 74 145 128
0.83907 -0.401508 3.16791 140 219 192
-0.663626 -0.424404 3.34262 80 160 143
0.984931 -0.398439 3.14805 159 234 213
1.16048 -0.395519 3.13028 90 170 147
-1.02641 -0.429652 3.39119 106 153 150
0.794812 -0.400255 3.17048 151 227 196
1.05844 -0.39633 3.14272 65 136 116
1.09582 -0.396501 3.13869 61 141 112
-1.29714 -0.43503 3.43419 251 255 255
0.719108 -0.398796 3.1805 71 140 125
1.14308 -0.393358 3.13081 66 145 126
0.130051 -0.404689 3.22963 77 146 109
1.18676 -0.39146 3.12708 155 214 200
1.33177 -0.388903 3.11031 89 168 149
-0.675346 -0.41838 3.33873 95 163 140
0.0996936 -0.404851 3.23809 170 236 231
1.03868 -0.392199 3.14532 81 154 138
0.854627 -0.393912 3.16136 70 134 115
1.15921 -0.389167 3.12941 75 154 133
-0.756724 -0.417203 3.3508 95 151 138
0.817255 -0.392194 3.16559 138 213 191
-1.63773 -0.433065 3.4883 81 147 128
0.127603 -0.399421 3.23203 47 102 77
0.854833 -0.390703 3.16387 80 152 132
1.3155 -0.384343 3.11263 162 233 216
-1.02696 -0.418688 3.39412 81 140 125
1.42331 -0.381413 3.10044 80 167 139
0.149804 -0.396489 3.23094 51 138 105
0.121996 -0.396296 3.23748 67 140 114
0.141381 -0.395249 3.22827 56 127 100
1.07853 -0.382928 3.14207 83 155 132
1.01442 -0.383131 3.14894 81 146 124
1.13073 -0.38057 3.13442 114 169 152
-0.794154 -0.408288 3.3589 71 143 123
0.876216 -0.38237 3.16129 69 138 127
1.11871 -0.379869 3.13465 142 222 199
1.31871 -0.377039 3.11262 69 143 125
0.0558909 -0.392398 3.24784 89 159 158
0.145035 -0.388879 3.23094 75 143 120
0.701167 -0.382956 3.18237 181 245 226
-1.23409 -0.411933 3.42669 151 214 194
-0.772555 -0.402989 3.35753 162 231 210
0.291993 -0.386594 3.22004 158 227 206
0.416805 -0.384365 3.20962 65 124 103
1.13794 -0.376264 3.13475 150 221 201
1.146 -0.373187 3.13262 75 144 123
1.50801 -0.36821 3.08852 171 234 218
1.57635 -0.366939 3.07831 80 140 122
0.124849 -0.384176 3.23443 53 134 115
1.08986 -0.372291 3.14119 90 144 121
0.1407 -0.381863 3.23218 159 236 202
0.300862 -0.380811 3.22389 81 159 136
1.5428 -0.363879 3.08167 90 162 142
0.124116 -0.382075 3.23732 57 143 125
1.07901 -0.370806 3.14331 155 231 213
1.17535 -0.368375 3.13028 67 140 124
0.635023 -0.373314 3.1893 100 176 152
0.137299 -0.377758 3.23337 61 137 106
0.417252 -0.375379 3.21144 159 233 215
0.930035 -0.369109 3.15566 67 139 103
-0.0361534 -0.380405 3.26738 85 162 155
0.270094 -0.376102 3.22621 79 145 134
0.300603 -0.375781 3.21918 158 230 194
0.939297 -0.367948 3.15573 85 155 119
1.07808 -0.365466 3.14052 64 118 105
1.20189 -0.363189 3.1256 64 127 111
0.121054 -0.375057 3.23868 62 129 124
1.05445 -0.364319 3.14493 57 126 111
0.849655 -0.365408 3.16339 70 145 131
0.863262 -0.364835 3.16368 71 136 127
1.13712 -0.362326 3.13525 77 154 133
0.855558 -0.364261 3.16427 70 148 131
0.117109 -0.372212 3.2415 146 227 208
-1.16523 -0.393719 3.42131 74 138 139
-0.724872 -0.384835 3.35196 80 151 134
0.310651 -0.368751 3.21971 135 218 186
0.852015 -0.362389 3.16372 125 203 186
1.09477 -0.359962 3.1401 68 132 120
1.5308 -0.354192 3.08495 52 106 93
1.13901 -0.357995 3.13148 61 142 123
0.841897 -0.361285 3.17069 58 129 113
1.52004 -0.351313 3.0834 60 120 109
0.0804512 -0.36936 3.24404 199 241 240
1.10209 -0.356455 3.13946 76 148 128
1.15683 -0.355288 3.13136 154 219 203
0.858492 -0.357407 3.16639 156 220 208
1.15153 -0.353126 3.1294 80 145 130
1.53972 -0.348087 3.08588 63 113 101
1.54878 -0.348482 3.08591 146 213 198
1.61452 -0.347161 3.07195 72 131 103
-0.288861 -0.372121 3.29625 116 173 170
0.403327 -0.360954 3.21554 80 141 121
-0.421863 -0.372057 3.31528 79 147 130
1.81458 -0.339448 3.04145 132 193 159
-1.43837 -0.388168 3.46986 110 170 170
-1.19507 -0.382812 3.42509 89 159 142
0.378377 -0.357712 3.21542 153 224 204
1.24524 -0.346744 3.12156 92 163 146
-1.14752 -0.380257 3.41914 211 250 242
1.02805 -0.348215 3.14775 86 151 135
1.17453 -0.344683 3.12799 68 142 114
1.54963 -0.339846 3.0827 53 124 108
1.08041 -0.344899 3.14123 75 136 122
0.177469 -0.354857 3.23598 75 154 140
0.278696 -0.352657 3.2271 81 157 139
0.877729 -0.345009 3.16382 58 128 121
-0.572635 -0.363967 3.33492 96 154 149
0.22553 -0.352053 3.23083 90 150 140
0.846704 -0.345975 3.17003 53 111 100
1.11793 -0.341062 3.13583 81 140 119
-0.53761 -0.359656 3.32975 79 140 112
-0.145983 -0.353983 3.27928 104 179 171
0.860084 -0.341733 3.16447 55 129 117
-0.783109 -0.363714 3.36482 150 224 206
-0.347566 -0.355653 3.30753 108 163 154
0.277726 -0.34729 3.22629 87 160 144
1.05057 -0.336964 3.14487 150 219 204
-0.407445 -0.355197 3.3188 78 140 122
-0.0739029 -0.34886 3.27074 86 165 144
-0.396905 -0.352466 3.31327 77 152 131
1.11595 -0.332372 3.13792 76 151 135
1.70697 -0.321804 3.05989 89 153 141
-0.737807 -0.351551 3.35779 87 155 144
-0.70769 -0.351461 3.3583 96 165 152
-0.176632 -0.344812 3.28817 97 163 152
-0.0935637 -0.342855 3.27416 64 132 107
1.54675 -0.322545 3.08365 90 147 144
-0.745844 -0.352214 3.35774 68 134 122
0.12971 -0.338414 3.24359 76 156 127
0.847748 -0.330308 3.16943 165 231 212
1.14926 -0.324334 3.13518 138 216 192
-0.183972 -0.338732 3.28461 105 168 159
-0.0922422 -0.335603 3.27676 66 142 130
-0.186396 -0.337076 3.28836 93 160 153
-0.440847 -0.338722 3.32348 98 152 135
0.121532 -0.328493 3.24342 68 141 125
1.38802 -0.314662 3.10019 93 162 147
0.13112 -0.327342 3.24228 78 152 134
1.39145 -0.311576 3.10308 142 215 205
1.1189 -0.313795 3.1367 62 131 116
0.127384 -0.32218 3.24362 63 145 127
-0.970528 -0.336223 3.3965 100 161 147
0.0278078 -0.323003 3.26243 85 152 147
1.20559 -0.309654 3.12382 150 230 201
0.0921393 -0.320819 3.24697 58 130 117
1.17152 -0.308322 3.13058 73 148 132
0.0511427 -0.320899 3.2527 77 136 132
1.07724 -0.306228 3.14217 72 150 133
1.38673 -0.302772 3.10198 94 169 153
-0.135369 -0.317087 3.28405 100 164 164
-0.349878 -0.31791 3.30882 106 170 151
-0.649638 -0.322361 3.35552 113 185 163
0.690835 -0.305187 3.18345 105 152 144
1.16973 -0.298259 3.13151 95 166 150
1.09466 -0.298734 3.14079 91 157 145
0.336536 -0.304414 3.22044 93 161 130
-0.397081 -0.314625 3.31789 117 165 153
1.31523 -0.293425 3.11071 72 147 119
1.23899 -0.293434 3.12204 84 147 137
1.12586 -0.294011 3.13691 86 155 142
1.31175 -0.291672 3.11226 132 197 175
0.815697 -0.295885 3.17382 89 161 139
-0.321657 -0.307509 3.30718 85 144 113
-0.66601 -0.311483 3.35954 101 180 153
1.42837 -0.287254 3.09843 96 170 152
1.06393 -0.289949 3.14481 73 148 132
1.43683 -0.285156 3.09689 170 238 221
1.19287 -0.286636 3.12957 82 143 129
-0.0246982 -0.297992 3.27057 95 171 153
1.19706 -0.285079 3.12912 87 156 143
1.42288 -0.281987 3.09949 80 146 134
1.22863 -0.282487 3.12542 54 127 111
-0.506227 -0.300435 3.33897 101 164 154
0.892738 -0.283915 3.16781 83 146 136
-0.14105 -0.29065 3.28677 133 193 182
-0.101356 -0.290172 3.28521 76 148 128
0.990911 -0.277748 3.15547 72 140 123
0.851687 -0.27601 3.16678 173 226 199
0.316885 -0.279277 3.22598 100 160 152
0.783249 -0.272294 3.17364 151 235 210
0.774815 -0.26793 3.17652 163 232 217
1.36189 -0.261207 3.10768 95 174 155
-0.274415 -0.277336 3.3044 75 142 127
1.37986 -0.260257 3.10483 78 155 141
-0.334933 -0.274288 3.31436 111 171 153
1.70466 -0.253598 3.05885 92 146 129
0.845303 -0.260501 3.17161 96 151 136
1.33272 -0.254562 3.1092 86 146 135
-1.89812 -0.291865 3.54837 125 181 152
0.81164 -0.258347 3.17559 96 160 138
0.839246 -0.259526 3.17184 184 236 218
1.06844 -0.256633 3.14514 74 133 112
-1.06613 -0.278498 3.42465 82 151 118
-0.119699 -0.267136 3.2904 90 171 162
-0.0726084 -0.266428 3.28196 62 131 110
-1.80053 -0.286705 3.529 171 183 187
-1.42405 -0.28205 3.48513 116 133 146
-1.39323 -0.28276 3.4845 127 169 168
-0.21952 -0.265668 3.29984 96 171 157
1.09639 -0.252484 3.1433 77 135 110
-0.114587 -0.262068 3.28889 80 157 150
0.760445 -0.253557 3.1771 159 232 216
0.904733 -0.252683 3.16286 75 139 139
0.986662 -0.251921 3.15617 93 162 149
1.09984 -0.250714 3.14076 136 199 179
-1.0611 -0.272804 3.42348 79 152 106
0.828168 -0.25098 3.17007 81 144 118
1.29043 -0.246201 3.11619 162 234 214
-0.391403 -0.262499 3.3248 114 183 168
1.33542 -0.244903 3.11014 87 161 137
-1.03244 -0.268398 3.41405 143 221 174
0.0083369 -0.256545 3.26721 58 112 89
0.0115963 -0.255094 3.26755 132 186 163
1.65794 -0.239328 3.06122 123 179 150
1.28254 -0.241868 3.11693 89 167 144
0.288062 -0.250729 3.23517 161 226 211
1.27063 -0.240793 3.11532 69 140 123
-1.90584 -0.276109 3.5598 88 129 121
1.09996 -0.241445 3.13892 63 137 113
-1.06819 -0.262695 3.42492 69 144 112
-0.756603 -0.258735 3.37765 110 166 161
-0.0459358 -0.250031 3.27562 145 239 204
0.0130184 -0.249394 3.26717 134 203 190
-1.45654 -0.268139 3.49673 78 135 126
-0.83672 -0.256562 3.39131 89 146 138
-0.671525 -0.252224 3.3637 154 220 191
1.05039 -0.235461 3.14861 92 164 151
-0.41986 -0.248232 3.33272 88 159 142
-0.288873 -0.246781 3.31102 130 180 162
1.26259 -0.231695 3.11723 159 214 195
-0.687874 -0.250066 3.3683 81 139 110
0.974985 -0.233631 3.15719 77 152 138
1.01573 -0.233353 3.15323 82 154 134
1.684 -0.226667 3.05962 137 189 166
1.16667 -0.231156 3.12993 146 216 193
1.24711 -0.230169 3.12154 144 218 200
1.38432 -0.229282 3.10207 96 165 152
-0.490306 -0.245835 3.34238 99 173 147
0.931881 -0.23083 3.16184 160 229 216
1.5558 -0.224881 3.07688 53 122 102
-0.704374 -0.246006 3.37199 111 165 158
0.0955936 -0.235417 3.25657 96 169 159
1.0283 -0.228137 3.15125 68 138 121
1.20796 -0.2263 3.12577 82 147 122
-0.0879999 -0.237164 3.28477 165 229 207
0.0808792 -0.234687 3.25419 147 215 180
-0.92629 -0.246055 3.40805 156 230 206
0.25965 -0.232123 3.23795 65 132 117
-0.13241 -0.234285 3.28998 78 162 133
0.0962087 -0.232002 3.25769 156 226 219
1.22944 -0.221638 3.12351 57 144 108
-1.07369 -0.244027 3.42902 130 197 166
-0.129244 -0.23196 3.29139 142 229 203
-0.128849 -0.231899 3.29175 145 229 205
0.805698 -0.224226 3.17717 82 151 136
1.03409 -0.222019 3.1481 158 228 197
1.20424 -0.22067 3.12764 57 127 97
1.2999 -0.218704 3.11306 102 157 142
1.53899 -0.216767 3.08217 75 150 129
-0.121317 -0.230172 3.29294 90 164 152
1.15592 -0.218845 3.13415 109 158 144
1.25983 -0.217995 3.11875 77 145 122
0.244376 -0.225222 3.24328 78 132 119
1.02774 -0.217706 3.15144 60 117 102
-0.931656 -0.23679 3.40937 102 173 146
1.11386 -0.216734 3.13985 83 162 141
1.26735 -0.215736 3.11972 84 153 132
0.0123692 -0.223863 3.27379 78 144 132
-0.153832 -0.22491 3.29562 82 159 161
-0.0973357 -0.225011 3.2882 150 216 211
-0.142145 -0.223305 3.29564 76 153 150
0.262902 -0.217998 3.23719 73 150 136
1.19782 -0.211265 3.12887 131 206 185
0.969482 -0.211994 3.1609 71 155 137
1.03973 -0.210215 3.15091 69 137 120
-1.00975 -0.227772 3.42381 87 148 122
0.878227 -0.208794 3.16886 146 217 200
-0.183512 -0.21718 3.29938 74 149 135
1.03595 -0.206271 3.14821 135 196 182
-0.103212 -0.21483 3.2891 67 146 132
0.247088 -0.211462 3.24175 98 155 154
0.968109 -0.204834 3.15795 58 132 120
1.02359 -0.204747 3.15285 85 154 141
-0.813699 -0.220429 3.39393 86 165 146
1.03765 -0.20275 3.14973 68 132 113
-0.399926 -0.213848 3.33149 158 231 209
1.34993 -0.199405 3.10716 81 153 130
-0.49903 -0.213512 3.34734 65 141 110
1.0743 -0.200674 3.14348 66 145 131
-1.47142 -0.223699 3.50425 124 178 173
-1.0278 -0.218428 3.4281 154 225 198
0.291963 -0.205228 3.23558 86 150 138
0.97339 -0.201407 3.15877 82 142 136
-0.765512 -0.214935 3.38868 106 156 152
0.815004 -0.199933 3.17558 89 165 134
1.2159 -0.196383 3.12035 139 214 186
-0.362671 -0.208898 3.32893 104 176 156
1.18067 -0.19633 3.13017 99 155 144
-0.546079 -0.207147 3.35449 170 237 216
-0.0876345 -0.203111 3.29451 82 154 134
0.815938 -0.195433 3.17647 79 153 123
-1.12946 -0.210577 3.4497 93 142 126
-0.0622587 -0.199063 3.28286 74 153 142
0.885873 -0.192196 3.16768 209 240 239
1.2323 -0.189946 3.12568 145 208 188
1.07183 -0.190677 3.14618 154 223 212
0.783612 -0.191363 3.17601 141 204 178
-0.120133 -0.197351 3.29532 78 155 141
1.05522 -0.188039 3.14982 80 149 139
-0.888875 -0.203512 3.40639 82 151 114
0.502005 -0.190686 3.21118 92 155 146
1.14872 -0.186277 3.13332 101 163 149
0.78888 -0.18742 3.1716 158 228 205
-0.651339 -0.197928 3.36373 67 128 100
0.758643 -0.186607 3.18352 83 150 129
-0.109378 -0.1929 3.29368 134 201 186
0.283353 -0.187897 3.24039 98 159 155
1.52878 -0.178598 3.08372 251 255 255
0.758914 -0.18286 3.18116 146 216 193
1.00737 -0.181688 3.15502 65 134 123
-1.11582 -0.197857 3.44542 154 219 187
0.853041 -0.180732 3.17236 95 157 151
0.86505 -0.180349 3.1685 76 137 127
1.37221 -0.176107 3.10369 116 179 159
-0.264864 -0.187112 3.3164 83 147 135
0.866189 -0.179335 3.17245 66 127 117
-0.410638 -0.18773 3.3375 106 171 150
1.05352 -0.176065 3.14944 75 153 146
1.09113 -0.176948 3.14216 86 159 143
-0.464707 -0.187021 3.34414 139 224 186
0.741991 -0.175982 3.18646 84 158 132
0.797661 -0.175132 3.1788 98 177 144
-1.89346 -0.19798 3.57938 197 230 246
0.786224 -0.174798 3.18245 82 149 120
-0.111796 -0.179843 3.29686 54 123 110
-0.0681098 -0.179087 3.2857 113 196 174
0.817949 -0.172846 3.17545 77 147 117
0.861437 -0.172701 3.17342 74 135 125
1.08154 -0.171163 3.14509 89 173 144
0.853489 -0.169403 3.17599 76 146 133
-0.925805 -0.182126 3.41772 95 175 128
0.871009 -0.167398 3.16944 150 211 201
0.890823 -0.167909 3.17201 72 132 121
1.43339 -0.164368 3.09674 101 165 146
0.0627195 -0.171357 3.26767 159 232 216
0.770532 -0.166523 3.18126 88 156 133
-0.962186 -0.179849 3.42518 155 228 196
-0.0816722 -0.172514 3.29387 72 129 114
-0.0941518 -0.170801 3.29611 132 201 188
1.61143 -0.158495 3.06872 96 162 150
-2.0452 -0.186955 3.61994 124 167 156
-1.57515 -0.181942 3.52886 161 183 189
0.180718 -0.166313 3.25365 80 149 136
0.895454 -0.16072 3.16861 76 131 122
0.457184 -0.162308 3.21893 107 169 155
0.879247 -0.160931 3.17317 75 131 118
-1.57361 -0.178413 3.53321 94 105 125
-0.395823 -0.168678 3.33562 75 145 122
0.913973 -0.159036 3.16771 78 140 128
-0.0666245 -0.16431 3.2911 62 140 123
0.205013 -0.161953 3.25193 104 168 168
-0.936088 -0.170464 3.41655 161 239 198
-0.440295 -0.165605 3.34233 113 180 149
0.7267 -0.156637 3.18912 154 216 198
-1.12201 -0.169627 3.45295 94 161 140
-1.14938 -0.16843 3.45571 116 185 172
-0.487261 -0.163288 3.35038 109 174 142
0.752727 -0.154236 3.18359 76 147 120
0.789412 -0.15408 3.17885 55 119 97
-0.344223 -0.161274 3.33148 91 156 140
-0.210823 -0.158497 3.31147 88 165 157
-0.522549 -0.160641 3.35909 90 138 126
-1.06526 -0.163421 3.4411 130 193 161
0.822397 -0.149794 3.17834 84 163 136
0.881768 -0.14901 3.16993 97 149 142
1.25387 -0.146932 3.12023 82 147 131
-0.0926629 -0.15462 3.29464 153 216 206
0.0446466 -0.152067 3.27267 77 136 121
-0.527511 -0.154583 3.35998 65 125 114
-0.0424692 -0.150506 3.2865 131 223 180
-0.0965798 -0.149885 3.29804 79 143 124
-0.0888058 -0.149367 3.29411 146 213 198
0.290073 -0.145275 3.24167 79 151 129
1.23615 -0.139104 3.12108 101 152 145
-0.0384603 -0.14577 3.28903 126 213 187
0.184969 -0.144421 3.25853 91 160 140
-0.0157041 -0.142489 3.2864 160 225 204
0.18736 -0.14088 3.25558 147 218 198
0.0479937 -0.14097 3.27256 147 216 196
0.844909 -0.136554 3.17649 74 151 143
0.035627 -0.139775 3.27654 168 226 208
1.27503 -0.13267 3.11782 72 129 120
0.184377 -0.137832 3.25829 94 162 145
1.46674 -0.128268 3.09038 69 143 125
0.317538 -0.133669 3.23648 163 238 210
0.826671 -0.130879 3.17946 57 118 104
0.054958 -0.132907 3.27187 151 213 199
1.05462 -0.127104 3.15033 63 131 120
0.206324 -0.128537 3.25242 165 233 222
-1.00063 -0.13399 3.43743 78 143 117
-0.340207 -0.130049 3.33296 100 163 147
0.367408 -0.124594 3.23252 161 232 215
0.0604701 -0.125934 3.27487 83 156 140
1.05798 -0.119178 3.15147 75 140 131
0.773467 -0.119906 3.18247 94 160 141
0.802239 -0.116723 3.18017 98 163 148
1.33819 -0.111853 3.10809 183 244 234
0.763891 -0.111739 3.18387 146 223 195
-1.30872 -0.123462 3.49481 69 141 121
-0.208882 -0.114195 3.31713 110 176 165
-0.773125 -0.115496 3.40299 64 119 100
-0.317818 -0.112619 3.33078 98 169 149
-1.00355 -0.116556 3.44107 109 192 147
0.731655 -0.106703 3.18818 87 148 138
1.13434 -0.103937 3.13944 84 142 137
-0.0119919 -0.107997 3.28479 147 227 190
-0.0522862 -0.108055 3.29304 150 231 192
-0.0293837 -0.106089 3.29276 158 217 202
0.792318 -0.101431 3.18225 84 153 138
-0.119017 -0.104566 3.30438 170 239 219
0.0142689 -0.103167 3.28389 100 161 151
0.57878 -0.0997134 3.20992 103 168 142
0.189593 -0.10049 3.25737 92 149 141
0.761225 -0.098775 3.18524 147 211 182
-1.42293 -0.109334 3.51989 106 161 142
-0.8104 -0.105707 3.40952 67 134 119
1.60726 -0.0938622 3.0649 77 142 121
0.766299 -0.0967132 3.18518 68 123 98
-0.450533 -0.101095 3.3529 85 158 126
-0.00797541 -0.0984806 3.29087 95 154 139
0.773987 -0.0955935 3.18262 147 228 189
-1.37511 -0.104524 3.50914 148 228 191
-0.435781 -0.0996285 3.35386 174 226 219
1.44235 -0.0916896 3.09007 194 236 219
-0.0190532 -0.0962414 3.29556 147 220 194
-1.97358 -0.107031 3.62251 168 221 224
-1.31695 -0.101972 3.49808 106 161 134
1.44222 -0.0882312 3.0967 97 147 137
-1.32459 -0.100428 3.49733 93 150 129
-1.17285 -0.0997514 3.47347 100 164 145
0.502093 -0.0905382 3.21899 106 174 151
-1.40644 -0.0992834 3.51403 131 188 157
-1.32594 -0.0975524 3.49725 161 228 197
0.551634 -0.0882938 3.2125 69 125 102
1.60596 -0.0842885 3.06337 78 144 109
1.63873 -0.0842225 3.06355 66 137 120
1.03366 -0.0863696 3.15375 95 156 142
0.507113 -0.0859593 3.2171 64 121 90
0.552005 -0.0876556 3.21476 69 126 105
0.578145 -0.0866793 3.20886 72 118 112
0.507668 -0.0850636 3.2139 77 131 101
0.583996 -0.0844183 3.20861 139 205 186
0.515065 -0.0825153 3.22034 81 150 129
0.593995 -0.0831013 3.20757 93 162 142
1.59644 -0.0799278 3.06626 118 177 149
0.508539 -0.0833169 3.22004 81 139 115
0.655909 -0.0813809 3.19893 100 165 150
1.65013 -0.0792387 3.06036 148 222 204
-0.311506 -0.0830494 3.33788 181 236 217
0.500327 -0.0800958 3.22209 65 127 113
-0.0500868 -0.0801936 3.29735 159 242 217
0.306588 -0.0787936 3.24396 78 138 130
0.520622 -0.0775338 3.21989 104 165 137
1.60919 -0.0748697 3.06869 172 232 198
-0.462931 -0.0801543 3.35434 91 173 151
0.788204 -0.0755768 3.18559 161 230 209
-0.435533 -0.0785804 3.3548 66 128 122
-0.099576 -0.077497 3.30811 171 235 223
0.544542 -0.0709432 3.21577 93 157 121
1.23777 -0.0681515 3.11927 94 156 144
-0.10092 -0.0715613 3.3048 68 151 126
0.505639 -0.0695782 3.21745 91 159 136
1.10684 -0.0666038 3.14212 100 167 152
-0.10446 -0.0693846 3.30651 147 218 201
0.513483 -0.0666611 3.2199 80 149 122
0.193491 -0.0660276 3.25922 143 218 196
0.555946 -0.0647488 3.21583 155 228 190
-1.44366 -0.072425 3.53246 115 171 160
-1.4428 -0.0727253 3.53139 116 172 161
0.531494 -0.0639624 3.2198 160 220 189
1.10877 -0.0616863 3.14344 73 131 120
-1.41195 -0.0690493 3.5219 177 224 192
0.179104 -0.0616004 3.26199 92 160 143
0.298089 -0.060403 3.24836 164 227 217
0.579014 -0.0600291 3.21232 89 153 131
1.12049 -0.0586766 3.14075 85 145 137
1.11364 -0.0576979 3.1408 75 135 124
0.566898 -0.05733 3.21393 76 136 105
0.773638 -0.0569121 3.18767 86 164 141
1.22708 -0.055691 3.12332 90 156 144
-0.551261 -0.0600176 3.36578 98 172 148
-1.79441 -0.0643524 3.59393 132 151 156
0.288389 -0.0567489 3.24717 143 216 200
0.917174 -0.0551447 3.16734 97 168 152
0.19747 -0.0555513 3.26072 160 228 205
1.62907 -0.0508043 3.06252 89 159 146
-0.114354 -0.0545643 3.30929 81 157 133
1.04123 -0.0499372 3.15355 89 154 139
1.23218 -0.0499988 3.12245 85 149 137
-1.94715 -0.0592501 3.62421 112 151 159
-1.16247 -0.0516375 3.48034 76 150 126
0.546643 -0.0478031 3.21725 66 130 100
0.764137 -0.0467548 3.1894 152 223 197
-0.0301534 -0.0471486 3.29888 82 156 132
1.06493 -0.0444686 3.14916 96 171 150
-0.4033 -0.0460389 3.34912 99 170 150
-0.060602 -0.0429743 3.30099 46 143 93
-0.0639824 -0.0418429 3.30393 45 132 94
0.237783 -0.0407132 3.25667 76 145 134
-0.558727 -0.0412664 3.37201 101 168 129
0.541694 -0.0390002 3.21954 64 130 101
1.60183 -0.0372656 3.07039 79 143 131
-0.0618148 -0.0388391 3.30411 112 189 161
-0.0578967 -0.0385654 3.30453 53 130 96
-0.569134 -0.0385047 3.37299 64 147 115
-0.488533 -0.0366293 3.36101 149 218 185
0.497088 -0.0330413 3.22519 81 150 130
0.549182 -0.0314418 3.21857 94 159 144
-0.10171 -0.0319454 3.31401 66 127 113
-0.0635931 -0.0295608 3.30497 48 119 93
0.521714 -0.0276508 3.22023 163 238 200
-0.455875 -0.0294449 3.35967 110 175 150
1.0378 -0.0267331 3.15083 54 132 95
-1.7688 -0.0292662 3.59116 106 135 149
0.22854 -0.0258928 3.25925 93 164 161
0.277598 -0.0266231 3.2498 80 145 124
-0.120816 -0.025595 3.31272 102 165 149
-0.155568 -0.0256172 3.31539 87 159 136
1.53677 -0.0219594 3.07527 76 151 135
1.036 -0.0206393 3.15059 71 146 114
-1.48441 -0.022066 3.55201 94 153 133
1.02765 -0.0185851 3.15503 83 147 125
-1.39308 -0.0185769 3.53443 110 144 137
-0.324491 -0.0175089 3.3452 99 171 148
-0.114804 -0.0159458 3.31898 104 177 155
0.186619 -0.0152319 3.26509 81 152 136
0.74184 -0.0148328 3.19419 93 154 144
1.01963 -0.0153749 3.1558 159 224 209
-0.102471 -0.0150256 3.31197 146 216 193
-0.0863024 -0.0144332 3.31038 148 229 196
-0.434425 -0.0146162 3.3589 80 125 108
1.02631 -0.00780853 3.15583 59 131 108
-0.199863 -0.0074638 3.32411 88 166 143
-0.327998 -0.00549901 3.34836 92 165 149
1.4826 -0.00229712 3.08485 173 240 231
-0.0161862 0.000809171 3.30229 115 180 165
1.05365 0.00134351 3.15232 76 163 127
-0.0966925 0.00281969 3.31213 81 166 138
-0.0939144 0.00543953 3.3116 150 237 199
-1.27006 0.00551334 3.51775 176 233 208
-0.0839848 0.00581948 3.3093 90 177 141
1.02854 0.00675669 3.15506 75 154 133
-0.448156 0.008846 3.36568 109 185 161
-0.0769127 0.00841031 3.31511 71 154 116
-0.065107 0.0073059 3.30769 139 223 188
0.215441 0.00835161 3.26454 111 178 169
0.0722667 0.0091964 3.28381 90 160 147
1.31631 0.00876729 3.10949 86 164 140
1.05269 0.00935103 3.14817 86 157 137
-0.264053 0.0113941 3.33721 80 147 126
0.572507 0.0126659 3.21734 89 155 143
-0.371227 0.0138795 3.35562 110 171 151
0.287384 0.0139501 3.2549 82 157 136
-1.40847 0.0154843 3.5389 85 142 127
0.13328 0.0147435 3.27421 162 226 207
1.33069 0.0158633 3.10673 100 169 156
-1.74996 0.0181711 3.60044 213 241 248
-0.267681 0.0177234 3.33796 72 153 120
0.693124 0.0178208 3.19968 79 152 130
-0.444324 0.0211452 3.36696 74 133 105
0.527558 0.0205783 3.22418 102 176 164
-1.36186 0.0257605 3.53548 95 159 137
-0.168411 0.0261626 3.32419 159 224 198
0.106996 0.0260622 3.28066 96 165 150
0.630003 0.0254539 3.21042 102 165 156
-0.916197 0.0283319 3.44289 146 222 191
0.949353 0.0263508 3.16727 114 174 166
-2.02907 0.0304206 3.65287 156 163 183
-0.0789513 0.0290634 3.31522 72 150 119
-0.0708232 0.0295852 3.31571 169 243 207
-0.444187 0.0309488 3.36737 168 225 204
0.726938 0.0330491 3.19703 80 149 136
-0.0329203 0.0349275 3.30896 61 126 111
1.60498 0.0317424 3.06596 168 239 213
-1.27361 0.0378432 3.51937 63 131 106
-0.274633 0.0364367 3.33979 68 142 112
-0.20039 0.035675 3.33246 72 135 119
0.7093 0.0351187 3.19874 105 173 150
-0.134266 0.0372716 3.32631 82 150 119
1.04124 0.0357842 3.153 104 167 157
-0.195983 0.0386773 3.32969 153 215 199
-0.131315 0.0378155 3.32303 75 152 124
-1.97229 0.0418325 3.65267 167 191 213
-1.45349 0.0416534 3.54758 153 202 174
-1.87937 0.0431085 3.6307 234 252 255
-0.775846 0.0401533 3.42156 91 162 136
-1.18434 0.0442766 3.50345 95 148 134
-0.0860849 0.0439266 3.31966 79 165 141
-2.14233 0.0503318 3.68981 223 235 239
-0.149791 0.045628 3.32704 74 141 120
0.69264 0.0439581 3.20069 90 163 137
-1.52156 0.0526565 3.57429 124 163 155
-0.132833 0.0492365 3.32516 87 171 143
0.170564 0.0483972 3.27308 112 176 164
-0.0918285 0.0514783 3.3227 83 161 144
0.252973 0.0520199 3.25979 148 219 199
-0.0655322 0.0533235 3.31744 81 162 143
-1.12798 0.05732 3.48983 134 193 155
0.671327 0.0530167 3.20619 79 150 130
0.696821 0.0559431 3.20266 55 145 116
0.752276 0.0570306 3.19834 93 157 145
-0.0662306 0.0597977 3.31774 71 146 130
-0.0474722 0.0582285 3.31333 88 153 138
-0.362888 0.061795 3.35906 58 126 101
-0.12114 0.0616875 3.32525 75 146 136
0.23259 0.0602399 3.26699 150 225 204
-0.466354 0.0638936 3.37949 83 143 125
-0.0534868 0.0691009 3.31732 102 172 172
-0.460552 0.0750914 3.37835 71 139 122
0.215302 0.0737402 3.26826 93 163 146
0.234005 0.076103 3.26559 72 144 124
0.242373 0.0768874 3.26353 163 235 215
1.50513 0.0737104 3.07802 67 136 125
-0.165307 0.0799983 3.33284 74 137 135
0.354168 0.0786868 3.24958 73 129 116
1.3166 0.0762766 3.10772 167 227 217
-1.28731 0.0860692 3.53577 92 148 135
-0.397605 0.0827237 3.36715 81 155 125
-0.825384 0.0872766 3.42629 71 150 117
-0.013368 0.0842943 3.31332 88 141 131
-0.501868 0.0882483 3.38092 96 160 125
0.879852 0.0844474 3.1749 93 171 148
0.362102 0.0877425 3.25126 82 130 118
0.211426 0.0890181 3.27287 110 180 163
-0.436312 0.0926151 3.37999 178 232 209
1.45497 0.084567 3.08363 159 224 202
-0.161697 0.0927876 3.33075 87 182 162
-0.390507 0.0949918 3.3697 167 242 204
-0.316774 0.0959164 3.35614 87 163 132
-1.46275 0.10259 3.56976 148 184 170
0.618701 0.0924675 3.21347 174 233 225
1.63915 0.0888016 3.05308 149 213 191
1.65912 0.0885313 3.05387 64 135 118
0.615712 0.0947641 3.21619 104 170 158
-1.36268 0.105249 3.5558 102 171 150
-0.829447 0.101106 3.4285 55 135 118
-0.290005 0.0993039 3.35429 95 173 149
0.330145 0.0970532 3.25468 94 156 142
-0.385725 0.101386 3.36836 80 128 100
-0.177343 0.100905 3.33545 68 151 129
0.364576 0.0976745 3.24973 86 155 142
-1.62088 0.109016 3.60077 128 175 183
-1.15856 0.107007 3.51232 76 124 95
-0.32052 0.102519 3.36207 78 158 129
-0.411121 0.102296 3.3662 62 125 86
1.68131 0.094435 3.04451 70 129 101
-1.68852 0.11245 3.59647 225 249 255
-0.399046 0.105329 3.37137 85 164 131
-1.36103 0.113036 3.5563 102 163 153
-1.36116 0.113258 3.55703 102 163 153
-0.38962 0.107186 3.37398 134 204 173
1.65221 0.0974246 3.05288 83 134 120
1.5023 0.0982593 3.07724 95 162 141
1.74868 0.0974273 3.0313 94 164 141
1.61621 0.0997351 3.05726 154 222 187
-1.47317 0.117764 3.57801 91 137 124
-0.669606 0.112183 3.40477 163 230 199
-0.302375 0.111318 3.35675 72 139 112
1.13683 0.103991 3.13617 94 174 151
-1.51226 0.120537 3.58696 118 166 170
0.896528 0.108257 3.17427 92 178 148
-0.403273 0.114396 3.37102 77 144 99
-0.391408 0.114555 3.3693 173 242 209
0.769385 0.109731 3.19878 83 159 128
0.896702 0.108537 3.17507 92 178 148
0.446972 0.112174 3.23939 102 164 148
0.759973 0.113156 3.19597 75 146 113
0.770244 0.113013 3.19238 92 162 132
1.6528 0.108374 3.0512 95 155 137
-1.06721 0.124814 3.48939 60 120 96
0.361877 0.116111 3.25033 67 136 116
0.438712 0.115579 3.24241 91 153 141
-1.494 0.128648 3.58433 211 249 251
-0.364204 0.121072 3.36653 162 234 192
-0.343802 0.120854 3.36536 95 160 135
0.682826 0.115261 3.2074 83 147 112
-0.414055 0.123001 3.37683 119 175 146
0.880412 0.115727 3.17034 135 214 165
-1.90126 0.133506 3.64374 120 156 186
0.390724 0.119606 3.24642 93 169 151
0.806053 0.117201 3.18956 169 233 198
0.850353 0.116464 3.18256 86 155 140
1.63399 0.113169 3.05418 73 138 106
-1.78182 0.13463 3.61428 128 175 166
0.816594 0.11915 3.18668 143 214 187
1.22943 0.115923 3.11713 247 255 253
-1.67526 0.13566 3.60716 173 228 237
0.765289 0.119757 3.19763 57 148 109
0.708609 0.122501 3.20413 82 146 117
0.792457 0.122099 3.19314 93 158 133
0.459915 0.124725 3.2377 89 162 146
0.680736 0.122947 3.20737 50 116 87
-0.390831 0.130833 3.37444 83 158 120
0.764911 0.124734 3.19549 150 230 201
1.145 0.122749 3.13419 87 158 138
0.864075 0.125497 3.1797 155 217 193
1.6878 0.119387 3.04353 156 223 192
-0.0361991 0.131473 3.32254 67 139 139
0.452315 0.128507 3.23995 86 150 131
0.459801 0.129302 3.23946 152 223 203
0.906153 0.126679 3.17549 69 141 118
-0.503204 0.139468 3.39039 81 167 127
-0.399359 0.137947 3.3779 68 128 97
0.850232 0.13081 3.18209 83 154 134
-0.727594 0.141443 3.41332 54 141 91
-0.535688 0.13983 3.39267 177 237 203
0.799556 0.132646 3.19514 43 102 87
-1.72468 0.150674 3.62033 115 141 157
-0.505519 0.142393 3.39232 137 217 180
0.916042 0.133641 3.17203 71 141 124
-1.58737 0.153274 3.5963 135 170 180
0.832709 0.136331 3.18554 72 146 122
0.874627 0.136188 3.17957 134 208 184
0.796882 0.138661 3.19567 89 157 140
-1.1688 0.153039 3.52388 191 234 223
0.925795 0.138247 3.17148 68 138 125
0.680552 0.141009 3.21072 78 148 117
0.707092 0.142417 3.2039 97 158 138
1.41842 0.139113 3.08699 94 143 141
1.45373 0.138254 3.07962 214 255 251
0.806336 0.145083 3.19437 77 146 126
1.65511 0.137805 3.04917 79 154 116
0.177136 0.149584 3.27957 98 164 145
1.2357 0.142988 3.11684 105 161 156
-0.416876 0.154897 3.38137 148 234 192
-0.544365 0.156998 3.40218 156 219 193
0.178601 0.152591 3.27932 165 229 207
1.42202 0.144704 3.08464 51 98 95
0.59177 0.15174 3.21992 81 158 124
0.194404 0.155655 3.27682 69 135 100
0.99883 0.149483 3.15841 96 161 146
-2.00083 0.173442 3.66315 73 135 143
-0.544752 0.162113 3.40869 93 160 131
0.189619 0.15578 3.27794 173 234 200
0.601721 0.153988 3.21829 70 153 121
1.2472 0.151349 3.11671 88 159 143
-0.589393 0.165683 3.41261 66 132 97
1.26018 0.152337 3.11139 144 217 195
1.46846 0.149893 3.07838 140 217 189
1.68608 0.148906 3.04238 75 131 110
0.672501 0.157365 3.21016 155 235 206
1.21743 0.153233 3.1205 83 148 133
-0.414942 0.167451 3.38515 195 236 221
0.129708 0.163945 3.29154 84 150 131
1.47274 0.152665 3.07684 157 230 198
-0.428895 0.169059 3.38472 162 237 205
-0.925386 0.174832 3.47511 81 143 137
0.73281 0.16158 3.20368 97 167 150
0.764878 0.162077 3.19922 64 135 119
-1.74189 0.185312 3.63184 109 137 144
-0.959615 0.177623 3.48276 73 145 132
1.4415 0.157302 3.07834 106 171 155
1.45389 0.15828 3.07984 98 155 134
-1.74411 0.188008 3.63055 223 237 243
1.00273 0.165041 3.15959 81 137 114
1.39515 0.161362 3.08519 98 163 137
1.45332 0.161216 3.08216 141 205 176
0.981419 0.166898 3.16217 82 157 129
0.7595 0.16939 3.19967 86 168 149
1.28437 0.165033 3.10848 161 226 201
0.477096 0.172732 3.23858 47 113 94
0.576456 0.17217 3.22439 81 149 132
0.602286 0.171943 3.22058 91 161 125
1.29197 0.166198 3.10451 77 131 114
0.592208 0.173163 3.21892 160 230 199
1.32311 0.16595 3.10188 229 255 251
1.37017 0.165891 3.091 95 155 137
1.39368 0.165379 3.08817 73 137 118
-1.73778 0.194898 3.63462 192 227 230
1.32943 0.168361 3.09898 109 164 149
1.33559 0.167861 3.09809 92 151 130
1.44537 0.16817 3.07901 95 156 128
1.49169 0.167299 3.07659 167 223 202
-1.70118 0.198504 3.63087 156 151 148
0.969667 0.172565 3.16361 127 199 176
1.30856 0.170058 3.10174 74 127 100
1.40375 0.168772 3.08625 68 139 122
1.57801 0.166963 3.05549 149 210 182
1.1387 0.17217 3.1352 81 153 140
1.02468 0.174319 3.15516 40 113 81
1.38338 0.172306 3.08934 173 231 213
0.151068 0.183861 3.28678 161 226 210
0.743187 0.180394 3.20273 89 168 149
-0.557936 0.193469 3.41321 89 149 125
0.95798 0.18012 3.1662 76 148 128
-1.57102 0.207138 3.59388 189 214 216
-1.4437 0.208125 3.59253 216 255 247
-1.66021 0.209083 3.59909 187 227 225
-0.545998 0.198574 3.41165 154 222 191
0.719916 0.186824 3.20646 72 139 124
1.04285 0.183903 3.14959 85 158 126
1.58978 0.180396 3.05309 140 207 170
0.335037 0.19455 3.26136 114 174 164
1.26342 0.186673 3.1122 90 156 131
1.38721 0.184827 3.08605 143 204 184
0.404315 0.195939 3.2505 61 140 129
