ply
format ascii 1.0
element vertex 1273
property float x
property float y
property float z
property uchar blue
property uchar green
property uchar red
end_header
-1.28249 -0.96124 4.03684 68 123 96
-1.21229 -0.999613 4.20715 102 138 124
-1.28661 -0.955828 4.02611 92 155 123
1.25904 -0.932395 4.00323 91 188 148
1.34811 -0.89321 3.88343 95 138 111
-0.845425 -0.970585 4.23597 141 221 192
-0.847879 -0.970476 4.2513 138 185 159
-0.804223 -0.921863 4.24723 133 174 147
-0.0498242 -0.930912 4.29363 98 157 143
1.40401 -0.828701 3.83067 79 181 134
-0.646001 -0.907214 4.277 97 182 167
1.17644 -0.854279 4.03206 167 241 199
-0.648597 -0.900898 4.27107 138 213 205
-1.07787 -0.856834 4.10639 181 183 153
-1.44279 -0.834066 4.037 164 228 193
1.41029 -0.776562 3.81111 146 253 210
0.87653 -0.887088 4.35892 114 162 144
-0.0704549 -0.834798 4.29065 182 228 216
-1.18496 -0.758909 3.97557 129 207 166
1.17172 -0.756337 4.01191 109 206 166
-2.00665 -0.777372 4.18423 123 170 148
1.51564 -0.688425 3.80543 108 166 137
-0.861339 -0.732829 4.05953 164 205 168
-1.21153 -0.680636 3.913 44 114 74
-0.790134 -0.694405 4.00962 155 224 187
-1.04357 -0.677487 3.93146 163 233 203
1.45969 -0.659949 3.82713 81 205 159
1.37873 -0.641465 3.78218 133 208 164
-0.828443 -0.660588 3.99301 75 136 92
1.47914 -0.618413 3.79295 116 243 187
1.64401 -0.620398 3.82674 131 175 136
-0.957148 -0.634381 4.00559 137 204 183
1.49817 -0.594176 3.79219 134 255 211
-0.815193 -0.620737 3.98684 140 179 147
1.12527 -0.616466 3.96932 137 221 192
1.76694 -0.59927 3.93267 124 216 173
-1.02578 -0.586949 3.92961 178 244 202
-1.12428 -0.583518 3.93297 174 220 197
-1.76545 -0.607962 4.1396 110 176 157
-1.15623 -0.578022 3.92919 87 112 102
1.84463 -0.575923 3.94363 76 139 107
-1.18939 -0.570462 3.92869 170 197 177
-1.22375 -0.549389 3.85742 120 237 210
-1.12874 -0.555878 3.93311 106 125 108
-1.13568 -0.550761 3.93209 133 150 141
-1.12811 -0.546754 3.92713 205 238 224
-1.12159 -0.544282 3.92512 103 127 115
-1.11819 -0.543332 3.92907 171 204 189
1.40037 -0.522762 3.79227 92 200 164
-1.18561 -0.525237 3.92384 203 233 220
-0.0919232 -0.503467 4.35269 132 173 146
-1.18497 -0.446861 3.90519 116 176 158
0.671301 -0.494111 4.39688 175 227 217
-0.0545891 -0.484693 4.36145 130 196 185
-0.0989714 -0.45671 4.36713 130 185 160
-0.110696 -0.452335 4.36498 125 152 136
-0.111173 -0.442531 4.35736 138 181 168
1.67971 -0.402042 3.9622 70 172 137
-0.104933 -0.434741 4.36446 168 223 208
-2.48291 -0.416342 4.2421 199 226 216
-0.12101 -0.40587 4.37104 95 166 150
0.962658 -0.365197 3.92868 126 167 160
0.985201 -0.356363 3.93396 180 217 215
0.98724 -0.354754 3.92592 109 143 137
1.00113 -0.351394 3.94284 107 150 139
0.981798 -0.348277 3.9346 172 195 187
0.086742 -0.382137 4.39116 153 225 213
-0.147574 -0.372815 4.36098 127 157 144
0.942478 -0.329533 3.90367 114 175 165
-2.18874 -0.352821 4.2544 212 225 223
-2.16329 -0.349576 4.24793 158 179 181
-2.175 -0.346664 4.26131 187 215 215
0.947584 -0.315464 3.89379 125 165 163
-2.17663 -0.335689 4.26855 80 84 89
-0.107375 -0.34017 4.38517 151 216 201
-0.198353 -0.297743 4.38656 152 200 188
-0.206026 -0.288282 4.3635 146 214 191
-0.211191 -0.285836 4.3849 91 139 127
-1.88195 -0.271203 4.26863 128 192 180
1.26219 -0.236929 3.79305 150 235 183
-0.0678382 -0.207295 4.41439 123 183 173
-0.0471628 -0.206614 4.40986 136 194 170
-0.340572 -0.196294 4.40117 151 217 198
-2.23627 -0.173687 4.2077 155 235 188
-0.26783 -0.169305 4.40473 108 174 162
-0.0126665 -0.162417 4.41448 179 231 213
0.0699863 -0.151825 4.43485 70 133 113
-0.00243422 -0.142627 4.40446 171 222 194
-0.0277878 -0.139235 4.40098 170 236 207
-0.141218 -0.139358 4.40269 171 234 224
-1.92896 -0.130871 4.20288 92 167 139
-0.181956 -0.127742 4.40947 94 153 138
-0.509984 -0.10104 4.40565 128 168 143
-0.512516 -0.0761226 4.41627 112 140 121
-0.452768 -0.0755812 4.41754 179 238 210
2.53949 -0.0778105 4.64389 105 182 138
0.105565 -0.0662979 4.44718 157 228 211
-0.59386 -0.0595774 4.39128 95 128 121
-0.621982 -0.0203289 4.38624 151 209 185
-0.339455 -0.00549056 4.43503 146 208 192
-0.284706 0.0499471 4.43981 170 213 202
-0.404382 0.0558861 4.44722 137 191 156
-0.306756 0.0627928 4.45589 174 208 198
0.676054 0.0650745 4.53847 151 220 199
-0.542347 0.0718136 4.44975 85 173 143
-0.425682 0.0782447 4.44186 139 203 181
-0.0471187 0.0808869 4.46643 83 158 137
-0.105875 0.0915379 4.47754 115 165 153
0.112841 0.104546 4.49345 154 229 201
-2.23404 0.137198 4.17661 145 196 169
-0.377446 0.158925 4.48024 94 165 148
-2.26379 0.151502 4.18178 94 144 110
-0.577442 0.16774 4.46976 105 161 142
-2.19003 0.207657 4.18317 129 143 119
-0.593335 0.223988 4.47248 146 211 172
-2.18811 0.219091 4.16818 140 160 118
-2.22675 0.252206 4.16566 104 138 98
0.0838952 0.273246 4.53496 92 150 145
-1.87018 0.267061 4.34956 41 110 77
2.48046 0.325347 4.74262 146 235 185
-0.604974 0.334904 4.5126 134 199 167
-0.869908 0.342114 4.4822 83 147 112
-2.13015 0.341637 4.41142 138 164 151
-1.76876 0.336917 4.31072 165 216 189
0.0935678 0.363722 4.54969 171 224 211
-0.930529 0.369015 4.4979 70 134 99
-0.802495 0.379774 4.4948 126 172 150
-0.710597 0.387585 4.50996 144 181 155
-0.944245 0.391148 4.49425 156 221 196
-0.866303 0.392212 4.4811 62 110 92
-0.919142 0.396761 4.50264 113 155 132
-0.906241 0.395441 4.49799 43 97 68
-0.926886 0.402987 4.49595 52 91 70
-0.92024 0.405791 4.48868 145 196 176
-0.946143 0.412255 4.49765 47 88 61
-1.70388 0.423843 4.47149 106 160 131
-0.0588288 0.46161 4.58129 74 146 124
-0.369554 0.459694 4.54148 145 191 168
-0.704045 0.461478 4.50349 32 71 56
-0.479379 0.463721 4.5091 125 176 142
-0.982185 0.461814 4.48909 184 222 204
-0.0266875 0.47119 4.56333 78 153 131
-0.709303 0.463954 4.49557 63 108 92
-0.0260788 0.478404 4.58569 77 152 136
-0.858281 0.459619 4.39649 61 86 66
-0.703211 0.471857 4.4766 139 184 167
-0.846082 0.46658 4.39291 97 141 124
-2.10051 0.477795 4.40195 44 98 68
-0.952026 0.488568 4.47401 156 199 186
-2.09205 0.483997 4.40901 77 147 111
1.38872 0.532899 4.7129 99 176 138
-2.36615 0.487131 4.28632 202 236 196
-0.763077 0.50739 4.43689 148 229 184
-0.280963 0.521441 4.57004 192 238 232
-0.292945 0.526838 4.57616 168 221 212
-2.08848 0.513755 4.40404 90 137 128
-0.776298 0.521828 4.44249 71 117 94
-1.71416 0.524781 4.42838 101 139 117
-0.908555 0.525538 4.43282 196 235 213
-0.575838 0.541775 4.54791 50 80 69
-0.848258 0.52993 4.4051 118 165 132
-0.77995 0.537898 4.4497 106 148 117
-0.965517 0.546519 4.44112 153 189 159
-0.572497 0.561782 4.55776 131 174 163
-2.18733 0.543948 4.38176 101 147 118
-2.13985 0.548494 4.38838 146 206 172
-0.961426 0.558969 4.43211 163 220 187
-0.561319 0.576408 4.54464 126 172 149
-0.618477 0.575076 4.53054 123 156 135
-2.07971 0.565855 4.40594 134 191 166
-0.57118 0.584506 4.54126 144 168 136
-0.820141 0.575011 4.44694 151 213 183
-0.453231 0.582869 4.4733 90 140 116
-1.69165 0.58737 4.45858 144 185 164
-1.6692 0.591557 4.46528 131 187 174
0.0223663 0.617602 4.62223 70 142 129
-2.13493 0.590207 4.40205 164 228 199
-1.93584 0.587083 4.38459 53 105 88
-0.802944 0.592601 4.42811 60 142 93
-2.06031 0.592101 4.40482 55 89 72
-0.759647 0.600642 4.47425 118 140 121
-0.452175 0.601871 4.48173 156 179 157
-2.13202 0.597416 4.40429 165 229 194
-2.10475 0.602304 4.40533 99 172 140
0.500159 0.640922 4.67636 91 157 145
-2.13767 0.615024 4.40313 75 123 99
0.252564 0.652219 4.63391 115 168 155
0.315447 0.674888 4.67633 130 204 192
-0.772969 0.648566 4.45744 162 210 181
-0.746734 0.657089 4.46517 71 116 90
-1.51032 0.673966 4.51008 159 203 186
-1.28768 0.670234 4.46211 145 193 165
-0.0745224 0.694516 4.63204 86 158 136
-0.999546 0.681675 4.5028 56 92 78
-0.747246 0.679043 4.47644 64 93 67
-0.711258 0.679854 4.47646 172 225 192
-0.702784 0.676075 4.45414 78 122 93
-2.28823 0.676768 4.43286 90 150 120
-0.720805 0.680149 4.46052 121 162 135
-1.67987 0.683379 4.46052 164 219 194
1.47406 0.739845 4.7834 96 163 136
-2.08951 0.682597 4.40184 149 194 175
1.51447 0.74483 4.79349 103 177 151
-2.25583 0.690346 4.4187 77 104 88
-0.827302 0.698976 4.48538 47 89 71
-0.773096 0.700526 4.48503 50 87 71
-2.2557 0.692151 4.40465 145 203 168
-0.229277 0.725773 4.62624 63 112 96
-2.30695 0.693654 4.4078 34 84 50
-1.59679 0.711229 4.49461 140 205 166
-2.30985 0.701504 4.42566 110 170 139
-1.54778 0.735946 4.53482 161 216 189
-2.31131 0.718473 4.41198 135 209 167
-0.71299 0.714609 4.38717 131 175 152
-0.185177 0.772124 4.6564 160 184 176
-0.167736 0.77436 4.64712 143 189 167
-0.808254 0.744863 4.46276 83 109 93
-1.57161 0.755282 4.52149 167 213 190
-2.0047 0.749073 4.45129 152 187 177
-0.848517 0.754421 4.47594 150 181 160
-0.666723 0.730933 4.32955 139 154 126
-0.850908 0.762044 4.47946 56 90 66
-0.659646 0.73823 4.31589 150 194 171
-1.58527 0.774996 4.51845 126 161 135
-0.671945 0.748125 4.31965 153 202 170
-0.672724 0.748772 4.32126 143 189 160
-1.61636 0.786466 4.51967 89 119 108
-1.62248 0.794192 4.52167 125 172 146
-1.43107 0.789833 4.49077 154 218 189
-0.167439 0.824947 4.66439 171 202 201
-1.63063 0.804218 4.52174 55 91 74
-1.6086 0.803065 4.50404 137 176 144
-1.31058 0.800506 4.48498 154 223 186
-1.6063 0.808413 4.5057 57 85 62
-1.21849 0.811354 4.49611 56 83 63
-1.21982 0.812613 4.49924 56 83 63
-2.06738 0.80995 4.46167 66 103 87
1.7011 0.874444 4.82054 157 239 196
-2.00785 0.812707 4.4492 141 206 167
-1.58543 0.822239 4.49934 151 180 147
1.19843 0.871674 4.77059 82 158 124
-1.94087 0.819817 4.4602 55 110 71
-1.90976 0.823463 4.47679 136 186 152
-0.300045 0.847864 4.61195 173 218 201
-1.99018 0.81985 4.44414 81 136 89
-1.95624 0.82361 4.46345 41 99 71
-1.41978 0.830093 4.50007 18 60 25
-1.92266 0.822945 4.4519 175 223 171
-1.43273 0.828528 4.48315 118 168 138
-0.727918 0.799914 4.32809 178 232 202
-1.22881 0.83413 4.50387 124 156 131
-1.23809 0.834057 4.50204 143 193 161
-0.787267 0.79672 4.28567 45 80 60
-0.720637 0.803196 4.32712 95 171 139
-1.91117 0.833773 4.46524 129 162 125
-1.23574 0.841958 4.50346 146 174 144
-0.273709 0.868188 4.62419 75 102 92
-1.5728 0.848485 4.50653 46 95 75
-1.81785 0.846417 4.48421 175 232 207
-1.44504 0.849773 4.48924 98 130 99
-2.15027 0.845042 4.45056 154 248 194
-1.47902 0.844094 4.44796 113 188 144
-1.45001 0.850224 4.47481 141 179 161
-1.89226 0.853724 4.47873 95 152 121
-2.0602 0.858646 4.48325 100 165 139
-0.104265 0.894522 4.66928 169 228 183
0.101343 0.903131 4.71023 87 153 128
-1.57994 0.863026 4.49554 50 124 82
-0.107253 0.902846 4.6756 79 135 100
-1.43274 0.860534 4.45255 106 148 123
-1.81698 0.871983 4.50493 118 149 118
-1.5136 0.86057 4.45147 123 183 149
-1.59228 0.871529 4.49509 149 224 192
-1.50692 0.864758 4.45974 134 202 161
-1.88948 0.868699 4.47337 158 184 160
-0.0795629 0.905781 4.6698 177 245 204
-1.59218 0.872543 4.48216 59 101 78
-1.57685 0.87427 4.47041 90 154 108
-0.601628 0.890368 4.55113 127 160 139
0.0923284 0.921528 4.70798 77 126 112
-1.83573 0.884683 4.49932 142 170 151
-1.50624 0.876305 4.45336 150 222 176
-1.47657 0.878689 4.46489 39 99 65
-0.145575 0.922084 4.67911 159 210 176
-1.31044 0.888825 4.50074 173 231 202
1.08641 0.945939 4.77616 111 160 144
-0.593069 0.895573 4.51276 181 245 210
-1.61123 0.891478 4.48324 109 164 131
-0.14843 0.927997 4.67129 164 218 183
-1.28749 0.89171 4.48296 61 107 71
-1.05411 0.917316 4.6096 161 199 201
-0.40875 0.905923 4.54417 129 177 178
-1.39043 0.893987 4.46562 159 180 165
0.732903 0.956529 4.78051 93 171 154
1.19872 0.962933 4.79832 80 129 109
-1.90086 0.900598 4.48241 177 219 188
-1.06221 0.928145 4.60856 174 222 224
-1.60774 0.903601 4.476 175 211 181
-2.12435 0.901327 4.44478 147 177 148
-1.60017 0.907314 4.47197 41 79 51
-1.19301 0.928263 4.56381 92 123 114
-1.54854 0.905968 4.44693 155 231 189
-1.26143 0.909805 4.46782 111 156 117
1.44874 0.987798 4.82691 99 176 132
1.48555 0.984748 4.81837 86 153 122
1.52679 0.988844 4.83565 99 172 140
-1.82701 0.928749 4.52471 106 144 122
-1.58035 0.922471 4.47108 168 221 201
-2.06993 0.924694 4.47557 177 239 217
-1.53026 0.924598 4.45264 99 162 112
-1.1492 0.959598 4.61903 118 144 138
-1.8328 0.943773 4.52752 129 159 140
-1.08591 0.960063 4.60661 170 218 206
1.46162 1.01005 4.82893 77 141 111
-1.32964 0.943606 4.50559 132 175 142
-0.243667 0.978409 4.67639 151 222 189
0.031932 0.993131 4.73823 163 237 211
-2.0197 0.946316 4.49549 157 231 189
-0.230988 0.983092 4.66984 121 174 147
-0.106173 0.98815 4.69951 154 217 178
-1.43249 0.941517 4.47734 91 124 103
-1.76882 0.952174 4.51233 65 102 64
-0.0802064 0.999439 4.71438 130 184 155
-2.21875 0.948068 4.45315 148 194 158
-1.42762 0.956476 4.48187 71 130 92
-0.726629 0.972279 4.53334 73 144 101
-1.66074 0.969776 4.49276 82 99 78
-1.44249 0.969438 4.48009 89 118 93
-1.4563 0.974976 4.47471 49 79 50
-1.94544 1.0044 4.52058 184 228 205
1.26579 1.07813 4.83492 175 239 204
-1.08063 1.03535 4.62973 147 187 175
-0.706331 1.02408 4.55737 90 128 110
-1.34242 1.02099 4.53308 0 46 10
0.00479964 1.07014 4.74288 161 232 215
-1.09525 1.05197 4.6211 117 158 151
-0.837596 1.04273 4.56632 64 126 96
-1.33522 1.0349 4.52877 40 66 36
-0.831828 1.04339 4.56851 151 202 194
-1.26236 1.05233 4.56929 116 142 119
-0.85908 1.05849 4.58524 128 197 177
-1.2578 1.05645 4.56164 119 132 110
-1.23377 1.0534 4.531 151 204 165
-1.31985 1.05316 4.52135 131 156 128
-1.41491 1.03411 4.43623 176 209 195
1.51208 1.13823 4.87789 77 134 113
-0.216008 1.10779 4.72844 68 100 75
-1.35027 1.06218 4.53329 132 179 141
-1.51483 1.05092 4.46418 105 155 131
-1.49678 1.04977 4.45193 164 203 188
-0.0817718 1.12778 4.74892 171 240 207
-1.64688 1.07169 4.49817 47 86 61
-1.65449 1.08429 4.49039 119 201 159
2.09739 1.21253 4.98459 240 255 253
-0.998571 1.1368 4.65055 167 222 213
-1.32932 1.10098 4.49635 110 138 109
-1.43039 1.0945 4.46382 88 117 91
0.867674 1.19636 4.85934 81 150 117
0.774346 1.22009 4.85746 162 220 191
-0.971458 1.17281 4.6499 80 136 125
-1.45466 1.14078 4.47775 152 171 154
-0.144695 1.22108 4.7644 166 225 204
-0.716982 1.26467 4.72138 153 204 184
0.00898748 1.29403 4.81033 87 157 127
-1.63472 1.21967 4.50756 158 221 177
-1.72519 1.2284 4.4096 156 226 189
-2.24534 1.2864 4.60873 64 97 82
1.46403 1.38884 4.96687 81 137 118
-1.29257 1.28222 4.56292 154 201 163
-1.71015 1.24163 4.39462 83 134 100
-1.69884 1.24038 4.39079 77 133 98
-1.56285 1.2688 4.48367 69 88 73
1.55364 1.41767 4.97565 44 87 54
-1.5924 1.28789 4.50326 155 225 184
-1.84489 1.2763 4.42021 132 196 166
-1.56651 1.29608 4.4888 178 215 183
1.18717 1.43188 4.94172 86 159 127
-2.21877 1.34328 4.62907 163 235 199
1.15053 1.44871 4.94794 95 154 126
1.16027 1.46186 4.94202 136 212 171
1.31279 1.4667 4.95967 78 137 106
-0.973112 1.42245 4.78904 81 143 125
1.34046 1.46421 4.92745 106 153 107
-1.50375 1.34548 4.46847 89 145 122
-1.33892 1.39051 4.5501 137 156 139
1.27985 1.52037 4.96077 128 152 128
-0.563261 1.48821 4.85436 182 224 237
-1.01971 1.47737 4.80522 127 194 163
-1.90771 1.37872 4.48654 65 136 103
-1.03037 1.4869 4.80967 73 119 96
-1.44278 1.38968 4.4811 131 170 148
1.03243 1.55022 4.97902 159 190 213
-1.87152 1.3975 4.46647 130 188 153
1.09201 1.56302 4.97944 136 185 171
-1.89572 1.44202 4.49029 121 202 169
-1.44404 1.49675 4.51287 61 106 89
0.412868 1.66071 4.97112 86 140 140
1.05211 1.66718 4.99416 111 128 101
0.458733 1.67123 4.98319 150 218 183
1.02466 1.70637 5.02047 149 186 166
0.996061 1.70051 4.99779 155 204 196
1.00962 1.70908 5.01988 58 84 66
0.697588 1.71879 5.00481 148 209 183
-1.35954 1.56035 4.54383 150 205 166
-1.36304 1.57439 4.54557 145 218 178
-1.39804 1.59423 4.56806 149 198 160
-1.38131 1.58958 4.54756 50 91 64
0.774975 1.75824 5.03142 163 232 205
-0.707255 1.73555 4.92984 79 169 134
0.799253 1.77643 5.03519 91 167 125
-1.38137 1.61341 4.56305 164 208 172
-1.3819 1.62238 4.55444 136 193 160
-1.40798 1.63607 4.56313 155 222 185
-1.3972 1.64587 4.56833 180 218 176
-1.43745 1.6455 4.55623 36 64 35
-0.770531 1.78372 4.9386 63 112 90
-1.42997 1.65638 4.55319 161 208 175
-1.44589 1.65548 4.5455 146 195 163
-0.352125 1.82308 4.95302 139 198 167
-0.349505 1.8315 4.96083 128 159 130
-1.46096 1.69038 4.5607 127 174 142
-0.315311 1.84275 4.96272 142 208 179
-1.42461 1.69334 4.55788 169 194 168
-1.48141 1.68777 4.5419 53 101 65
-1.15412 1.8255 4.89906 115 145 132
-1.46075 1.69801 4.54738 138 198 164
-0.340241 1.85067 4.95381 165 213 187
-1.47788 1.72299 4.54892 115 175 141
-0.735353 1.88792 4.97805 67 121 98
-0.749519 1.89905 4.96076 87 149 131
-0.395656 1.92132 4.99978 78 127 99
-1.19685 1.86983 4.84243 117 153 129
0.435064 1.99441 5.07754 185 240 223
0.585194 1.99417 5.07626 149 204 165
0.414417 2.01903 5.09823 146 212 177
0.617566 2.01805 5.0909 52 105 65
-0.991104 1.97301 4.96998 157 220 181
0.38167 2.02866 5.09111 143 202 158
0.626316 2.01763 5.05138 176 220 183
0.33588 2.0406 5.10297 101 163 123
0.425696 2.05017 5.10374 64 102 80
-1.00506 2.01118 4.99314 61 106 73
0.27677 2.06601 5.10666 153 238 206
-1.51472 -1.5212 4.10382 124 180 169
-1.67548 -1.49056 4.04168 114 149 139
-1.63314 -1.48829 4.08041 78 154 142
-1.56357 -1.45898 4.09741 90 141 134
-1.45587 -1.44585 4.06539 96 135 119
-0.286149 -1.45617 4.20303 109 168 153
-1.71415 -1.41048 4.08023 160 219 204
-1.45385 -1.4113 4.09042 187 230 215
-1.58543 -1.40346 4.08905 113 180 165
-1.41788 -1.40765 4.11881 115 142 126
-1.46956 -1.39875 4.1028 90 147 139
-1.62476 -1.37525 4.08631 40 96 83
-1.58546 -1.35978 4.09835 166 235 222
-1.62983 -1.35577 4.08988 70 133 123
1.09477 -1.4051 4.31936 104 166 148
-1.68086 -1.32858 4.08881 114 173 158
-1.38071 -1.33958 4.14286 156 229 213
-1.53439 -1.3131 4.08245 160 222 208
-0.108768 -1.3557 4.22629 117 173 160
-1.49501 -1.31654 4.11046 80 121 114
-1.50052 -1.31304 4.12399 157 224 209
-1.27563 -1.32725 4.15668 95 161 142
-1.59487 -1.29964 4.1022 102 145 134
-1.63002 -1.29861 4.11666 70 129 109
-1.95653 -1.24102 4.08549 107 110 118
-1.61717 -1.25385 4.15208 82 139 131
-1.02778 -1.24758 4.16897 151 224 186
-1.68285 -1.22759 4.14506 108 158 148
-1.29022 -1.22941 4.17753 176 211 207
-0.855111 -1.20531 4.21616 89 149 138
-1.49387 -1.18596 4.17197 119 173 160
-1.59689 -1.18372 4.16285 76 123 101
-0.0687069 -1.19936 4.2482 113 181 170
1.64273 -1.22383 4.37544 159 226 181
-1.29865 -1.14805 4.18449 133 187 180
-1.87151 -1.07866 4.1737 97 153 140
1.53671 -1.07883 4.1719 95 137 130
1.58259 -1.06235 4.11763 142 207 185
-1.13733 -1.05799 4.16662 83 138 113
-0.984282 -1.05597 4.22342 141 197 178
-1.7029 -1.02089 4.16476 138 181 144
0.141526 -1.04596 4.28672 98 169 152
-0.700051 -1.01732 4.25883 90 152 128
-2.23575 -0.99608 4.16766 147 201 184
-1.29193 -0.958205 4.01699 156 238 209
-0.704632 -1.01364 4.24606 165 230 205
-0.719407 -0.99448 4.23694 104 176 156
-0.695295 -0.989906 4.24962 156 219 209
1.47095 -0.89241 3.82577 124 208 173
-0.850982 -0.973318 4.24186 139 229 199
-1.3593 -0.933156 4.07523 166 249 227
1.39219 -0.865102 3.8415 165 233 198
-0.790329 -0.955018 4.26338 155 221 210
1.4184 -0.849974 3.84426 127 246 195
-0.69263 -0.924628 4.25062 70 107 91
-0.801325 -0.92648 4.25423 84 122 100
-0.645682 -0.907357 4.27059 93 171 154
-0.610304 -0.900813 4.26877 162 236 210
-1.09237 -0.859508 4.10492 147 151 116
-0.196678 -0.898134 4.29517 163 217 204
-1.94791 -0.859707 4.14915 146 170 160
0.825329 -0.897423 4.36185 114 165 157
-1.12065 -0.808513 4.03355 158 224 199
-0.712398 -0.84355 4.26785 151 186 166
-1.0144 -0.786871 3.99195 146 211 189
-1.96055 -0.797581 4.17027 56 105 85
0.407619 -0.8294 4.35049 116 170 170
0.912579 -0.810337 4.30988 102 167 146
0.118168 -0.810054 4.32496 96 187 166
-0.966927 -0.749983 4.00994 134 192 167
-1.00204 -0.740931 4.00246 127 164 138
-1.85234 -0.773775 4.19441 86 135 113
1.59844 -0.677644 3.80592 119 160 123
1.62113 -0.659925 3.80558 78 189 151
1.61919 -0.657282 3.81076 150 231 198
-1.10126 -0.672722 3.95063 54 80 64
1.37861 -0.641533 3.78145 133 208 164
1.32461 -0.630052 3.74219 63 139 107
1.36713 -0.634627 3.7841 137 202 157
1.38136 -0.630413 3.79135 72 133 105
-0.889749 -0.654218 4.00226 70 112 81
-0.898768 -0.655097 4.01473 128 162 131
1.47962 -0.618302 3.79405 116 243 187
-0.953254 -0.639601 4.00712 61 105 92
-1.98263 -0.662969 4.15234 160 199 191
-0.901108 -0.632886 4.00995 135 192 154
-0.914855 -0.631672 3.99935 76 129 96
-1.08391 -0.603183 3.93351 156 224 177
-1.76511 -0.620864 4.13791 107 167 143
1.75421 -0.590884 3.93293 115 218 160
-2.56915 -0.6126 4.17135 118 138 125
-1.15681 -0.578618 3.9319 85 108 94
1.47114 -0.550439 3.76284 133 228 183
-1.18919 -0.569724 3.93165 177 206 183
1.26816 -0.562161 3.87552 126 243 186
1.4537 -0.545201 3.75917 98 204 165
-1.13648 -0.550467 3.93467 133 150 141
-1.84486 -0.569054 4.13568 111 199 153
0.861803 -0.559949 4.26562 101 184 159
1.4069 -0.48323 3.77952 44 131 93
-0.108139 -0.535978 4.33954 171 233 211
-2.19017 -0.492034 4.23614 196 210 209
-0.052307 -0.480229 4.35107 146 216 203
-2.17013 -0.452629 4.22574 73 78 77
-0.0909872 -0.466294 4.36387 79 128 106
-0.0895458 -0.456555 4.35527 157 235 204
-0.08245 -0.451305 4.34696 182 247 215
-0.0633881 -0.438673 4.3691 109 163 150
1.69006 -0.389828 3.96185 87 167 132
1.6647 -0.380023 3.96845 194 255 222
-0.121052 -0.40613 4.36914 95 166 150
0.988529 -0.351896 3.93097 83 115 114
0.981811 -0.34841 3.93377 172 195 187
-2.41362 -0.374432 4.25914 85 140 131
-2.27923 -0.366053 4.27452 148 190 179
-0.0897587 -0.367124 4.39014 87 148 134
-2.18891 -0.352832 4.25433 193 204 201
-2.48509 -0.306403 4.25914 170 228 203
-0.227386 -0.292617 4.35866 114 146 121
-0.227818 -0.290501 4.37169 104 127 105
-0.205772 -0.287459 4.36853 152 223 196
1.25603 -0.245241 3.7906 83 137 102
-0.237648 -0.24742 4.39692 177 240 230
-1.73563 -0.203978 4.23976 155 235 200
-2.23649 -0.173321 4.20955 164 242 195
-1.85476 -0.172517 4.23208 166 233 182
-0.377237 -0.161474 4.38939 120 155 141
-0.107857 -0.15246 4.4222 82 122 110
-1.82797 -0.13502 4.24774 134 187 173
-1.82124 -0.12697 4.26254 56 85 82
0.012603 -0.130298 4.4068 167 221 204
-0.189426 -0.124142 4.41584 78 144 132
-0.514412 -0.0953246 4.39844 66 95 69
0.439133 -0.06318 4.49092 96 160 164
0.327461 -0.0587752 4.47019 122 175 165
-0.509057 -0.0458055 4.41131 118 157 132
0.316816 -0.039319 4.477 243 255 253
-0.617146 -0.0297696 4.38271 151 187 170
-0.344262 0.00525747 4.44554 171 238 207
-0.521331 0.0252338 4.43639 66 136 113
2.62367 0.0561924 4.65312 151 224 168
-0.111729 0.054946 4.45413 148 204 185
-0.31143 0.0625521 4.45733 116 157 142
-0.552265 0.0674382 4.43504 78 159 132
-0.542345 0.0716984 4.44927 85 173 143
-0.430992 0.102477 4.44169 157 228 208
-1.91511 0.105686 4.29573 53 89 72
0.112948 0.11439 4.49253 84 144 134
0.0782745 0.116937 4.49026 102 162 156
-0.390317 0.125767 4.46849 99 167 144
-2.26339 0.122956 4.18107 85 123 93
-2.32825 0.143803 4.18204 102 132 103
-0.377617 0.159048 4.48072 102 174 154
-2.21436 0.155456 4.17406 170 224 187
-2.304 0.168074 4.17138 168 233 187
-2.21353 0.174718 4.17392 61 84 62
-0.208867 0.194233 4.48084 81 151 134
-2.20936 0.187526 4.18539 94 142 100
-2.35198 0.190126 4.18439 160 205 172
-0.561188 0.205388 4.48689 83 154 121
-2.19765 0.22199 4.16886 90 121 84
-2.23339 0.240162 4.15775 189 241 194
-2.25172 0.245987 4.16625 122 168 139
-1.80985 0.273421 4.33743 135 216 171
-0.0214289 0.307905 4.50388 97 162 136
-0.834903 0.310393 4.49134 54 122 99
-0.808865 0.308484 4.48387 99 179 144
2.6044 0.329809 4.74426 92 142 108
-1.88872 0.305936 4.35353 47 84 58
-0.863064 0.326417 4.49127 60 149 110
-2.01245 0.327138 4.37278 153 220 181
-0.863444 0.340684 4.48626 74 126 103
-1.76933 0.337215 4.31168 165 216 189
-0.670273 0.365624 4.48841 178 247 214
-0.880387 0.380888 4.50582 109 177 154
-0.170066 0.384755 4.55221 112 168 155
-0.556225 0.403347 4.5056 66 91 77
1.54006 0.426583 4.71645 167 236 209
-0.549024 0.411876 4.51935 166 215 183
1.34232 0.430553 4.66995 97 164 133
-1.98003 0.412712 4.37832 91 146 107
-0.381052 0.42856 4.54572 167 226 206
-0.39086 0.431354 4.53969 67 96 80
-1.89558 0.418224 4.36576 128 184 155
-2.01498 0.42689 4.38886 135 202 187
-2.08738 0.429589 4.38149 55 82 49
-0.615705 0.450303 4.49004 167 241 211
-0.369815 0.460342 4.5435 145 191 168
-0.27575 0.462151 4.55545 98 156 128
-0.980879 0.460378 4.48392 198 243 216
1.42582 0.490364 4.70178 71 102 87
-0.507143 0.470023 4.5151 83 153 123
-0.0261096 0.477334 4.58238 77 152 136
-0.196328 0.488513 4.5645 134 181 173
-0.321843 0.494552 4.5558 47 95 69
-1.91709 0.489281 4.39092 49 85 79
1.38802 0.532036 4.71024 99 176 138
-2.15193 0.501446 4.4058 32 57 43
-0.851864 0.503439 4.39328 180 237 212
-0.281672 0.522452 4.58354 192 238 232
-0.852786 0.505546 4.39943 191 239 213
-2.11143 0.51171 4.38733 156 230 196
-2.13724 0.514968 4.38857 170 208 178
-2.00084 0.513012 4.38124 61 119 91
-0.580164 0.544614 4.54491 140 178 156
-2.10688 0.528418 4.40138 160 205 178
1.56603 0.582232 4.73978 88 170 128
-2.14687 0.541815 4.40254 98 163 124
-2.19159 0.547491 4.39181 134 194 154
-0.562521 0.579768 4.55433 140 182 157
-0.954729 0.568563 4.42783 41 87 51
-0.225323 0.587105 4.57178 162 224 202
-0.219385 0.587868 4.57807 95 146 126
1.52608 0.611151 4.74922 67 127 93
-0.976044 0.579143 4.43474 70 124 95
1.73307 0.624189 4.7758 89 166 132
-0.84785 0.584583 4.42181 50 129 90
-0.447444 0.594561 4.48061 77 91 73
0.495935 0.627535 4.67986 84 158 140
-0.454112 0.605735 4.49539 158 184 160
-0.80556 0.597659 4.42562 142 230 177
-0.150217 0.620841 4.60236 63 104 89
0.66858 0.635666 4.69273 70 151 126
-1.8947 0.596078 4.38014 35 78 69
-2.10696 0.6069 4.42363 168 225 186
-2.14942 0.606912 4.39539 131 196 157
0.583173 0.653581 4.68153 102 163 149
-2.22645 0.619053 4.41151 73 106 92
-2.08562 0.620603 4.38767 104 158 128
-0.688863 0.629729 4.46817 105 145 120
-0.810118 0.654439 4.45818 116 160 137
3.07433 0.712683 4.83023 138 214 166
-0.707242 0.663455 4.47246 156 228 198
-2.15268 0.664094 4.41971 112 174 156
0.555247 0.706175 4.68922 104 179 165
-0.716078 0.675337 4.46649 77 142 110
-2.07828 0.674568 4.41643 53 98 65
-0.827325 0.685197 4.46321 171 227 198
-2.27468 0.679529 4.41331 140 210 179
-1.78071 0.68178 4.42886 75 131 102
-2.21662 0.692205 4.4198 129 185 174
-0.229412 0.724827 4.62371 87 134 118
-0.113555 0.732117 4.62714 89 141 124
-1.59601 0.709961 4.49128 133 202 165
-0.832627 0.71704 4.4686 72 124 100
-0.284232 0.743356 4.59762 185 234 214
-2.31269 0.719542 4.41473 143 218 174
-2.32101 0.724035 4.40992 167 226 188
-1.56304 0.748795 4.52946 156 202 179
-0.831449 0.739885 4.47979 184 223 198
-0.185304 0.772217 4.65664 164 187 179
0.0569439 0.779678 4.68167 110 170 159
-0.823601 0.747431 4.47922 55 90 64
-0.845589 0.765202 4.47414 135 173 155
-1.38125 0.764249 4.46425 156 222 181
-2.08908 0.767613 4.43814 97 150 130
-0.882299 0.776547 4.47734 160 206 183
-0.716613 0.754682 4.29998 171 232 196
-1.60053 0.795129 4.517 106 129 115
-0.897214 0.786025 4.45781 48 105 74
-1.70427 0.778423 4.39846 150 209 159
-2.01679 0.789566 4.44238 132 208 174
-1.5619 0.80461 4.50552 33 51 38
-1.39792 0.810195 4.49241 144 193 161
-1.95553 0.80732 4.46238 164 209 170
-1.36994 0.817565 4.50729 96 138 121
-1.91325 0.82009 4.4528 162 222 181
-1.90967 0.823283 4.47635 136 186 152
-0.996986 0.843881 4.57936 176 243 228
-1.45312 0.823058 4.45893 32 95 63
-1.20224 0.832512 4.51614 145 190 164
-0.728226 0.80057 4.32967 178 232 202
-0.269895 0.8539 4.59628 166 203 195
-0.736127 0.814068 4.33786 32 74 56
-0.0726411 0.88374 4.6771 149 229 198
-1.27554 0.845751 4.47962 54 106 66
-0.258749 0.874865 4.62414 183 207 197
-1.45035 0.847589 4.47461 146 197 170
-0.0725257 0.889237 4.69074 138 222 188
1.33514 0.909409 4.80168 139 212 180
-1.99449 0.852967 4.47387 68 137 104
-1.49207 0.851546 4.44238 66 124 89
-1.62754 0.861965 4.49907 126 160 129
-1.5136 0.860525 4.45136 123 183 149
-0.107323 0.904027 4.6785 79 135 100
-1.88581 0.870411 4.46761 181 205 175
-1.59147 0.871051 4.47859 56 91 71
-1.98798 0.866677 4.44462 84 165 120
-1.85671 0.874782 4.48571 189 214 180
-1.41864 0.873904 4.46963 161 210 190
-0.0745332 0.912617 4.66729 63 143 106
-0.0615693 0.91598 4.67856 149 217 186
-1.93009 0.877036 4.46919 155 236 179
-2.05227 0.881351 4.46112 24 60 48
1.09631 0.940848 4.78289 104 162 138
1.27604 0.946896 4.79831 75 137 107
-1.3877 0.885431 4.46981 42 66 42
-0.592977 0.895185 4.51184 181 245 210
1.65687 0.961177 4.84496 158 230 200
-1.39039 0.893956 4.46555 159 180 165
-1.25958 0.903769 4.48461 139 196 151
-1.30911 0.909223 4.50062 71 142 109
1.22036 0.966272 4.79095 158 217 179
1.21057 0.971792 4.80105 60 125 99
-1.58577 0.905036 4.45022 142 188 159
1.24539 0.976659 4.79504 137 193 164
-1.07066 0.941052 4.60723 73 98 100
-1.01974 0.946496 4.61458 166 219 210
-2.07818 0.92169 4.47806 83 129 116
0.696704 0.98594 4.79545 177 241 229
-1.27593 0.91753 4.46323 84 128 92
-1.01374 0.951552 4.61808 96 134 134
-1.26336 0.92413 4.46847 79 109 68
-1.8257 0.940267 4.53489 154 195 164
-1.83638 0.948089 4.53757 137 164 144
-0.108877 0.990238 4.71073 146 214 173
-2.02108 0.947466 4.49815 152 226 184
-2.1881 0.940733 4.45423 41 75 51
1.34858 1.01632 4.82536 119 189 159
-2.2159 0.944081 4.44511 145 202 164
1.46811 1.02933 4.8284 133 229 188
-1.89896 0.964002 4.50557 156 226 186
-1.92429 0.967675 4.4946 145 236 187
-1.66204 0.971405 4.49647 82 99 78
-1.02444 1.00056 4.60595 177 228 231
-1.7456 0.977659 4.48463 129 178 132
-1.45555 0.973934 4.47235 49 79 50
-1.02606 1.00523 4.61671 188 246 241
-1.46345 0.994846 4.48095 176 226 194
-1.326 1.00979 4.53551 103 134 107
-1.32811 1.01544 4.54827 121 162 130
-2.383 0.998334 4.46171 161 217 182
-1.08143 1.03313 4.61421 48 75 66
0.866689 1.08718 4.82624 87 166 127
1.09147 1.08722 4.82736 78 139 113
-0.836252 1.04086 4.56211 44 99 74
-1.24257 1.0419 4.54408 94 141 109
-1.26264 1.05289 4.57051 116 142 119
-0.857231 1.05353 4.57418 120 189 169
-1.25832 1.05009 4.5471 104 127 105
-1.2609 1.05734 4.56315 148 159 139
-1.47751 1.04933 4.46672 145 177 153
-2.50039 1.05697 4.47467 143 183 155
-0.0811779 1.12826 4.74544 175 244 217
-0.449862 1.11315 4.67386 160 228 193
-0.123425 1.14211 4.75694 81 165 137
-0.672207 1.11587 4.62658 92 108 101
-2.11662 1.09595 4.54181 153 211 176
-1.01232 1.12508 4.66288 172 229 228
-1.65146 1.08201 4.48382 126 205 164
2.0991 1.21523 4.98973 245 255 253
-1.64509 1.09084 4.45826 135 189 146
-0.829843 1.12354 4.57408 89 144 125
-0.156758 1.16922 4.76502 71 145 115
-0.807361 1.12969 4.56291 93 122 107
0.773501 1.21839 4.85375 169 229 199
-1.44585 1.12871 4.48532 46 54 24
-2.77129 1.14402 4.53407 142 208 179
-2.16412 1.16699 4.56251 61 124 92
-1.62217 1.14516 4.47268 63 102 77
-1.47537 1.16832 4.47519 171 206 172
-1.49371 1.16999 4.46981 175 237 219
-1.09181 1.18907 4.53988 145 176 167
-1.63475 1.19113 4.50234 109 141 124
-1.62068 1.19701 4.50755 179 224 198
-0.753683 1.24435 4.69996 171 215 198
-0.487382 1.28155 4.79238 131 195 176
0.00861933 1.29402 4.81033 103 173 143
-1.05836 1.2672 4.69844 129 178 170
-1.44598 1.20016 4.41134 124 218 171
-2.25688 1.26402 4.60324 129 187 158
-1.23968 1.26205 4.59525 167 222 197
1.02079 1.3568 4.92344 121 185 163
-2.24799 1.28905 4.61406 64 93 78
-1.30407 1.28929 4.56249 44 61 40
-0.629874 1.36428 4.80738 146 214 197
1.25214 1.41392 4.9559 134 193 162
1.40935 1.41452 4.95483 46 120 84
1.55344 1.41824 4.97684 44 87 54
-1.56639 1.29589 4.48843 178 215 183
-1.55437 1.29494 4.47866 64 80 57
1.15006 1.44784 4.94617 97 158 130
-0.729081 1.42121 4.82446 82 157 136
-1.50829 1.3227 4.45998 143 190 157
-1.53887 1.33166 4.47668 31 87 64
1.44321 1.49985 4.98259 136 186 152
-1.06804 1.44965 4.78411 107 151 144
-2.23798 1.41561 4.65602 123 175 152
-1.33878 1.39028 4.54964 137 156 139
-1.90717 1.37328 4.48489 43 129 95
0.892976 1.54574 4.97631 128 172 196
1.03114 1.53928 4.96927 121 162 194
-1.94898 1.39624 4.49258 137 197 167
1.09455 1.55614 4.97662 101 140 148
-0.408169 1.56388 4.89946 94 157 141
-1.88375 1.43433 4.48009 57 104 82
-0.795091 1.57363 4.87018 108 174 163
-1.41893 1.4606 4.50398 60 96 80
-1.05109 1.58947 4.86254 147 216 203
0.956703 1.65615 5.00571 82 162 127
-1.47436 1.51739 4.52701 159 206 180
0.458696 1.67164 4.98397 150 218 183
0.388804 1.68069 4.97657 114 186 174
0.698724 1.72231 5.01128 167 233 204
-0.962717 1.68821 4.89389 122 166 183
-0.380913 1.70808 4.90716 131 211 176
-1.39813 1.59449 4.56853 149 198 160
0.479712 1.74395 5.00349 85 153 130
-1.36527 1.58947 4.55196 167 236 199
-1.36131 1.60142 4.5504 53 77 43
0.457946 1.76596 5.01317 185 248 228
0.806422 1.78049 5.03889 141 207 165
-0.529532 1.7605 4.95557 112 161 153
0.764322 1.79435 5.03853 72 132 98
-1.4338 1.63712 4.56819 64 108 72
-1.40978 1.63494 4.56378 152 225 187
-0.226132 1.78494 4.95567 108 167 139
0.737739 1.81497 5.03868 164 235 192
0.67639 1.82524 5.03764 160 227 182
-1.43579 1.65827 4.55371 56 105 77
-0.38171 1.8332 4.96166 84 146 116
0.551622 1.87198 5.05221 88 161 135
0.59806 1.88152 5.05185 186 250 220
-0.706273 1.87889 4.96668 87 161 135
-0.791093 1.88962 4.95761 81 141 123
-1.19486 1.87104 4.87639 125 156 129
-0.751091 1.9081 4.96915 68 126 108
-0.557541 1.90774 4.97942 73 147 123
-0.394367 1.91109 4.98228 73 121 93
-0.700222 1.94012 4.9923 79 131 114
-0.96886 1.93674 4.9707 97 146 132
-0.502869 1.95251 5.00034 86 160 132
0.586702 1.9755 5.05207 78 150 103
0.550166 2.00327 5.07494 82 185 128
3.15992 2.10441 5.31775 159 223 187
0.415183 2.0204 5.10054 146 212 177
-1.68313 -1.47809 4.04132 95 149 144
-1.6324 -1.48802 4.07818 78 154 142
-1.62719 -1.4878 4.08318 151 216 207
-1.49116 -1.48661 4.08153 77 137 126
-1.48423 -1.48226 4.08426 159 220 206
-1.14706 -1.51124 4.15263 105 176 160
-1.59033 -1.47999 4.09248 121 185 179
-1.02865 -1.50682 4.16423 113 173 162
-1.63348 -1.46977 4.07964 105 137 136
-1.40351 -1.49402 4.14172 144 222 205
-1.50997 -1.46943 4.08616 86 156 150
-1.15057 -1.4868 4.14417 95 153 142
-1.61106 -1.46407 4.08897 101 152 144
-1.56785 -1.46128 4.08609 152 203 189
-0.480905 -1.49975 4.19566 119 169 167
-1.59582 -1.45497 4.07182 82 143 133
-2.11421 -1.46182 4.09577 103 141 146
-2.06693 -1.45962 4.10633 121 174 177
-1.89861 -1.45526 4.1109 150 211 207
-1.5716 -1.44943 4.09493 90 156 151
-1.43994 -1.44438 4.09936 138 174 162
-1.44717 -1.44685 4.12222 137 185 173
-1.40082 -1.44321 4.12996 126 175 153
-1.44466 -1.42967 4.08825 167 229 213
-1.60575 -1.42281 4.0844 162 236 218
-1.53899 -1.42289 4.09572 103 172 169
-0.285577 -1.45629 4.20411 98 160 144
-2.02159 -1.4226 4.10952 168 225 210
-1.45334 -1.41119 4.08931 190 233 218
-1.63926 -1.40569 4.08174 105 152 149
-1.47103 -1.40545 4.07398 133 193 182
-1.38854 -1.42696 4.1552 152 217 202
-1.41555 -1.41205 4.12349 63 92 76
-0.357866 -1.43188 4.19517 113 152 150
-1.64792 -1.38779 4.08307 193 247 234
-1.64681 -1.38115 4.06026 120 183 173
-1.94244 -1.39711 4.12755 113 150 146
-1.46943 -1.38169 4.08867 86 118 113
-1.22693 -1.40093 4.14904 75 149 137
-1.62528 -1.37535 4.08741 40 96 83
-1.89002 -1.39049 4.1352 95 138 135
-1.6382 -1.37466 4.08415 168 222 205
-0.838516 -1.40529 4.1824 95 164 149
-1.44967 -1.37833 4.10355 87 154 151
-1.62499 -1.36418 4.08745 166 234 217
-0.505241 -1.39947 4.20195 97 154 145
-1.49935 -1.36322 4.10043 161 227 208
-0.93609 -1.38711 4.18426 79 162 137
-0.268722 -1.3932 4.21651 112 164 147
-2.39218 -1.3317 4.0836 115 167 143
-1.61531 -1.32156 4.088 91 135 122
-1.38209 -1.33993 4.1471 157 231 213
-1.66128 -1.32091 4.08672 101 156 141
-1.53295 -1.31273 4.0776 164 233 218
-1.2743 -1.32664 4.14896 90 155 134
-1.27642 -1.32727 4.15693 92 163 143
-0.684763 -1.34125 4.20884 97 159 141
-2.43672 -1.30284 4.09946 128 178 148
-1.58132 -1.30633 4.11292 128 197 187
-1.62876 -1.30028 4.11127 71 115 102
-1.95039 -1.28041 4.09693 161 173 173
-1.78231 -1.29446 4.13498 176 211 197
-1.77137 -1.2901 4.13461 96 114 107
-1.40897 -1.30275 4.16601 90 171 152
-1.25831 -1.29645 4.15343 96 136 125
-1.26145 -1.29708 4.16227 90 137 121
-1.71447 -1.2816 4.14077 112 163 166
-1.1994 -1.27062 4.15341 93 136 125
-1.72903 -1.25009 4.13979 179 231 213
-1.6272 -1.25253 4.15049 99 159 153
-1.27883 -1.25646 4.16316 108 161 148
-1.02506 -1.25164 4.18353 80 136 115
-1.02973 -1.24764 4.18013 171 234 202
-1.26781 -1.23805 4.16687 101 131 136
-0.668716 -1.24285 4.21877 101 161 153
-0.647131 -1.23842 4.20733 99 149 139
1.97251 -1.28391 4.40038 151 185 175
-2.01498 -1.18513 4.06801 153 206 162
-1.99507 -1.1827 4.06275 137 194 155
-1.26583 -1.21069 4.1664 105 133 127
-1.26653 -1.21086 4.16985 95 128 121
-1.05695 -1.21027 4.16799 107 162 143
-0.257668 -1.23192 4.23931 125 171 159
-1.7415 -1.1958 4.14129 143 199 178
-0.239682 -1.22302 4.23964 119 175 164
-0.844231 -1.21478 4.21189 105 159 146
-1.49589 -1.18614 4.17583 120 173 159
-0.453288 -1.1975 4.23786 97 147 135
1.88054 -1.24647 4.4087 141 189 171
-1.04275 -1.1766 4.17538 139 213 179
-2.54849 -1.1499 4.10841 54 119 98
-1.34535 -1.16345 4.1623 135 187 177
-1.23623 -1.16185 4.16016 113 166 153
1.07764 -1.21003 4.33808 94 159 143
1.73238 -1.23148 4.41996 159 202 193
-1.27325 -1.15823 4.17673 114 155 157
1.76152 -1.2215 4.40821 98 143 146
1.42748 -1.2069 4.37616 126 181 172
-1.29784 -1.14798 4.1824 133 187 180
-1.09595 -1.13836 4.18623 80 129 109
-0.00662212 -1.15485 4.26085 100 158 147
-1.4941 -1.11604 4.17438 107 173 144
-0.362678 -1.12735 4.24906 118 171 157
-0.0297032 -1.11761 4.26478 102 177 163
-2.24066 -1.08452 4.14477 165 203 197
-2.08748 -1.08454 4.15336 202 233 226
1.5738 -1.08546 4.14307 142 217 171
-1.27222 -1.08914 4.18927 105 158 149
-1.64269 -1.08345 4.17761 88 164 130
-1.1686 -1.07962 4.19233 116 158 140
-2.23973 -1.06772 4.14714 162 205 194
-1.08594 -1.0808 4.20829 92 152 141
1.53799 -1.0612 4.14138 130 173 160
-1.03822 -1.07346 4.20355 141 196 179
-1.13726 -1.05798 4.16595 83 138 113
-1.05919 -1.06677 4.20039 141 206 190
-0.917385 -1.06698 4.19751 84 124 112
-0.591313 -1.07381 4.24972 169 224 207
-0.283684 -1.07927 4.26562 117 180 164
-1.09066 -1.06116 4.20576 125 186 160
-0.579341 -1.0751 4.25813 88 130 119
-0.922019 -1.06743 4.22647 97 161 142
-1.99815 -1.04198 4.15393 144 202 184
-1.28532 -1.0526 4.19011 165 219 202
-0.928403 -1.05459 4.21175 93 152 132
-1.72478 -1.04294 4.1729 67 128 94
-0.983451 -1.05594 4.22097 140 200 182
-0.936279 -1.05493 4.23723 108 159 145
1.55018 -1.03182 4.13842 88 132 119
-1.50427 -1.02109 4.17555 95 169 133
0.14066 -1.04589 4.2803 104 174 157
-0.993521 -1.02756 4.22667 99 138 116
-1.79705 -1.00405 4.13678 147 196 174
-1.08168 -1.02325 4.21242 156 215 195
-1.07745 -1.01966 4.21778 127 184 163
-0.698433 -1.01527 4.25342 91 151 127
-0.952884 -1.00634 4.22891 121 173 143
-1.12862 -0.999681 4.21865 105 163 138
-0.834551 -1.00696 4.25161 98 163 142
1.03741 -1.03677 4.36668 124 183 168
-0.83502 -1.00696 4.2463 75 142 115
0.12677 -1.01229 4.27379 125 177 159
-1.04371 -0.991859 4.22291 140 193 180
1.47905 -0.902405 3.82232 76 115 99
-0.719624 -0.994476 4.23898 94 165 148
-2.15487 -0.973905 4.15752 74 99 89
-0.997953 -0.991237 4.23034 112 145 124
0.908522 -1.02251 4.37185 125 178 169
-0.0240978 -0.997259 4.26971 116 171 162
-0.246622 -0.9961 4.27302 98 157 142
0.00850724 -0.99725 4.28062 120 180 170
-0.843424 -0.972095 4.24111 96 155 135
-0.829711 -0.970417 4.2499 142 214 171
1.42298 -0.879505 3.85019 91 187 150
1.54407 -0.868157 3.83225 186 248 200
1.39793 -0.869091 3.86125 165 233 198
1.15632 -0.985094 4.37942 98 160 124
1.19448 -0.979967 4.39079 148 214 173
1.35607 -0.862047 3.86229 71 137 108
1.55644 -0.855245 3.83129 167 250 218
-0.821974 -0.939496 4.22998 48 88 70
-0.795543 -0.943584 4.27285 108 160 150
-0.798178 -0.93641 4.25854 155 224 209
1.16576 -0.962973 4.38056 135 186 142
0.855754 -0.954042 4.34865 98 157 137
1.39813 -0.839298 3.82489 63 135 99
-0.808711 -0.923706 4.25063 130 189 161
0.0291498 -0.930088 4.29606 88 164 152
1.41076 -0.832006 3.83829 149 253 200
-2.25766 -0.889968 4.12655 144 181 171
-1.92035 -0.890473 4.14119 151 195 188
-0.699367 -0.919016 4.26309 156 185 169
0.949262 -0.923857 4.32081 131 167 161
-1.90314 -0.88613 4.15013 172 226 203
0.0121127 -0.916412 4.28833 86 168 150
0.950299 -0.923791 4.32442 126 159 155
-2.0185 -0.881444 4.16577 142 162 149
2.40661 -0.953624 4.49178 119 180 152
-0.648561 -0.900618 4.27227 133 206 198
1.53388 -0.798727 3.81488 142 239 199
-1.93087 -0.867538 4.15265 64 94 83
-1.3471 -0.840278 4.03075 164 236 193
-1.07728 -0.856946 4.10279 174 176 146
0.965693 -0.904256 4.34391 199 231 226
1.35177 -0.800693 3.84387 152 229 185
1.58846 -0.797882 3.84338 188 243 196
-1.36458 -0.834895 4.04201 177 245 210
-0.61428 -0.884724 4.2803 95 163 140
-1.92897 -0.8548 4.15744 125 170 144
0.825019 -0.896302 4.35774 119 170 162
-1.90331 -0.849473 4.15345 96 155 134
-0.220402 -0.879653 4.29471 161 220 205
-0.632636 -0.869202 4.28597 133 189 176
1.40269 -0.772888 3.81736 197 255 230
1.13532 -0.811594 4.02799 195 255 229
0.678739 -0.878298 4.36593 121 181 173
-0.671688 -0.858113 4.28662 147 190 187
0.951819 -0.858993 4.32244 96 133 131
-1.14398 -0.799352 4.03271 138 196 161
1.52721 -0.761193 3.82726 89 178 139
1.55836 -0.75803 3.82006 204 255 207
-0.724723 -0.842367 4.2702 158 199 184
1.55096 -0.755417 3.81776 77 131 96
1.52751 -0.749677 3.80576 150 250 208
-0.347796 -0.844535 4.29793 119 166 140
-1.13358 -0.787711 4.01545 62 93 66
0.505551 -0.85265 4.34468 129 182 173
-1.94056 -0.810702 4.17086 138 197 177
-1.89567 -0.81145 4.18225 90 148 130
1.44417 -0.73921 3.80428 39 141 99
-1.36725 -0.782961 4.03322 99 141 118
-1.02194 -0.771301 3.99474 73 134 106
0.0951198 -0.834154 4.3158 162 221 206
-1.06942 -0.764066 3.97411 139 199 165
1.55383 -0.735099 3.81771 69 176 133
-1.13122 -0.76943 4.00442 155 208 181
-0.51857 -0.81706 4.28412 147 203 180
0.283332 -0.831635 4.34201 96 156 146
-2.17319 -0.796451 4.17687 140 170 159
-0.71903 -0.81312 4.27749 117 134 125
-1.29719 -0.757687 3.99955 144 224 177
-0.720268 -0.812608 4.28912 114 129 121
0.879638 -0.821268 4.34152 95 144 142
-0.454605 -0.804401 4.31067 129 162 135
-0.68869 -0.792849 4.28878 131 145 134
1.54193 -0.708171 3.81871 162 252 206
-1.40885 -0.741706 4.01267 136 223 179
-0.963178 -0.738753 4.00045 148 195 156
0.280152 -0.798008 4.34029 103 150 142
1.54901 -0.686002 3.80008 119 220 175
-0.934684 -0.717597 4.01291 124 173 145
1.51372 -0.681027 3.80178 78 115 95
-0.933775 -0.692691 3.98471 167 205 169
1.53606 -0.655648 3.78552 163 252 208
1.6398 -0.660968 3.8169 100 187 153
-0.977237 -0.686583 4.00198 67 97 62
-1.33083 -0.666873 3.8941 101 167 142
-1.22308 -0.671348 3.92438 156 216 175
-1.10042 -0.672895 3.94852 54 80 64
-1.09478 -0.660515 3.94175 153 220 188
1.36845 -0.634399 3.7864 158 223 178
-1.26591 -0.653697 3.93963 133 223 177
-0.934225 -0.656278 3.99413 163 227 191
-0.907953 -0.656596 3.99826 162 206 175
-1.10135 -0.643768 3.92658 97 138 111
-0.955735 -0.650037 3.99654 123 148 120
-1.94171 -0.674609 4.14798 85 111 111
-2.42543 -0.679363 4.19959 112 134 122
1.21668 -0.63189 3.91847 71 141 110
-1.31654 -0.629741 3.91493 81 140 102
-0.922493 -0.642336 4.00619 141 211 174
-1.95147 -0.657723 4.16233 85 119 118
-1.0837 -0.621503 3.94468 50 95 62
1.27025 -0.605766 3.86566 36 187 142
-1.6798 -0.645596 4.13479 187 246 196
-1.13609 -0.618794 3.95468 113 144 117
0.313502 -0.676921 4.35512 118 182 177
-1.99137 -0.641757 4.17225 137 193 170
-1.81732 -0.627984 4.1066 165 232 200
-1.14441 -0.593294 3.92287 168 228 188
1.23798 -0.582878 3.87644 35 172 120
-1.97215 -0.615891 4.16754 125 182 174
-1.77452 -0.606892 4.1083 192 238 209
-1.70557 -0.60539 4.1243 193 248 215
-1.041 -0.584808 3.94941 187 247 207
-1.15004 -0.577825 3.93317 158 195 175
1.46704 -0.548825 3.76226 41 149 103
1.45674 -0.548143 3.76826 95 196 158
1.75289 -0.569963 3.92316 53 102 64
-1.8564 -0.598249 4.12839 97 164 135
-1.37779 -0.570626 3.96358 61 106 80
-1.14358 -0.56491 3.93672 96 126 107
-1.15267 -0.555124 3.92679 79 111 87
-1.12152 -0.556146 3.93268 241 253 235
1.39392 -0.534289 3.78573 123 189 148
-1.14471 -0.549913 3.92863 204 240 228
0.170193 -0.60715 4.34982 187 243 224
-1.18687 -0.54106 3.9238 121 159 137
1.411 -0.520391 3.78279 138 238 202
1.76179 -0.544777 3.94713 45 114 77
-1.13007 -0.53742 3.92098 151 176 166
1.39531 -0.517748 3.781 129 247 199
-1.88993 -0.563361 4.12936 90 146 117
-1.16896 -0.527414 3.91118 122 146 134
-1.17292 -0.524763 3.93301 218 240 222
-1.18969 -0.521073 3.91246 221 246 218
0.840767 -0.569643 4.28411 93 179 139
1.5769 -0.501614 3.82621 72 169 129
0.326619 -0.576072 4.39283 118 180 166
0.8487 -0.560797 4.27602 68 141 109
1.39685 -0.490386 3.78255 72 182 148
-1.7895 -0.530612 4.14228 75 136 110
-2.13416 -0.532155 4.21753 112 134 139
0.802225 -0.541941 4.29877 109 193 159
-2.1526 -0.529448 4.2246 116 137 135
-1.18879 -0.481879 3.90596 35 104 84
-1.18189 -0.482555 3.90549 98 190 161
-2.53444 -0.497275 4.18758 193 210 199
-1.90506 -0.490768 4.13623 94 150 127
-1.19332 -0.463481 3.90061 60 118 100
-2.15337 -0.496904 4.22267 207 223 222
-1.15182 -0.451752 3.92559 90 137 111
-2.16046 -0.486519 4.23132 90 97 100
-1.16047 -0.438209 3.95792 83 138 93
-0.0644355 -0.474201 4.34844 151 220 200
-0.0881299 -0.471562 4.34597 141 207 178
-2.36606 -0.447815 4.2386 148 205 196
-2.45545 -0.446035 4.24186 177 225 207
-0.84094 -0.38033 3.60971 180 219 197
-0.0823645 -0.451147 4.34821 182 247 215
-0.126014 -0.443579 4.34607 114 150 133
-0.0612688 -0.438311 4.36782 106 156 146
-2.49275 -0.405589 4.24067 203 238 224
-0.795405 -0.335315 3.58521 136 190 161
-0.121451 -0.405502 4.37377 95 166 150
-0.135011 -0.393027 4.38263 148 209 199
-2.52129 -0.357154 4.24943 170 231 203
-2.48505 -0.357464 4.24351 87 108 99
-2.43936 -0.356039 4.26086 155 210 193
-0.148943 -0.366292 4.38675 134 183 169
-0.090547 -0.367087 4.39044 94 155 141
-2.23653 -0.35195 4.26971 183 217 210
-2.17547 -0.347053 4.259 180 208 208
0.0390001 -0.345419 4.39562 117 176 155
1.5705 -0.314445 4.01978 135 208 182
-0.685989 -0.285072 3.66681 140 177 151
-0.82667 -0.278473 3.6214 64 92 79
-0.210075 -0.337777 4.37432 123 152 136
-2.29225 -0.31514 4.20033 165 217 187
-0.199478 -0.318046 4.37862 143 182 174
0.0435333 -0.317762 4.40307 89 143 144
-2.45772 -0.30882 4.27444 191 237 218
-2.47982 -0.291525 4.25634 64 92 72
-1.88066 -0.271018 4.26763 134 208 190
-0.221221 -0.274549 4.38633 58 89 74
1.24106 -0.236675 3.78722 68 144 103
2.11171 -0.290895 4.60856 98 170 134
1.60212 -0.245804 4.01631 69 186 141
-1.93236 -0.256001 4.27138 126 181 166
2.32251 -0.276939 4.61324 125 193 170
-1.77374 -0.225491 4.24282 69 109 98
-2.30771 -0.215017 4.19908 130 195 150
-0.043987 -0.21396 4.39751 73 112 97
2.49193 -0.22229 4.63033 110 175 149
-0.280948 -0.204635 4.40342 94 152 127
2.44788 -0.203766 4.63391 126 191 165
-1.8635 -0.18067 4.22781 102 152 118
-2.20257 -0.171826 4.21647 156 237 192
-0.289473 -0.181423 4.39513 93 135 118
-0.457484 -0.178427 4.40133 136 150 146
-0.279628 -0.173515 4.40882 166 239 217
2.27783 -0.178934 4.62903 103 169 140
-0.514877 -0.168284 4.39896 125 154 145
-0.393839 -0.161736 4.40111 140 194 181
-0.0919781 -0.165851 4.42072 97 143 131
0.0135918 -0.156522 4.40882 69 115 103
0.069871 -0.152433 4.4331 74 133 112
-1.79287 -0.143161 4.254 145 221 187
-0.00325444 -0.146221 4.40591 137 188 161
-1.93181 -0.130882 4.2044 92 163 136
-1.82775 -0.132348 4.25238 111 163 145
-2.18575 -0.129343 4.22328 95 142 103
-1.8294 -0.132178 4.25323 144 204 180
-0.359054 -0.138034 4.40598 39 85 72
0.103431 -0.137462 4.43785 106 168 154
-1.795 -0.132606 4.26075 70 107 99
-0.489275 -0.121582 4.40927 70 130 112
-0.436469 -0.107835 4.3919 160 203 192
-0.19455 -0.107601 4.41284 86 158 146
-0.0215275 -0.107742 4.42656 78 112 105
2.52514 -0.115353 4.64887 108 189 156
-0.538603 -0.107363 4.40372 49 67 54
-0.340685 -0.107863 4.4036 126 200 170
-2.13128 -0.0925629 4.22656 150 181 152
-0.508003 -0.0987935 4.40773 127 177 143
2.16803 -0.0979106 4.65603 107 177 146
-2.16407 -0.0679558 4.19336 90 112 88
0.439888 -0.0622497 4.48366 95 159 164
0.772393 -0.0569332 4.51361 100 188 165
2.4241 -0.055013 4.65146 76 143 111
-0.584804 -0.0482799 4.38551 136 170 176
2.40376 -0.0515669 4.64088 112 199 166
0.316925 -0.0392597 4.47727 243 255 253
-2.17889 -0.0289292 4.23221 148 184 154
0.134606 -0.031397 4.45957 95 156 142
2.40248 -0.0311196 4.6477 105 184 163
-0.24655 -0.017095 4.44019 196 241 232
-0.520353 -0.0173273 4.42586 148 238 192
0.110067 -0.00550763 4.46376 158 224 212
-0.306194 -0.00213066 4.44026 82 144 126
0.102317 0.00383832 4.4643 89 147 136
-0.521512 0.0239742 4.43731 58 123 98
-2.22435 0.0267158 4.28913 117 145 122
-0.180655 0.0268006 4.44372 101 138 134
