ply
format ascii 1.0
element vertex 1278
property float x
property float y
property float z
property uchar blue
property uchar green
property uchar red
end_header
1.84107 -1.35426 4.61106 107 152 119
-1.26792 -1.11735 3.8629 143 199 158
0.318017 -1.26039 4.401 183 253 223
0.149497 -1.2496 4.38008 108 171 161
-1.2776 -1.08394 3.86349 128 199 166
-0.707736 -1.18696 4.26378 79 142 122
0.318058 -1.1967 4.40103 166 238 195
-0.426004 -1.16603 4.29834 109 172 146
1.91408 -1.22837 4.62359 139 209 178
0.219281 -1.12236 4.40114 158 239 194
0.183837 -1.08216 4.40397 64 124 100
-0.0316506 -1.01725 4.38911 84 158 134
-0.15311 -0.991358 4.34712 153 214 176
-0.153338 -0.986058 4.35154 100 158 133
-0.197407 -0.913056 4.37018 59 139 102
-0.394154 -0.860777 4.34851 104 165 145
0.432866 -0.880862 4.44384 70 144 108
0.0961394 -0.843136 4.41438 193 255 228
-0.410889 -0.794846 4.34717 94 158 136
0.0123015 -0.805709 4.41826 98 165 144
-1.31604 -0.77022 4.24629 149 191 196
-0.623813 -0.763566 4.33768 75 136 108
1.75999 -0.791377 4.6765 92 157 131
1.7757 -0.71989 4.69353 95 179 151
-1.30394 -0.638846 4.26473 37 76 55
-0.562902 -0.634686 4.36862 78 147 114
-0.888152 -0.625402 4.31896 139 192 159
-0.887767 -0.625454 4.31839 137 191 156
-1.37664 -0.608938 4.22134 153 208 189
-1.10684 -0.61626 4.29557 79 151 109
-0.904877 -0.591246 4.30827 139 222 183
-0.893071 -0.587564 4.30471 41 86 67
-0.806916 -0.583422 4.33977 131 196 170
-1.10935 -0.558679 4.3076 52 114 90
-0.834165 -0.55187 4.33227 112 162 130
-0.806403 -0.555138 4.35113 76 114 96
1.78922 -0.596141 4.71438 170 242 212
-1.43591 -0.49848 4.23102 146 215 194
-0.870352 -0.503537 4.32794 132 202 161
-1.26582 -0.440148 4.28716 122 169 153
-0.245023 -0.451938 4.41714 77 143 114
-0.353801 -0.450464 4.40881 84 148 113
-1.03086 -0.424107 4.32525 82 150 115
-0.24671 -0.428457 4.42762 58 116 91
-0.851179 -0.407005 4.37711 75 145 122
1.6265 -0.416756 4.7219 89 141 111
-0.329307 -0.384414 4.41969 48 136 96
0.415155 -0.376117 4.54574 105 170 171
1.85987 -0.390085 4.75077 93 169 128
0.703811 -0.370771 4.59061 121 190 157
0.734112 -0.343519 4.59361 102 187 155
-0.997206 -0.313631 4.34767 162 242 195
-1.50738 -0.297934 4.20529 97 141 134
2.30878 -0.334839 4.82939 104 155 127
-1.53407 -0.283493 4.18172 90 131 110
1.6829 -0.303394 4.74875 70 143 111
-1.66313 -0.252251 4.14033 72 111 86
0.149831 -0.270777 4.52466 165 227 221
0.0951253 -0.24816 4.52283 72 132 108
0.229378 -0.251179 4.54951 74 144 114
0.0552958 -0.244875 4.52052 52 120 97
0.146811 -0.2291 4.53936 74 131 110
1.17717 -0.213466 4.69188 100 170 153
-0.0797915 -0.192084 4.52057 112 167 140
0.194564 -0.183879 4.56738 101 173 151
1.16839 -0.187778 4.695 99 174 152
0.97707 -0.185287 4.67104 105 177 157
-0.961558 -0.169767 4.4105 87 137 119
-0.826628 -0.148458 4.44224 95 153 158
0.815348 -0.154468 4.64283 79 144 112
2.48629 -0.158447 4.87503 158 233 195
1.42332 -0.136775 4.7328 97 151 146
-0.839823 -0.105932 4.43628 90 141 137
-0.119284 -0.103529 4.52952 167 238 198
-0.0582564 -0.103289 4.52399 58 129 109
0.403644 -0.0798364 4.59088 109 172 146
-0.794296 -0.075293 4.45283 110 151 176
0.655612 -0.0768536 4.64299 75 145 115
-0.774898 -0.0731883 4.45836 101 133 169
2.64499 -0.0810989 4.91052 88 128 117
0.634504 -0.0650468 4.65761 94 160 149
-0.591333 -0.0275665 4.49861 83 136 103
-0.9317 -0.0180993 4.44354 207 220 236
1.77386 -0.0221454 4.80506 97 151 122
3.04471 -0.0147033 4.95844 123 190 145
-0.476609 -0.0074597 4.52235 82 138 119
2.77958 -0.00868066 4.91443 93 147 118
-0.858758 0.00583041 4.46991 128 187 172
2.20233 0.00714618 4.85763 92 158 109
2.42722 0.0176613 4.88521 82 116 106
2.44848 0.0169279 4.89521 140 229 185
2.70088 0.0306299 4.93922 59 124 92
-1.20915 0.0292124 4.42197 153 218 196
0.0434124 0.0341744 4.58799 68 116 87
1.26784 0.0349755 4.73618 96 156 125
2.69954 0.0449761 4.9449 155 208 169
1.26593 0.0487762 4.74789 161 241 204
0.0315495 0.0496781 4.58145 105 170 131
-0.959309 0.0562456 4.47258 144 207 191
-0.438572 0.0640655 4.52562 144 190 184
2.09333 0.0702558 4.87905 70 121 83
0.824675 0.0675264 4.69051 148 243 199
2.10045 0.0783459 4.87322 141 212 179
2.37113 0.0883619 4.90088 54 76 57
2.69661 0.0921684 4.91748 130 170 158
2.69805 0.0977564 4.91618 79 119 117
2.80733 0.0990846 4.89281 154 216 202
1.29788 0.0979995 4.75776 150 230 195
1.23919 0.0983716 4.74859 83 146 106
0.597221 0.105837 4.67557 90 155 129
1.8123 0.115289 4.83342 125 186 148
-0.946171 0.109823 4.48094 123 164 149
1.10121 0.125108 4.74823 133 192 164
2.48414 0.130494 4.8624 122 176 146
0.347139 0.141033 4.64934 88 159 132
2.54029 0.150209 4.84495 56 111 78
1.69273 0.152882 4.82019 131 178 139
0.359251 0.153189 4.65405 160 236 202
1.9597 0.158539 4.83898 91 160 133
2.50905 0.158869 4.84337 139 228 184
0.916149 0.158463 4.72763 133 210 172
1.70387 0.167177 4.7975 71 83 61
1.3701 0.17319 4.78278 67 121 86
2.43065 0.175304 4.84444 124 195 155
2.06906 0.182999 4.84222 162 224 200
2.30651 0.183617 4.81456 76 111 84
1.18252 0.196009 4.7583 112 177 151
-0.451644 0.191469 4.55847 101 140 125
1.93618 0.218284 4.83185 116 157 126
0.811031 0.215627 4.72303 152 229 185
-1.19777 0.205703 4.44581 98 121 93
2.03076 0.234237 4.79599 51 68 54
-0.838776 0.226199 4.51385 107 138 109
1.31002 0.240419 4.73457 88 134 105
1.23106 0.245292 4.7479 52 93 62
1.86379 0.249293 4.81775 116 132 114
1.31778 0.249492 4.73787 164 197 170
-0.608112 0.246639 4.55745 75 135 111
2.05376 0.262257 4.7851 169 244 200
1.56996 0.276746 4.75343 157 214 183
0.519895 0.27587 4.69856 155 219 190
1.29646 0.285126 4.74534 127 171 135
-0.85822 0.278328 4.51847 152 188 172
1.22948 0.2995 4.74601 138 185 152
1.50554 0.306707 4.75709 163 216 177
1.37137 0.310236 4.76746 144 190 161
1.39355 0.308539 4.74475 133 172 146
0.344051 0.316433 4.68083 46 95 67
1.35213 0.327871 4.75917 62 103 75
-0.777764 0.324578 4.53526 63 82 55
0.785347 0.335305 4.69607 91 131 119
1.16332 0.357071 4.72468 159 208 180
1.27246 0.356534 4.73668 61 118 85
1.50794 0.357799 4.71501 158 234 192
0.761888 0.363263 4.68949 72 113 98
1.35508 0.365101 4.7192 149 201 171
1.37004 0.363427 4.70687 132 188 153
-0.761918 0.354313 4.5593 58 115 82
-0.649043 0.355765 4.57149 70 130 99
1.39365 0.369473 4.71523 81 139 115
1.41135 0.381305 4.70767 116 170 141
0.133166 0.37926 4.67191 69 107 89
0.853501 0.38555 4.69007 85 133 121
-0.625655 0.381729 4.57521 155 209 186
0.847821 0.392839 4.69006 148 219 199
0.849073 0.392934 4.69039 145 209 190
1.3028 0.39729 4.72369 167 209 186
1.18597 0.403661 4.71383 168 215 193
1.12746 0.404457 4.71171 153 194 166
1.45391 0.40739 4.71552 81 155 113
-0.412462 0.39819 4.59591 143 212 169
1.1969 0.412161 4.72697 192 237 211
1.26015 0.414126 4.72167 64 64 50
0.838826 0.410582 4.67242 171 229 205
-0.291417 0.416775 4.61571 130 191 165
-0.6166 0.414737 4.58167 161 230 197
-0.605336 0.415851 4.59328 84 134 110
1.23741 0.426299 4.70209 145 183 165
1.15773 0.432064 4.7084 69 99 86
0.269426 0.430209 4.65543 146 195 173
0.481849 0.429891 4.66518 47 63 40
0.749429 0.439273 4.69036 151 202 174
1.05351 0.441331 4.70328 123 152 129
0.426408 0.43808 4.6281 128 183 150
0.695395 0.454291 4.68829 24 54 41
0.962882 0.463513 4.69641 68 107 91
0.652187 0.466208 4.69292 125 170 137
0.0626888 0.469796 4.64368 67 143 109
1.07276 0.475126 4.69977 82 132 114
0.295504 0.477389 4.66303 163 221 193
-0.70799 0.474342 4.58392 66 93 77
0.274009 0.492947 4.67026 154 200 177
0.514208 0.498693 4.6831 188 242 207
-0.852348 0.489116 4.5522 56 77 68
0.596086 0.510103 4.66275 53 82 73
0.614467 0.508936 4.64703 51 86 76
0.536537 0.524747 4.65623 152 195 186
-0.283319 0.525511 4.64589 151 203 180
0.298907 0.539661 4.6505 123 150 140
0.420913 0.554893 4.62099 53 91 85
0.238548 0.567083 4.64562 57 70 56
0.249081 0.566491 4.63263 149 191 156
-0.0127013 0.579326 4.67043 165 178 154
-0.743894 0.563849 4.54738 120 190 159
-1.98588 0.648449 4.42712 93 125 106
-0.300248 0.701986 4.58312 44 104 80
2.34994 0.817175 5.10625 175 169 164
2.10644 0.84202 5.07585 195 195 189
-0.756028 0.781665 4.55402 52 90 72
-0.76276 0.792464 4.55998 133 206 168
1.21743 1.03551 5.00489 203 207 202
1.86752 1.10139 4.80715 117 177 143
1.67847 1.14322 4.80372 147 200 160
1.72476 1.21708 4.81684 128 162 138
0.705129 1.27808 5.01781 151 152 156
2.51275 1.20886 4.63392 100 182 130
-1.85333 1.25869 4.72673 212 252 251
0.575627 1.36748 5.00717 160 199 197
0.577838 1.36462 5.0028 160 200 199
0.0527993 1.42285 4.96743 159 199 187
-2.01182 -1.89367 3.94017 121 171 137
1.20787 -2.13495 4.47747 108 176 145
-1.55161 -1.86244 3.91861 131 209 172
-0.883379 -1.91981 4.05858 144 232 192
-1.35865 -1.84552 3.90628 79 119 101
1.0955 -2.101 4.45082 112 166 143
-0.876026 -1.91782 4.06783 105 158 144
-0.895053 -1.90384 4.04798 78 124 105
-0.221623 -1.99705 4.24813 91 139 115
-1.40911 -1.82182 3.89797 143 203 173
-0.97295 -1.90625 4.08208 128 186 185
-0.687191 -1.91548 4.11151 124 141 128
-0.15491 -1.98719 4.26289 138 196 171
-0.770811 -1.86303 4.01896 120 186 167
-1.41226 -1.81096 3.9053 93 128 108
-0.687637 -1.9063 4.11652 46 52 47
-0.670142 -1.88984 4.13671 105 151 132
1.16884 -2.03544 4.45526 84 151 120
-1.53673 -1.77793 3.90008 54 64 47
-0.281934 -1.93229 4.24832 138 212 182
-0.624175 -1.8866 4.16281 149 208 194
-0.17506 -1.9284 4.25896 123 202 169
0.708874 -1.99498 4.4092 104 174 133
1.15474 -2.01436 4.46043 100 166 141
-0.105933 -1.92576 4.2816 103 172 152
-0.161699 -1.9142 4.266 78 104 91
-1.49482 -1.75086 3.90845 100 144 121
-1.4808 -1.75272 3.90926 136 203 158
-0.889692 -1.82579 4.08591 101 163 147
-0.270876 -1.8938 4.24733 97 136 114
-0.323659 -1.88933 4.24144 82 151 124
-1.54683 -1.73549 3.90812 136 189 169
1.27843 -1.97972 4.46803 112 189 161
-1.46806 -1.72192 3.91307 75 96 87
-2.03621 -1.73682 3.94919 115 178 139
-1.31583 -1.69972 3.86543 160 206 193
0.988314 -1.95392 4.43847 111 172 146
-1.02327 -1.80183 4.11111 144 215 175
-1.00112 -1.8084 4.12602 81 128 119
-0.65433 -1.83111 4.17768 67 93 93
-1.01208 -1.80299 4.12126 61 114 94
-0.353619 -1.85295 4.24523 149 229 206
-2.17743 -1.68569 3.88389 135 184 156
-0.633793 -1.81136 4.19354 92 136 119
-0.396518 -1.8337 4.24797 153 242 216
-0.672778 -1.79555 4.17694 148 206 181
-0.735807 -1.78094 4.16219 76 93 82
-0.712689 -1.78251 4.18396 90 124 113
-0.315061 -1.81475 4.26289 165 237 224
-2.05233 -1.67057 3.95203 133 197 162
-1.24328 -1.68366 3.98594 122 159 125
-0.688135 -1.76775 4.18818 91 118 114
-1.00729 -1.73126 4.11078 167 230 221
-1.02901 -1.72596 4.12012 160 208 202
0.765534 -1.85439 4.4325 97 149 126
-0.261012 -1.78155 4.26759 72 143 123
-1.02772 -1.72008 4.12746 93 133 131
-0.491163 -1.75939 4.24078 80 115 101
-0.767184 -1.72769 4.17507 154 230 196
-0.486747 -1.75724 4.25694 126 169 148
-0.177058 -1.7659 4.27815 96 143 121
-0.463115 -1.74698 4.25321 75 121 108
-0.596705 -1.72237 4.24505 89 126 116
-0.430203 -1.71844 4.26079 82 150 119
-1.25604 -1.59984 3.96848 118 162 131
0.661956 -1.77699 4.41851 101 182 157
-0.287114 -1.69879 4.27148 85 153 128
-1.07103 -1.61588 4.12084 121 153 142
-0.893566 -1.63637 4.1708 107 150 141
-0.50624 -1.64115 4.25041 96 168 146
-0.451773 -1.64464 4.26145 88 155 116
-1.46333 -1.51261 3.91989 167 226 188
-1.47415 -1.51541 3.93437 131 173 142
-1.07015 -1.58867 4.14385 131 152 149
-1.35225 -1.4791 3.87848 158 229 186
1.16032 -1.6916 4.48768 105 142 126
1.41618 -1.70218 4.52268 161 225 213
1.07938 -1.67879 4.47094 104 163 142
-1.08151 -1.55572 4.16372 104 124 111
-1.08113 -1.53832 4.15196 85 90 81
-0.317322 -1.58292 4.28307 91 155 133
-0.938779 -1.55436 4.20984 68 106 88
-1.27429 -1.40892 3.89846 136 204 151
1.14732 -1.61142 4.46532 103 155 118
0.931163 -1.5955 4.43775 75 147 105
-0.674544 -1.51995 4.24919 97 158 144
0.981822 -1.59291 4.4768 155 233 209
-1.31271 -1.37788 3.88385 132 195 151
-1.07225 -1.46682 4.17508 109 133 115
0.712081 -1.55614 4.43878 120 173 194
-1.3201 -1.35786 3.87948 166 227 189
-1.30213 -1.35071 3.87495 69 109 81
-1.38196 -1.33318 3.8376 144 201 162
0.725251 -1.54482 4.44836 102 157 154
-1.34498 -1.33226 3.86639 63 108 75
0.980665 -1.54126 4.47436 125 160 146
-1.02315 -1.43611 4.19812 72 94 82
0.277461 -1.48794 4.38642 101 173 161
0.369602 -1.47986 4.4062 105 163 158
-1.40932 -1.279 3.81754 90 121 100
-0.999843 -1.40667 4.21998 140 161 189
0.375076 -1.46513 4.40202 74 129 104
-0.739224 -1.40556 4.25319 88 145 142
-1.38355 -1.26407 3.83149 33 78 51
0.356365 -1.45045 4.39402 74 133 112
0.415585 -1.45355 4.40272 175 255 222
-0.386823 -1.40845 4.29109 69 122 89
-0.372263 -1.39328 4.28851 85 155 125
-2.45 -1.2966 3.99248 127 194 173
-0.8211 -1.37408 4.23603 89 158 137
0.428179 -1.42167 4.41214 86 153 126
-2.05898 -1.30037 4.05381 147 200 161
-1.39536 -1.21853 3.82733 142 231 198
0.373042 -1.39907 4.39521 79 144 119
-1.35949 -1.2003 3.81663 138 219 174
-1.33212 -1.20249 3.85544 138 196 168
0.354575 -1.37165 4.40472 181 255 237
0.605869 -1.38197 4.43926 93 133 145
-0.886531 -1.31002 4.23278 70 113 100
-0.936553 -1.29468 4.21979 119 188 168
-0.892378 -1.29992 4.23309 133 191 173
0.391271 -1.3485 4.417 107 159 171
0.544217 -1.35533 4.43044 106 173 152
-0.889184 -1.28934 4.2285 70 106 92
-0.203849 -1.31209 4.32352 96 158 142
-0.920334 -1.26658 4.22704 73 98 88
-0.295051 -1.29114 4.30813 75 127 103
-0.241722 -1.29256 4.31429 94 162 139
-1.45119 -1.1455 3.833 121 174 141
-0.28318 -1.28511 4.31686 106 172 147
0.379746 -1.31335 4.41591 109 179 166
1.93374 -1.37846 4.62789 128 195 174
1.23234 -1.14425 3.85797 153 207 194
-1.05296 -1.22035 4.1251 59 73 61
-0.417837 -1.27008 4.29927 106 177 151
-0.687704 -1.25598 4.26473 150 212 190
0.398342 -1.30019 4.41835 96 163 126
-1.45346 -1.12388 3.82558 34 57 35
-1.32609 -1.12106 3.84121 151 217 182
-0.567869 -1.24357 4.28101 71 135 113
-0.498228 -1.24008 4.29211 80 154 126
1.82963 -1.32759 4.59555 60 66 35
-1.04457 -1.18459 4.10758 29 56 40
1.81536 -1.32695 4.59599 119 140 108
-1.26579 -1.11387 3.87156 44 88 57
-0.876083 -1.21804 4.23897 127 176 168
-0.381735 -1.23852 4.30714 83 157 127
0.153444 -1.25206 4.39361 105 163 152
0.259749 -1.25057 4.39138 86 138 120
-0.845714 -1.20649 4.23936 104 162 144
1.96126 -1.31955 4.63804 96 173 152
0.486866 -1.25428 4.42247 80 125 99
0.245906 -1.24554 4.40157 87 136 120
0.501001 -1.24627 4.42127 125 199 151
1.89982 -1.3001 4.62164 167 241 199
-0.306364 -1.21274 4.31991 86 154 129
0.459389 -1.24249 4.43744 71 125 90
-1.30094 -1.07786 3.86696 47 83 59
-0.860325 -1.17641 4.24781 97 150 136
-0.849471 -1.17514 4.25292 187 239 232
-0.350239 -1.19141 4.31824 91 154 128
-0.416833 -1.18345 4.30549 87 142 123
0.319989 -1.20421 4.39633 101 168 123
-0.461559 -1.17465 4.30136 72 145 113
-0.885253 -1.15396 4.23852 88 131 122
0.445791 -1.20236 4.41909 65 136 96
-0.0463533 -1.17589 4.36046 104 161 146
2.24697 -1.2569 4.65913 112 194 152
2.10194 -1.24754 4.64686 101 157 134
-0.515692 -1.15423 4.30128 92 166 136
-0.0530776 -1.15549 4.36208 113 186 164
0.227375 -1.1647 4.40774 153 225 189
0.290014 -1.1637 4.40841 142 219 168
0.447623 -1.1645 4.40152 152 230 176
0.0335565 -1.15005 4.37998 115 174 159
0.2209 -1.15486 4.39997 83 140 109
0.183319 -1.14925 4.40404 101 170 137
0.384572 -1.14885 4.41773 82 157 111
0.00326918 -1.13211 4.37839 88 170 157
0.197139 -1.13292 4.39448 183 255 234
-1.11491 -1.06172 4.12417 118 156 138
0.0375836 -1.12553 4.38097 87 152 136
-0.275283 -1.11015 4.33159 111 180 159
0.347799 -1.13157 4.4301 91 136 103
0.479776 -1.13419 4.42975 48 74 44
-0.935497 -1.08062 4.24743 71 113 90
0.348226 -1.13183 4.4387 84 130 101
-0.0717519 -1.10186 4.38175 86 159 143
-0.0696041 -1.10158 4.36878 96 170 152
0.197212 -1.10648 4.40075 129 219 184
-0.944316 -1.06388 4.23761 67 99 75
0.164227 -1.09963 4.3875 118 190 154
0.336381 -1.10163 4.41652 69 136 97
0.448687 -1.0916 4.41768 68 110 75
0.470358 -1.09134 4.42151 105 134 101
0.37168 -1.08856 4.43053 70 121 101
0.441043 -1.07783 4.42209 152 209 164
0.0925009 -1.06247 4.39305 84 157 131
0.419892 -1.07144 4.42504 50 94 58
1.91498 -1.11647 4.62042 131 206 168
0.421626 -1.05305 4.43377 125 191 149
0.43139 -1.04764 4.41624 56 79 51
-0.107755 -1.01729 4.38056 97 156 118
-0.16178 -0.995431 4.33295 203 255 234
-0.121075 -1.00073 4.35628 146 207 171
-0.0967982 -0.997841 4.37013 58 99 68
2.01278 -1.06165 4.64153 162 243 198
-0.153622 -0.986042 4.35627 100 160 136
-0.112815 -0.981886 4.36505 160 215 170
0.0371797 -0.980979 4.39495 84 137 124
-0.0943068 -0.95995 4.38889 89 148 127
-0.666069 -0.927829 4.30064 109 162 159
0.0580895 -0.939422 4.40131 102 149 133
-0.535108 -0.922032 4.32592 105 176 156
0.44206 -0.945238 4.44541 29 103 69
-0.449695 -0.909041 4.33911 130 218 188
-0.179446 -0.916481 4.36565 153 237 195
1.71686 -0.97029 4.63098 114 142 113
1.82929 -0.976537 4.6584 55 144 100
-0.626252 -0.894269 4.3219 96 150 120
-0.286513 -0.900143 4.35655 88 154 135
-0.706871 -0.885276 4.31183 85 147 129
1.70737 -0.953036 4.64811 128 200 157
1.71899 -0.952751 4.64458 71 116 83
-0.241836 -0.893696 4.38455 83 160 132
0.434998 -0.90102 4.43814 98 190 143
-0.633527 -0.861869 4.30952 89 134 107
-0.506846 -0.86856 4.33969 87 144 113
1.6922 -0.92895 4.62737 148 208 168
-0.50703 -0.868513 4.34126 87 144 113
-1.14787 -0.848182 4.25555 86 164 141
-0.413436 -0.864508 4.34921 106 166 136
-0.413307 -0.86455 4.34786 110 176 147
-0.393673 -0.860854 4.34616 104 165 145
1.72832 -0.916198 4.63069 141 211 171
-0.476645 -0.856202 4.34253 155 221 180
1.83457 -0.921501 4.66264 135 241 188
1.8515 -0.918189 4.66798 75 148 102
1.91989 -0.916048 4.67744 71 138 111
-0.436555 -0.848625 4.34533 78 120 89
-0.383468 -0.84845 4.34717 91 146 127
0.439941 -0.866561 4.45533 167 240 200
-0.16382 -0.850976 4.38056 93 167 143
-0.704306 -0.83471 4.32263 108 176 151
0.42514 -0.858066 4.44945 82 157 119
1.84716 -0.897382 4.67079 134 229 179
-0.476408 -0.812403 4.32437 175 248 208
0.0104018 -0.826427 4.41632 100 165 149
-0.440837 -0.799063 4.33483 77 131 101
-0.4685 -0.793843 4.32933 162 237 199
0.0111267 -0.805389 4.42243 97 161 142
1.75818 -0.848846 4.66829 78 141 109
0.00387795 -0.793353 4.41594 100 176 164
2.47872 -0.85363 4.78092 103 154 146
-0.560666 -0.770585 4.33695 104 167 151
1.74728 -0.834523 4.67574 78 161 122
-0.0909968 -0.772485 4.42561 98 150 140
0.070508 -0.772892 4.42376 118 172 165
1.95123 -0.821237 4.70355 120 189 162
-1.31903 -0.738298 4.26572 141 191 179
1.75165 -0.799684 4.67371 86 143 110
1.80647 -0.78974 4.69631 95 163 138
0.0844502 -0.743513 4.42862 109 170 150
-0.545654 -0.720747 4.35825 100 183 161
2.40474 -0.772107 4.78009 118 171 161
-1.26034 -0.683606 4.26816 82 143 133
0.0688337 -0.708127 4.44025 221 255 252
-0.680062 -0.679137 4.33436 104 160 139
-1.28183 -0.656657 4.26948 107 160 146
-1.17203 -0.66101 4.28296 88 152 122
-0.833636 -0.668488 4.33007 75 156 129
1.66209 -0.720769 4.68864 86 125 139
-0.6976 -0.66487 4.33432 76 146 115
-0.47239 -0.672248 4.37354 94 174 151
-0.72456 -0.656204 4.34815 89 150 124
-0.418597 -0.663954 4.37888 103 168 153
-0.817625 -0.648208 4.32034 67 128 100
-1.30312 -0.638946 4.26359 37 76 55
1.79276 -0.699704 4.69677 76 155 128
-0.969781 -0.639997 4.3026 142 196 166
-0.712194 -0.64506 4.3571 57 131 105
-1.12459 -0.62673 4.28414 62 110 82
-0.25656 -0.643912 4.39837 107 173 162
-0.97223 -0.627386 4.29929 75 132 107
2.95013 -0.706586 4.86665 103 186 148
-1.02627 -0.613946 4.29437 88 146 122
0.447347 -0.639046 4.50848 69 140 113
-0.925061 -0.609534 4.3229 140 228 175
-0.83941 -0.611343 4.33687 160 234 198
-1.13459 -0.59323 4.27331 55 98 61
-1.10328 -0.590048 4.28605 154 214 183
-0.830998 -0.596221 4.336 139 211 175
-1.35699 -0.577362 4.21337 63 119 98
-0.905028 -0.591072 4.31012 139 222 183
1.76859 -0.64411 4.7021 133 185 198
-1.05483 -0.584175 4.29491 156 219 180
-0.895971 -0.583269 4.33274 136 208 172
-1.31177 -0.571882 4.24503 140 206 165
-0.827014 -0.575222 4.33815 53 77 43
-1.09116 -0.562102 4.28792 125 205 176
-0.867135 -0.569276 4.32707 122 194 158
-2.39781 -0.540985 4.13837 73 136 120
-1.09356 -0.561245 4.2963 162 237 209
-1.10723 -0.558527 4.29775 58 120 96
-0.596 -0.569284 4.3806 89 158 131
0.351491 -0.579705 4.50104 80 136 117
0.498349 -0.581154 4.50534 95 151 122
-1.12467 -0.548683 4.29737 51 102 82
-0.836003 -0.551454 4.32712 112 162 130
-0.805931 -0.555742 4.34518 72 107 87
-0.611284 -0.55068 4.371 96 174 127
0.468304 -0.575491 4.52768 81 146 124
1.78741 -0.596545 4.70966 170 242 212
1.97083 -0.60063 4.74854 112 179 158
-0.817183 -0.532527 4.35097 51 111 77
-0.992299 -0.518202 4.30686 30 78 49
-0.956757 -0.517671 4.31568 79 137 113
-0.501644 -0.52668 4.3977 95 177 154
1.74535 -0.552388 4.71188 90 180 134
1.82251 -0.55557 4.71659 96 163 131
-1.01424 -0.497568 4.27216 156 241 196
-1.01923 -0.495791 4.2872 129 212 160
-0.894192 -0.487745 4.30936 32 73 45
-0.365614 -0.502728 4.42302 109 182 160
-0.990611 -0.483924 4.30548 57 104 72
-0.437778 -0.496894 4.40345 89 164 142
-0.809253 -0.482332 4.3661 86 137 130
-0.13877 -0.478485 4.44082 84 166 131
-0.964614 -0.456552 4.31891 167 221 178
-1.47355 -0.445157 4.25371 78 121 108
-1.0003 -0.449667 4.31355 57 118 82
0.136847 -0.467778 4.49469 106 175 164
-0.956883 -0.447475 4.32378 53 87 57
-1.26565 -0.440387 4.28531 122 169 153
-1.02736 -0.441455 4.30655 167 255 221
-0.244628 -0.452344 4.41388 40 110 80
-1.04162 -0.441458 4.32429 49 127 90
-1.03544 -0.438984 4.31143 42 131 87
0.506833 -0.459123 4.55286 86 144 126
2.5801 -0.493267 4.85294 96 181 149
-1.17584 -0.433437 4.29183 98 125 129
-0.972275 -0.433583 4.31424 66 127 91
-0.666574 -0.440741 4.39237 82 151 131
-0.378152 -0.439847 4.40813 54 102 78
1.95929 -0.477352 4.7651 107 186 159
-1.03307 -0.429316 4.3203 163 244 205
-0.450721 -0.435792 4.40363 137 198 212
2.06876 -0.463675 4.77354 103 161 133
-1.02047 -0.418625 4.32885 153 229 187
-0.454711 -0.426868 4.3959 250 255 253
-0.247859 -0.427819 4.4304 73 131 107
0.00918541 -0.432758 4.47391 107 168 158
-1.14452 -0.414764 4.3184 60 101 86
-1.00677 -0.408908 4.31473 72 121 101
2.20402 -0.457572 4.8001 89 149 125
-1.24333 -0.404382 4.29697 76 108 91
0.591574 -0.430421 4.56574 91 169 146
1.76942 -0.446613 4.74471 95 166 139
-0.440084 -0.41217 4.40967 70 131 105
-0.401801 -0.409534 4.41807 85 152 115
-0.364401 -0.407107 4.42512 63 137 103
-0.249987 -0.404502 4.44373 95 175 152
0.366538 -0.415483 4.53098 91 161 144
-0.873319 -0.39535 4.36716 77 133 104
1.92188 -0.429179 4.75435 95 188 143
-0.421273 -0.394433 4.40833 184 253 220
1.64485 -0.419723 4.72735 60 145 113
-1.20786 -0.3769 4.28212 107 178 135
-1.03065 -0.384502 4.34476 42 61 46
-0.394786 -0.389657 4.4247 84 165 126
-0.15584 -0.391158 4.45173 77 132 105
1.62736 -0.416463 4.72016 89 141 111
1.97632 -0.415312 4.75835 63 141 110
-1.51123 -0.364472 4.24997 161 219 190
-1.11183 -0.366572 4.30327 138 191 164
1.95335 -0.406786 4.75517 82 174 133
2.03705 -0.404335 4.75841 116 179 137
2.14587 -0.410572 4.79681 76 174 138
2.24766 -0.404514 4.8206 123 183 159
-0.897618 -0.362791 4.35904 97 161 126
0.587422 -0.38349 4.57477 96 163 160
-0.673159 -0.362555 4.40999 84 171 145
1.73599 -0.388691 4.73961 100 166 147
0.689197 -0.373443 4.58434 161 226 187
1.99054 -0.389313 4.76545 71 135 100
-1.06414 -0.345174 4.32299 50 86 56
0.590284 -0.367102 4.57502 73 129 100
-0.989318 -0.328743 4.36133 67 132 93
0.527328 -0.34534 4.58197 79 144 112
0.701265 -0.342675 4.59008 127 206 165
2.28621 -0.354231 4.83111 132 202 166
-0.93229 -0.318071 4.38365 94 164 133
0.456254 -0.333654 4.57011 88 167 153
0.704452 -0.333573 4.60535 54 106 76
2.20294 -0.351382 4.81693 142 221 182
-1.20859 -0.310537 4.30296 170 220 196
-1.0038 -0.315431 4.36011 162 250 204
-0.607789 -0.314295 4.40611 101 163 147
2.28939 -0.345583 4.82468 82 122 97
2.61994 -0.349631 4.87586 149 241 200
2.63528 -0.348942 4.87498 70 130 100
0.618992 -0.323288 4.60202 76 142 101
-1.4839 -0.294345 4.1893 71 110 85
-0.990843 -0.300389 4.36955 167 237 201
3.03146 -0.339962 4.94864 89 150 130
-0.534373 -0.298405 4.43278 103 175 152
-0.319713 -0.302601 4.45042 103 187 158
-0.940379 -0.285688 4.37556 105 161 138
-1.60332 -0.271071 4.16382 59 85 67
-1.13643 -0.268485 4.32771 50 105 78
0.643185 -0.282308 4.61121 234 255 254
0.707631 -0.285435 4.6166 80 168 138
0.277254 -0.277633 4.56471 105 175 152
0.64309 -0.282075 4.60913 239 255 255
-1.4257 -0.254448 4.20125 131 160 134
0.0729423 -0.264738 4.53306 113 172 181
1.96762 -0.277591 4.76308 67 126 88
2.24189 -0.278159 4.78173 161 227 176
2.09183 -0.276763 4.78873 168 232 197
-1.08016 -0.247486 4.34586 137 218 179
-1.03554 -0.249066 4.36369 59 106 74
1.94468 -0.270357 4.76197 75 139 110
0.390743 -0.258534 4.58131 86 161 139
2.37314 -0.272334 4.84358 81 148 121
2.47636 -0.274745 4.87014 88 178 149
2.28351 -0.266184 4.79355 70 95 67
-0.721536 -0.241055 4.42695 90 145 128
0.145495 -0.246547 4.52164 66 115 87
1.82243 -0.259242 4.76193 74 155 110
2.14772 -0.257342 4.77231 103 177 165
2.18525 -0.2552 4.74336 99 166 134
2.45135 -0.25635 4.85527 93 144 116
0.0389582 -0.235476 4.50561 111 178 149
0.039572 -0.235991 4.50259 87 154 125
-0.998244 -0.225012 4.38362 72 152 121
0.530105 -0.237313 4.59514 87 168 141
2.42588 -0.250665 4.85432 97 158 130
0.0667895 -0.22988 4.52406 63 135 105
0.189209 -0.234262 4.55502 67 119 101
1.60094 -0.240607 4.74835 97 171 135
0.052436 -0.228349 4.5181 42 128 94
0.167733 -0.226199 4.55427 61 142 117
0.0302725 -0.218089 4.50283 151 230 187
-1.10233 -0.210549 4.34799 110 202 151
0.0479913 -0.21272 4.51769 122 208 168
0.354331 -0.213619 4.5819 83 148 132
1.38932 -0.215628 4.71067 90 158 133
-0.135609 -0.199368 4.49828 80 145 119
-1.4307 -0.187277 4.26257 52 71 46
-0.724052 -0.183214 4.44062 77 127 117
-1.04412 -0.176839 4.381 71 132 112
0.98395 -0.186959 4.66881 100 165 144
-0.760961 -0.174763 4.43651 92 126 115
0.71113 -0.179432 4.64343 95 154 134
-1.09291 -0.168298 4.36773 131 213 178
0.859615 -0.180131 4.65577 100 169 149
0.271823 -0.174918 4.57894 77 153 135
-1.41138 -0.158965 4.26971 125 164 132
-1.16142 -0.159709 4.36611 128 200 158
-0.993134 -0.162842 4.39953 106 157 143
-0.769716 -0.163149 4.44363 142 206 211
-0.570703 -0.159061 4.46985 74 122 96
-0.979377 -0.150287 4.40026 62 128 103
-0.955855 -0.150704 4.41155 93 161 144
1.41428 -0.159837 4.728 102 154 136
2.505 -0.166254 4.88814 96 161 139
-0.751919 -0.14336 4.45094 90 123 109
-0.236359 -0.148052 4.503 80 155 133
0.7131 -0.150483 4.63695 73 141 106
2.48695 -0.159036 4.86776 169 246 209
-0.662205 -0.1434 4.45338 137 179 172
-0.345931 -0.141108 4.48839 80 153 121
1.95698 -0.153387 4.81796 89 166 128
-1.02579 -0.136859 4.41066 70 142 119
2.71502 -0.156821 4.91189 100 154 119
0.722755 -0.142368 4.62876 170 239 202
2.70894 -0.150322 4.91642 80 119 97
-0.530614 -0.133412 4.47016 193 230 255
1.26844 -0.143327 4.68999 106 177 151
1.43762 -0.141034 4.73883 106 141 144
-0.976816 -0.13214 4.41106 143 213 196
2.49712 -0.141999 4.88251 156 229 191
2.73699 -0.142245 4.91083 73 125 101
-0.458488 -0.130944 4.49116 89 139 139
0.785397 -0.131425 4.6456 75 141 100
1.02319 -0.135341 4.68855 83 159 141
-0.767407 -0.118105 4.44625 80 126 113
2.67729 -0.131329 4.91198 114 174 143
-0.63468 -0.114106 4.47597 164 204 233
-0.305079 -0.115465 4.51174 67 154 121
-0.30004 -0.115613 4.51272 93 168 140
0.594167 -0.118489 4.62821 98 172 148
0.741157 -0.121929 4.64537 99 176 138
2.72863 -0.126327 4.90765 60 142 99
-0.986082 -0.108801 4.4171 88 149 129
-0.469289 -0.111248 4.47863 53 99 76
-0.0730262 -0.112625 4.52495 81 137 114
-0.839958 -0.105716 4.43735 96 151 148
-0.636667 -0.105299 4.46387 101 129 164
-0.0544132 -0.103668 4.53249 44 122 105
-0.0288934 -0.100229 4.54233 60 124 102
-1.20671 -0.0941035 4.36928 71 112 84
1.61896 -0.100412 4.77602 100 174 150
2.71483 -0.104126 4.89698 147 235 175
0.754696 -0.0930494 4.64615 92 147 128
-0.118696 -0.0887995 4.52289 68 135 108
0.295231 -0.0891099 4.59235 83 129 116
0.656645 -0.0899434 4.64151 71 141 118
-0.0924105 -0.0842613 4.53868 91 158 137
-1.03824 -0.0784595 4.42018 81 143 125
-0.868996 -0.0826102 4.4633 75 104 95
2.603 -0.0865928 4.91136 98 154 135
2.7309 -0.0912066 4.89637 128 217 173
-0.701213 -0.0801332 4.47278 144 169 185
-0.772665 -0.074265 4.45685 98 127 164
0.285231 -0.0770664 4.58229 192 243 216
0.667822 -0.0763721 4.65775 93 157 135
2.40125 -0.0809406 4.8634 104 167 151
0.417336 -0.0738032 4.60574 154 225 198
3.06661 -0.0769871 4.93522 97 151 122
-0.852311 -0.0682849 4.45718 85 109 131
-0.692597 -0.0703263 4.46319 124 133 130
0.310786 -0.0695014 4.59643 119 179 145
2.75641 -0.0765931 4.91584 83 162 129
-1.22937 -0.0651439 4.36897 141 219 178
-0.765187 -0.0640889 4.46307 171 214 241
-0.110369 -0.0670828 4.53846 67 127 116
0.458713 -0.0685223 4.62045 100 154 147
-0.568222 -0.0639069 4.48618 106 139 112
-1.26773 -0.056943 4.38093 45 99 70
-0.780402 -0.0564935 4.45819 102 130 131
0.664944 -0.0573118 4.65011 107 173 161
-1.13099 -0.049922 4.41391 78 125 109
0.361885 -0.0528718 4.60897 99 163 141
-0.800539 -0.0439647 4.46545 154 201 209
-0.734684 -0.0458142 4.46718 72 95 81
-0.913917 -0.0416207 4.4489 147 185 217
1.73858 -0.0438316 4.80588 93 157 138
2.90269 -0.042709 4.91562 158 228 192
3.02652 -0.0440613 4.97859 65 133 92
-0.9091 -0.0335333 4.44541 91 98 118
0.303133 -0.0364246 4.57948 71 128 95
0.400126 -0.0353382 4.60664 94 152 127
1.77067 -0.0402117 4.80134 97 154 133
-1.07675 -0.034855 4.4301 123 179 156
-0.775923 -0.0340238 4.46186 62 103 88
2.53955 -0.0358625 4.89445 80 147 132
-0.590282 -0.0281846 4.49577 82 129 97
2.18709 -0.0301514 4.85425 105 183 142
2.81597 -0.0284916 4.90247 110 171 137
-1.009 -0.0233466 4.45075 113 155 148
-0.806375 -0.0213413 4.45738 98 145 137
1.75256 -0.0189014 4.80901 87 157 121
3.06103 -0.020924 4.96845 40 78 60
-0.553944 -0.010013 4.50614 82 156 126
1.3166 -0.0139228 4.74605 107 182 166
2.02892 -0.0149007 4.83971 93 169 127
-1.08413 -0.010776 4.43672 130 183 169
-0.565693 -0.00731371 4.4919 160 231 205
0.32437 -0.00939636 4.61223 74 165 140
1.77606 -0.0098516 4.80429 69 113 90
2.20582 -0.00814476 4.87239 105 169 134
-1.28688 -0.00801592 4.39736 58 120 98
-0.95242 -0.00824243 4.45905 95 115 132
-0.704433 -0.00298908 4.48913 99 149 119
0.318023 -0.00352412 4.62027 93 181 157
-1.02437 -0.00130136 4.43588 134 173 171
-0.0210978 -0.00379964 4.55821 119 190 164
-0.472807 0.00363849 4.55253 139 217 193
2.18849 0.00256149 4.84622 167 239 193
2.21409 0.00245263 4.86113 171 237 196
-0.643203 0.00517699 4.49763 78 124 102
-0.627187 0.00716099 4.49827 112 176 147
2.7779 0.00638131 4.91637 142 228 180
3.12054 0.00412001 4.9261 201 245 214
-0.990993 0.0100593 4.45436 159 204 218
-0.990636 0.0101081 4.45458 159 204 218
2.1611 0.00795604 4.85965 100 176 135
2.89204 0.00960907 4.96407 48 79 72
-0.949609 0.0118031 4.45309 81 112 109
-0.554756 0.0116023 4.49511 158 220 204
-1.01899 0.0138698 4.4502 150 180 205
1.8617 0.0164755 4.83259 206 255 241
2.40524 0.0228223 4.91094 78 130 113
2.35812 0.0262935 4.88574 109 174 152
2.41304 0.0253501 4.87894 121 218 178
-0.729541 0.0269157 4.48523 144 210 185
-0.724732 0.0279586 4.49759 144 211 184
1.19309 0.0312728 4.73538 97 186 147
0.0247953 0.0331555 4.58626 72 146 110
1.19429 0.0323669 4.7404 95 182 148
2.42343 0.0343719 4.88327 136 228 185
-1.12659 0.0349643 4.43632 141 195 188
-0.929082 0.0335027 4.46582 133 174 176
0.853074 0.035593 4.70224 65 146 107
2.97011 0.0348685 4.91373 82 119 109
-1.21699 0.0386908 4.42832 66 114 96
2.27024 0.0389819 4.87916 83 135 111
-2.03964 0.0415488 4.32907 76 150 122
-0.71781 0.0443607 4.49772 141 184 175
0.0472617 0.0445785 4.59445 77 147 117
0.717402 0.045872 4.67278 101 165 136
0.733865 0.0446176 4.6765 171 247 213
2.06425 0.0499992 4.8667 72 123 86
-0.57772 0.0466242 4.50737 154 199 212
1.26598 0.048779 4.7479 161 241 204
-0.613334 0.0507264 4.51678 104 136 135
2.70273 0.052952 4.93582 114 148 131
-1.12214 0.0516863 4.44289 170 201 232
0.69218 0.0545304 4.67774 52 119 88
1.91724 0.054734 4.8321 84 145 111
2.2968 0.0589891 4.88131 51 103 85
2.37419 0.0587706 4.9107 63 102 87
2.57797 0.0554141 4.92538 73 98 70
0.0410469 0.0564757 4.588 100 166 141
1.17932 0.061229 4.72873 160 242 199
-0.445982 0.0580328 4.53098 88 112 104
0.791792 0.0625484 4.67006 77 140 98
2.67443 0.0652593 4.93963 57 76 49
-0.942406 0.0616263 4.46048 185 229 222
-0.644405 0.0620494 4.50714 149 191 198
-0.464816 0.0615219 4.54043 115 154 139
2.72403 0.0678554 4.93023 167 220 207
2.92553 0.0692717 4.89871 124 171 145
-1.1427 0.0645504 4.45057 150 187 221
-0.4416 0.0674911 4.53718 135 171 165
0.69758 0.0677809 4.68571 92 168 136
-0.442598 0.0673044 4.53933 131 161 156
2.09632 0.0752601 4.88282 61 99 71
2.7317 0.0772818 4.9379 85 145 137
-1.24952 0.0706571 4.42875 79 144 128
1.16962 0.0731344 4.7301 61 90 65
2.76691 0.0749383 4.8836 180 238 227
1.06604 0.0766642 4.72787 93 176 161
-1.139 0.0747058 4.456 85 108 116
-1.13722 0.0748271 4.45655 79 93 99
-1.00309 0.0758453 4.46708 141 191 189
0.550068 0.0773479 4.66999 101 178 164
1.47623 0.0811117 4.76604 153 218 186
-1.09652 0.0795612 4.4527 74 110 104
-0.66313 0.0804772 4.51411 124 155 146
-0.552287 0.0819186 4.52426 89 149 131
1.93459 0.0835239 4.82947 78 136 101
2.40139 0.084449 4.89397 37 87 47
1.73734 0.0901141 4.82088 151 218 179
2.81586 0.0898455 4.89914 78 127 113
0.873724 0.0880588 4.69915 80 153 115
0.973874 0.0866153 4.71753 103 171 148
1.67072 0.0910943 4.80666 144 210 175
1.88904 0.0932001 4.81535 86 149 105
2.17809 0.0925489 4.8799 99 169 139
-1.08325 0.0895389 4.47062 80 109 118
-0.988958 0.0874411 4.46768 153 198 202
-0.611516 0.0897946 4.51584 118 144 130
2.80477 0.0983023 4.88932 160 223 207
-1.07374 0.0948343 4.47442 143 188 199
0.915316 0.0995333 4.71633 84 159 131
2.32274 0.101741 4.88707 113 164 137
-0.49723 0.0992295 4.53384 138 210 187
-0.986004 0.0999234 4.47582 179 212 197
0.746709 0.104831 4.69039 64 103 82
0.71176 0.106247 4.6726 81 145 116
2.21056 0.111431 4.86775 120 193 153
-1.18699 0.104261 4.45771 95 150 157
1.78957 0.114264 4.83202 157 241 199
1.83668 0.11381 4.82265 132 214 171
2.30635 0.114023 4.86409 61 75 63
2.48788 0.118394 4.87868 140 215 177
2.53826 0.117732 4.87407 119 194 156
0.385318 0.115204 4.65618 83 155 133
1.6954 0.120195 4.80059 54 92 56
-0.980842 0.112797 4.47277 106 135 119
-0.345075 0.119158 4.55099 87 152 130
2.57996 0.122786 4.89552 48 59 49
-0.741863 0.116499 4.51154 121 165 134
-0.437429 0.118959 4.54212 137 192 175
2.57859 0.12602 4.86335 139 243 196
2.59916 0.128711 4.86715 54 108 78
2.6223 0.126473 4.85514 49 82 61
2.7008 0.125907 4.88925 127 182 165
0.0159443 0.123433 4.60117 102 167 151
0.755824 0.125357 4.68023 170 249 208
1.70765 0.131489 4.80253 141 209 168
2.18806 0.134694 4.8695 154 194 152
2.63002 0.134807 4.86211 142 225 186
1.75415 0.13559 4.8044 172 244 198
0.370296 0.140161 4.65013 139 226 200
1.30574 0.145691 4.77929 85 153 122
2.08283 0.145286 4.87594 138 222 180
2.55949 0.146448 4.86667 136 220 172
0.510213 0.145752 4.6761 83 159 135
1.97433 0.148341 4.8435 136 226 180
2.13921 0.152568 4.89372 54 87 60
2.52981 0.149309 4.8535 150 232 189
-0.464067 0.140926 4.54255 137 183 160
-0.451016 0.142639 4.54992 82 114 97
2.1358 0.151159 4.88773 50 85 58
2.54616 0.152872 4.85617 48 96 70
2.6797 0.152832 4.86565 72 104 93
0.481417 0.151366 4.66769 69 120 106
1.2469 0.151796 4.75809 169 232 190
2.41899 0.155666 4.86301 91 142 98
2.46062 0.156509 4.83594 139 209 178
-0.895663 0.14793 4.4925 118 145 125
1.33089 0.158851 4.76034 72 115 82
1.78938 0.157272 4.82083 117 155 119
2.51026 0.159334 4.84532 133 225 178
-0.695484 0.152767 4.52166 114 145 118
1.84986 0.166133 4.83615 126 177 140
2.38913 0.165667 4.8577 117 158 130
0.40641 0.159349 4.66362 93 142 122
0.866827 0.163806 4.7146 70 141 114
1.33667 0.165003 4.78559 60 94 70
1.98894 0.168451 4.85328 51 110 90
-1.18539 0.155924 4.4354 114 155 140
1.23915 0.170547 4.77118 70 138 103
1.57415 0.169147 4.74088 54 93 68
2.07448 0.171962 4.83523 45 75 70
2.28664 0.173154 4.81666 131 183 136
2.44432 0.174834 4.85312 55 113 84
-0.464212 0.165653 4.55604 60 129 102
1.99541 0.175046 4.83966 129 219 184
2.4258 0.176062 4.84306 145 216 176
1.28425 0.175462 4.77058 120 192 162
-0.798673 0.17059 4.51671 134 122 94
-0.458512 0.174224 4.55461 74 132 104
2.30966 0.184698 4.81897 122 165 138
-1.36089 0.172142 4.44939 86 117 140
-0.699795 0.176462 4.52936 100 131 102
1.9398 0.187737 4.83542 85 142 127
-1.2161 0.176493 4.44851 126 155 130
-0.662362 0.180062 4.54172 112 144 127
0.860965 0.185974 4.72737 78 162 120
1.18485 0.185228 4.75352 81 112 97
1.42243 0.189224 4.8028 51 91 73
-1.18921 0.17969 4.45492 98 114 97
-0.609653 0.183384 4.52448 141 215 191
1.20844 0.190052 4.75181 53 107 72
1.39975 0.192135 4.78689 149 225 184
2.11691 0.193291 4.83233 122 171 133
2.27857 0.191693 4.79173 144 198 168
1.43009 0.196375 4.8087 135 188 155
1.43885 0.194246 4.78377 116 162 139
2.2148 0.195187 4.7972 74 118 95
-2.44132 0.178106 4.29845 67 112 85
-1.11468 0.18504 4.45815 128 158 129
1.35967 0.19748 4.78495 144 204 170
1.4514 0.199251 4.78766 51 71 66
1.96429 0.199724 4.83235 150 220 183
-0.452315 0.193818 4.56746 87 131 118
1.96304 0.203706 4.8551 71 125 112
-0.590264 0.193047 4.54218 170 205 191
1.43324 0.205865 4.7939 105 133 113
2.31078 0.209671 4.82834 85 136 102
1.19004 0.205313 4.73079 84 145 109
2.03926 0.209613 4.82546 122 160 132
2.24824 0.206519 4.80435 87 124 104
-0.596241 0.204688 4.54585 53 77 65
1.93811 0.219164 4.83535 124 168 137
1.54812 0.217378 4.77184 172 217 190
1.55423 0.217791 4.75795 89 131 108
2.03374 0.222931 4.80964 44 57 41
0.300568 0.220431 4.67467 90 155 129
-0.744537 0.215358 4.53055 128 185 164
-0.759122 0.219315 4.51773 177 180 165
2.01401 0.236736 4.82581 101 143 118
-0.7258 0.226601 4.5449 130 188 159
0.55035 0.230602 4.69787 87 134 118
-0.751876 0.226197 4.52346 117 160 133
1.33466 0.236704 4.74899 149 185 155
1.33753 0.237135 4.75416 159 197 167
1.76241 0.24019 4.74207 37 60 38
0.49131 0.237243 4.68814 175 242 215
1.52052 0.243037 4.76266 108 144 122
2.14677 0.244951 4.78766 57 98 66
2.01648 0.243494 4.80313 75 91 67
1.26422 0.24929 4.75358 93 141 115
-0.43305 0.242273 4.58506 96 160 131
1.31839 0.250058 4.74002 158 196 166
1.96142 0.253128 4.80157 153 190 164
1.99834 0.253399 4.78835 126 196 160
-0.842556 0.242156 4.51885 147 171 153
-0.702048 0.241038 4.54274 51 76 48
1.91741 0.257128 4.81585 156 189 174
1.91366 0.257566 4.78659 134 168 151
-0.819637 0.242946 4.52813 107 146 120
-0.607596 0.247162 4.55938 71 129 105
1.34273 0.256026 4.74223 164 240 198
1.43899 0.256872 4.78039 69 107 85
-0.628068 0.249868 4.54618 64 91 75
1.92038 0.261106 4.79179 180 211 184
2.05094 0.260739 4.77934 165 245 202
0.885259 0.263571 4.7485 69 104 84
0.942646 0.264327 4.74108 162 216 186
0.497326 0.263072 4.69527 83 140 109
1.90297 0.265792 4.76773 59 63 44
1.47143 0.272357 4.76843 154 192 164
-0.642071 0.259656 4.56024 125 186 152
-0.616273 0.259507 4.54993 118 161 140
1.2068 0.270852 4.73965 59 84 70
1.59127 0.272019 4.72625 154 196 171
-0.183479 0.266715 4.60549 107 173 161
0.813639 0.275361 4.72116 85 118 97
1.37839 0.27597 4.77178 179 236 205
1.62705 0.276813 4.70936 147 211 182
0.266405 0.276939 4.66717 68 137 104
1.59485 0.281439 4.7248 79 110 89
1.23832 0.288155 4.76541 61 87 63
-0.744786 0.275382 4.53697 44 79 52
0.417203 0.280471 4.67644 67 125 96
-0.858183 0.277305 4.51284 164 199 189
1.26126 0.288496 4.75677 145 201 178
1.9959 0.292637 4.79493 88 123 97
0.67771 0.292712 4.7276 70 136 111
1.49807 0.295307 4.7523 149 190 159
1.55384 0.292062 4.71378 169 240 200
-0.661042 0.28455 4.56247 105 165 134
-0.646947 0.285709 4.56314 70 95 69
-0.864806 0.286139 4.53278 134 189 144
-0.725334 0.28604 4.53855 59 87 64
-0.468586 0.290584 4.57642 96 158 122
0.365473 0.29766 4.68601 86 144 120
0.537243 0.300833 4.71386 74 122 93
0.539365 0.297909 4.70331 66 120 91
0.771864 0.300351 4.73784 154 196 165
1.3653 0.304393 4.76517 84 119 92
-0.829397 0.290047 4.53177 147 186 148
0.701255 0.30268 4.73418 95 169 139
1.20275 0.308495 4.729 138 192 163
0.00463834 0.304492 4.64263 92 167 151
1.37344 0.311241 4.76591 162 215 182
1.49225 0.308004 4.75421 47 55 44
0.423941 0.308747 4.69126 78 135 110
0.492495 0.309143 4.67488 104 144 109
1.51176 0.318452 4.73953 154 204 170
1.62675 0.316318 4.69353 73 97 79
0.344372 0.316597 4.68142 38 80 57
0.527964 0.320028 4.69884 147 214 182
1.54432 0.321688 4.7084 54 77 63
-1.83926 0.302782 4.4175 169 223 206
1.36511 0.330553 4.75535 161 217 182
1.49787 0.32838 4.73095 75 100 80
1.25188 0.331357 4.75063 158 244 204
1.33032 0.336488 4.77289 55 67 55
1.49098 0.332896 4.74525 50 73 58
1.50258 0.333381 4.74874 56 83 67
-1.05005 0.318825 4.48872 101 147 104
-0.96601 0.321772 4.50212 122 149 129
-0.964637 0.322935 4.50613 108 143 117
-0.781865 0.324985 4.53432 63 80 53
1.18718 0.337149 4.7349 162 190 170
-1.01998 0.320089 4.47338 101 122 97
0.293707 0.336649 4.68429 166 235 198
1.22387 0.340292 4.75115 142 194 170
1.2705 0.341167 4.76809 67 136 109
1.49163 0.341538 4.72384 173 242 205
-0.747057 0.330192 4.53432 121 138 127
0.894954 0.341203 4.72077 55 78 56
-0.799089 0.330232 4.52405 46 77 44
-0.554436 0.335529 4.58949 64 92 62
0.142274 0.342669 4.67103 67 139 126
0.960009 0.345835 4.73183 157 218 180
1.4126 0.344593 4.70298 60 89 64
-0.751606 0.335535 4.55251 184 197 183
0.14259 0.347177 4.68671 94 173 154
0.329405 0.350577 4.69865 137 202 177
0.865772 0.350847 4.72331 140 195 168
1.08132 0.351868 4.70911 76 121 105
1.28116 0.356197 4.73644 50 100 66
1.41107 0.359804 4.7243 140 210 169
1.50816 0.35698 4.71218 128 207 164
-0.784618 0.34778 4.53329 139 209 169
-0.758738 0.350035 4.54783 56 100 69
0.336614 0.357995 4.69435 84 124 106
1.473 0.358993 4.71995 137 194 156
-0.522983 0.353511 4.5809 126 168 145
1.27396 0.366355 4.74702 137 199 159
1.38887 0.361977 4.69437 43 101 66
1.50933 0.364323 4.71202 73 101 72
-1.01873 0.349227 4.49235 91 156 117
1.3058 0.367881 4.7258 144 219 168
1.35608 0.365678 4.7212 161 213 183
1.4855 0.368412 4.72024 172 236 200
1.53836 0.368872 4.72885 68 85 72
0.985166 0.369666 4.71846 155 229 195
1.36396 0.368632 4.69865 60 108 82
0.292922 0.371452 4.66446 157 219 195
1.22094 0.375719 4.71939 36 54 41
-2.19279 0.351541 4.38018 82 147 125
-0.364563 0.368079 4.62911 63 112 96
0.841277 0.374728 4.69763 50 81 66
0.91621 0.377139 4.72453 139 185 166
1.43917 0.374712 4.69645 133 202 165
0.193539 0.375112 4.69378 79 156 135
0.978497 0.380007 4.73547 52 89 69
1.48126 0.37901 4.72148 97 130 109
0.00935562 0.379188 4.66407 61 133 113
0.559424 0.383415 4.69311 80 114 103
0.921057 0.383227 4.71649 41 49 42
1.08942 0.386384 4.73542 169 232 193
1.2909 0.382489 4.72606 65 87 75
-0.610773 0.373156 4.56475 173 236 204
-0.835508 0.373983 4.54211 76 115 93
0.659477 0.393304 4.7162 169 219 209
1.00093 0.395467 4.74547 122 158 136
1.45019 0.392066 4.71465 83 148 109
-1.05534 0.377009 4.50006 166 206 194
-0.625415 0.382073 4.57636 152 206 183
0.130948 0.392035 4.68078 123 152 137
0.481972 0.390314 4.65969 59 111 94
-1.15072 0.381721 4.49651 44 79 53
0.528099 0.400258 4.67821 53 60 47
1.26994 0.400768 4.7062 100 128 108
-0.479428 0.394225 4.58429 60 87 71
-0.441327 0.393662 4.59588 143 216 166
0.947848 0.406375 4.73043 93 129 112
1.12643 0.405568 4.71835 180 221 193
-0.464779 0.396823 4.58892 161 235 193
0.913372 0.405911 4.70512 120 156 140
1.45523 0.408253 4.71842 74 144 107
-0.243828 0.40206 4.61838 130 197 170
0.467794 0.406346 4.65864 35 55 42
1.09979 0.409399 4.71166 166 201 174
1.1651 0.413354 4.7106 128 160 136
1.26035 0.414334 4.72236 72 70 59
1.27011 0.413108 4.71659 164 202 172
1.32724 0.415087 4.72689 88 134 112
-0.439022 0.408359 4.59119 129 203 161
-0.490462 0.412704 4.5988 150 225 187
0.25415 0.419833 4.6793 72 111 103
0.48848 0.419557 4.65529 143 204 168
-0.871656 0.41467 4.54304 119 162 129
-2.01578 0.404939 4.39668 115 151 137
0.153822 0.427662 4.67511 132 189 156
1.18034 0.43338 4.70797 94 129 115
1.28794 0.435486 4.72537 98 145 137
0.53908 0.433418 4.66815 69 114 87
1.01785 0.436623 4.67028 148 195 173
0.70373 0.442221 4.70958 49 92 71
1.08172 0.440772 4.70918 77 100 78
1.09733 0.441477 4.71216 166 221 204
-0.320665 0.432463 4.59948 143 208 163
0.521856 0.445837 4.69152 145 185 157
0.611954 0.444921 4.70124 178 235 220
1.11377 0.448419 4.7138 176 236 206
0.443409 0.442308 4.62544 112 151 129
0.0845648 0.446934 4.64381 45 105 75
0.695414 0.454755 4.68978 44 80 68
0.239004 0.457576 4.68077 80 121 106
0.534571 0.458053 4.68098 143 197 174
1.05213 0.463077 4.69646 126 174 150
1.07703 0.46526 4.70576 161 203 178
-0.92698 0.450159 4.51249 185 227 210
-0.616565 0.459784 4.59411 99 140 119
-0.591739 0.460491 4.59296 63 87 75
1.00045 0.464641 4.6655 56 110 81
1.06374 0.47291 4.72807 145 204 176
0.439695 0.464671 4.63293 35 69 45
-0.28282 0.468455 4.6314 133 185 155
0.253779 0.471311 4.67387 163 201 179
1.07361 0.475925 4.70232 82 132 114
1.02762 0.476853 4.69969 80 112 93
1.96782 0.513595 4.98963 118 175 167
-0.708201 0.475785 4.58842 65 98 83
-0.707334 0.475665 4.58806 74 102 89
-0.127009 0.486225 4.66608 90 153 137
0.247043 0.486532 4.65984 129 166 134
0.377257 0.487792 4.65364 77 121 104
0.313121 0.489994 4.65521 56 79 75
0.454447 0.487266 4.6451 147 191 162
0.275026 0.492925 4.6702 151 202 175
-2.00368 0.471162 4.42953 121 167 145
0.330334 0.494496 4.65563 159 211 201
0.766213 0.495136 4.65644 88 108 95
0.799572 0.493552 4.63968 54 82 76
0.28034 0.497981 4.66427 65 91 73
-0.688379 0.494203 4.58884 165 219 196
0.294435 0.502407 4.67415 123 159 137
-2.05598 0.478884 4.41832 195 246 212
0.555443 0.506768 4.6604 72 141 128
-0.711426 0.499551 4.58601 121 163 146
-0.0674617 0.51413 4.71542 83 145 123
0.652289 0.506322 4.6634 56 76 63
-0.786645 0.499303 4.55736 53 77 69
0.266053 0.511036 4.66895 126 169 148
0.595677 0.50975 4.66165 47 79 68
0.770407 0.508777 4.64993 175 221 199
0.616319 0.512065 4.65668 47 86 78
0.582747 0.517078 4.66572 167 201 195
0.645263 0.519227 4.66362 188 235 226
-0.637943 0.516499 4.60534 60 87 77
0.143362 0.519956 4.63591 79 128 100
2.5329 0.570582 5.09494 141 136 135
-0.595568 0.523497 4.60467 107 153 141
-0.576813 0.521857 4.60813 99 140 133
0.489281 0.526339 4.65942 118 160 153
0.657384 0.528631 4.66361 84 118 111
-0.0263898 0.540421 4.70161 98 150 133
-0.388365 0.531016 4.60606 107 135 115
-0.282359 0.538522 4.66814 42 84 66
-1.98865 0.515061 4.44407 100 149 141
-0.592713 0.538839 4.62736 168 222 215
0.195501 0.541478 4.64611 119 144 118
-0.814988 0.537961 4.57215 48 55 42
-0.141527 0.547976 4.66106 146 189 174
0.346836 0.548378 4.64362 140 182 165
0.388114 0.54319 4.60786 61 123 101
0.408766 0.545076 4.62116 141 206 181
-0.616687 0.546109 4.60374 176 229 209
0.517897 0.551969 4.64865 78 122 121
0.518483 0.551803 4.64816 73 120 118
-1.99138 0.529634 4.43234 93 122 113
0.486388 0.558112 4.64733 74 108 101
-1.9802 0.534954 4.42574 153 218 197
0.148321 0.560068 4.64119 136 169 148
0.46829 0.560105 4.63368 161 231 218
0.136896 0.565099 4.65314 42 63 54
0.23888 0.567686 4.64741 60 75 61
0.266256 0.572183 4.66161 163 211 182
-2.21359 0.545295 4.42157 77 127 109
-0.725478 0.56031 4.54642 160 204 168
0.224965 0.572967 4.64451 139 180 153
-0.744537 0.564587 4.54952 130 198 167
0.380775 0.580686 4.61814 94 154 136
0.097215 0.583322 4.63084 130 159 144
-0.0351914 0.592195 4.67109 145 154 127
-0.300719 0.608554 4.66117 41 60 45
-1.67494 0.585616 4.41028 60 90 79
0.134537 0.613351 4.5797 150 221 194
-1.76052 0.599305 4.41885 84 118 107
-0.382243 0.625615 4.6277 35 50 36
-2.01182 0.606422 4.44422 133 179 157
1.15122 0.675669 4.92592 99 164 155
-1.99182 0.613539 4.42189 153 189 165
-1.7076 0.614589 4.41903 84 132 114
-2.00169 0.620005 4.43957 122 144 125
-1.75345 0.620879 4.43987 149 217 206
-1.98113 0.639218 4.43875 119 163 126
-1.93322 0.644985 4.42877 37 56 41
-1.72622 0.652787 4.42939 66 96 85
-0.398131 0.690188 4.58611 131 201 171
-0.396181 0.688337 4.58111 140 209 176
-0.180738 0.690604 4.59258 86 139 119
-0.237663 0.696261 4.60416 87 132 116
-0.299939 0.70251 4.58454 44 104 80
-1.94773 0.677447 4.40289 101 164 132
-0.236414 0.707806 4.61286 113 159 146
-2.37734 0.688536 4.44367 78 125 109
-0.337131 0.707228 4.57472 126 188 164
-0.339144 0.709935 4.58195 129 185 164
2.05782 0.837797 5.06744 150 142 142
2.02285 0.835738 5.01197 187 193 192
-0.745243 0.768819 4.56684 143 231 191
-0.742657 0.768828 4.56712 140 228 188
-0.852932 0.779454 4.58462 47 63 52
-0.783761 0.771528 4.53443 120 181 145
0.0600215 0.822359 4.82838 84 150 139
-0.784603 0.786219 4.5629 137 211 181
