ply
format ascii 1.0
element vertex 1070
property float x
property float y
property float z
property uchar blue
property uchar green
property uchar red
end_header
-0.0217215 -0.776794 4.4945 160 206 193
-1.52466 -0.380666 4.51259 66 127 99
0.0609181 -0.224444 4.45916 127 154 151
-0.201372 0.459219 4.43517 99 122 124
-1.51231 -2.01963 4.62913 148 214 179
0.916627 -1.86922 4.53498 95 114 97
0.897374 -1.85291 4.50864 169 206 196
-1.79885 -1.84309 4.63398 124 154 141
0.265328 -1.58519 4.51584 83 140 125
0.510283 -1.51523 4.54791 144 182 176
0.0781505 -1.46944 4.53985 122 153 152
-1.12121 -1.4037 4.46293 107 171 149
0.124151 -1.38316 4.47543 108 168 138
-0.115671 -1.25496 4.54801 105 152 144
-0.017488 -1.13787 4.51807 116 153 145
0.127082 -1.0817 4.51244 123 148 150
-0.0915267 -1.06629 4.53349 158 186 180
-0.0900144 -0.990322 4.52105 133 196 164
-2.04734 -0.975792 4.46731 124 215 176
-0.995402 -0.820329 4.53634 82 142 124
-1.05998 -0.806234 4.54978 119 182 162
0.281377 -0.633113 4.47744 96 112 111
-1.39209 -0.572866 4.53045 148 216 185
-0.487937 -0.497969 4.49623 148 222 180
-1.73784 -0.481257 4.54677 89 149 131
-1.57831 -0.477898 4.52527 150 198 170
-1.53312 -0.463606 4.50096 135 202 165
-1.70227 -0.388428 4.52522 162 219 198
0.0288208 -0.353725 4.45601 91 119 113
-1.42249 -0.244973 4.44295 136 168 163
-0.0335808 -0.244122 4.48392 101 161 153
-0.60596 -0.230953 4.51621 108 149 141
-0.65845 -0.158042 4.48014 98 135 133
-0.844078 -0.154545 4.47676 112 160 134
-0.918344 -0.0930094 4.47092 118 149 148
-2.15595 -0.0665643 4.28594 125 155 126
0.514147 -0.0572814 4.466 91 118 109
-0.0548375 -0.0077361 4.42639 127 169 168
-0.142303 0.028306 4.45016 116 130 128
-0.908031 0.0283468 4.44647 129 165 143
-0.511167 0.0533784 4.47021 122 153 146
-1.72585 0.0812489 4.50291 159 216 195
-1.77656 0.0918541 4.4978 77 102 76
-0.274298 0.167766 4.42395 66 84 77
-1.42695 0.26996 4.5152 107 138 141
1.12719 0.345928 4.3984 138 162 160
0.417476 0.37955 4.43231 85 130 127
-0.361872 0.455838 4.41737 166 230 188
-0.6681 0.476935 4.42686 144 202 173
-0.957093 0.544006 4.46057 151 192 177
-1.038 0.560776 4.46866 55 85 74
-0.687014 0.612329 4.45029 86 136 112
-1.85409 0.626451 4.5024 123 172 152
-0.389842 0.645228 4.44751 84 102 95
-1.63773 0.71771 4.47051 63 110 78
-0.775327 0.737343 4.43379 84 122 104
-0.938043 0.786705 4.41637 164 237 199
-0.926493 0.865626 4.42529 60 102 85
0.415885 0.86779 4.40074 183 201 202
-2.44563 -2.05268 4.77359 128 175 159
-2.32935 -1.9455 4.80266 153 230 192
-1.05378 -1.89342 4.68679 117 160 151
-1.00424 -1.81518 4.67036 127 194 167
0.226988 -1.763 4.63373 227 250 252
0.158581 -1.73623 4.59654 126 168 161
-1.03273 -1.74675 4.66057 114 167 153
-0.253455 -1.70529 4.62052 113 150 146
-0.118237 -1.69236 4.61686 102 148 136
-0.123387 -1.56209 4.58883 121 176 159
-0.208362 -1.56132 4.60779 105 135 122
-1.07627 -1.51423 4.50686 55 73 66
-1.08963 -1.50523 4.49928 92 131 116
0.466268 -1.51357 4.54284 208 243 239
-1.71563 -1.42313 4.30117 86 140 117
-1.12023 -1.44454 4.48397 72 120 92
-0.0741245 -1.42148 4.54075 152 233 218
0.0294409 -1.35501 4.53261 113 168 153
-0.172405 -1.35422 4.56235 120 165 156
-0.535271 -1.27763 4.57973 126 179 170
-1.31047 -1.2309 4.55865 121 219 183
0.331601 -1.22126 4.53167 93 124 123
-0.390132 -1.20073 4.52634 111 167 144
-0.445364 -1.19536 4.55 162 233 207
0.0291852 -1.15694 4.52492 106 115 119
-0.512429 -1.10481 4.54763 104 134 123
-0.598462 -1.11373 4.60535 68 81 67
-0.958733 -1.08251 4.57248 95 156 128
-0.899878 -1.04845 4.51395 120 153 138
-1.06612 -1.03642 4.59232 129 197 166
0.0635944 -1.00801 4.49606 123 143 144
-1.42774 -0.988467 4.44425 123 171 135
-2.04191 -0.975844 4.4577 146 249 211
0.0253581 -0.976926 4.48212 115 140 136
-1.31026 -0.934049 4.36599 85 123 95
0.0306734 -0.952115 4.49197 92 128 116
-1.99252 -0.924531 4.43034 69 101 70
-0.631124 -0.942613 4.50895 148 200 182
-0.112515 -0.923252 4.51901 178 213 217
-1.04231 -0.883218 4.55495 103 152 136
-1.65959 -0.8534 4.4724 82 138 119
-1.0489 -0.869027 4.54721 113 165 155
-0.763346 -0.836578 4.52293 154 219 197
-0.0957031 -0.794978 4.48836 116 165 157
0.126702 -0.786424 4.4644 145 220 198
-0.222782 -0.786028 4.53437 137 168 169
-2.54477 -0.776211 4.67145 98 143 117
-0.984892 -0.688738 4.46822 76 113 93
0.191114 -0.615666 4.46318 171 200 205
-0.70005 -0.608279 4.43888 108 146 134
0.124135 -0.60342 4.48917 106 152 139
0.172946 -0.596947 4.47722 114 123 127
-1.27491 -0.584313 4.5165 133 183 151
-0.60705 -0.572942 4.44276 161 217 194
-0.712094 -0.573681 4.45439 150 211 191
-0.0769741 -0.547809 4.48595 126 168 157
-0.0837491 -0.530529 4.48262 178 219 221
-0.939662 -0.533594 4.52084 102 153 139
-0.186683 -0.526945 4.49409 130 167 165
-0.469615 -0.524025 4.49448 80 119 103
-1.38256 -0.527604 4.55976 159 228 215
-0.177256 -0.479885 4.47326 154 208 203
-1.9107 -0.459656 4.31551 64 63 59
-0.178124 -0.476994 4.49813 143 196 183
-0.762911 -0.464794 4.4546 171 247 216
-0.767245 -0.463139 4.46839 161 238 201
-1.93784 -0.44131 4.35336 47 52 43
-1.53881 -0.449121 4.50145 74 129 102
0.107471 -0.44432 4.45908 176 220 214
-0.260818 -0.439222 4.45557 114 167 164
-0.205544 -0.435631 4.43487 87 126 118
0.0454462 -0.431925 4.4867 147 202 193
-0.0376923 -0.391543 4.46633 112 159 156
0.252998 -0.372581 4.41949 166 209 194
-0.25547 -0.365389 4.47794 93 124 115
0.0286039 -0.353849 4.45516 91 122 115
-1.62995 -0.351089 4.52611 145 185 174
0.0115776 -0.346632 4.47466 200 236 236
-0.378061 -0.329157 4.485 77 117 105
0.119311 -0.327415 4.43368 99 157 146
-1.12487 -0.313557 4.52097 62 98 92
-1.94486 -0.27087 4.28486 141 190 174
0.229835 -0.274957 4.41894 90 128 122
-0.482099 -0.27102 4.48938 102 147 138
-2.59426 -0.246921 4.35176 143 217 175
-0.302256 -0.250939 4.46211 114 165 158
-2.58318 -0.237635 4.37325 103 160 121
-1.41752 -0.232745 4.44393 152 194 187
0.0601702 -0.222834 4.42919 119 147 147
-1.02577 -0.200791 4.52614 91 133 122
-0.828708 -0.183854 4.48182 132 207 161
-0.200703 -0.175284 4.44511 101 132 125
-1.17751 -0.114901 4.50102 86 141 122
-1.05016 -0.113484 4.49652 94 138 121
-2.07244 -0.104094 4.28872 107 158 130
-0.139575 -0.0841922 4.46336 133 174 176
-0.372134 -0.0700454 4.46625 91 127 115
-0.869219 -0.066061 4.47361 140 212 176
-0.172968 -0.0606211 4.44702 112 163 156
-0.137998 -0.059695 4.44767 109 134 144
0.511038 -0.0624234 4.45109 97 115 108
-0.270265 -0.0508376 4.42686 84 100 99
-1.08672 -0.0288631 4.40728 152 214 192
0.671241 -0.0210767 4.42299 145 177 172
-1.12951 0.0250091 4.44521 140 199 178
-1.12812 0.0245827 4.44335 141 206 184
-0.188993 0.0596245 4.43482 94 111 97
-0.261669 0.0766949 4.46001 186 223 227
-0.159752 0.116797 4.43184 138 195 174
0.522214 0.123006 4.44941 98 107 97
-0.152537 0.191487 4.43195 91 130 122
-1.92009 0.301295 4.50808 116 125 122
0.951036 0.299555 4.39131 201 224 226
-1.66646 0.299607 4.35416 70 94 64
1.15954 0.306314 4.40692 207 231 231
1.06435 0.312915 4.41237 182 196 202
0.869879 0.332677 4.41567 179 179 173
-0.316211 0.336968 4.45073 86 102 95
0.960792 0.344224 4.42095 96 104 97
0.575487 0.361726 4.41645 74 96 107
0.974356 0.371575 4.36835 140 146 141
-0.415425 0.393421 4.42708 85 112 103
-0.230934 0.407887 4.44186 76 113 97
-0.201279 0.459516 4.41655 94 121 125
-2.05345 0.533805 4.5441 88 127 135
1.15522 0.557805 4.41176 157 199 181
-1.07934 0.590085 4.45639 61 102 87
-0.813749 0.609434 4.47114 153 199 186
-1.66023 0.652635 4.5 133 198 173
-0.864374 0.684083 4.46683 91 124 117
-0.773631 0.680159 4.41879 80 127 105
1.05903 0.687803 4.42949 115 151 151
-1.09566 0.702732 4.39494 95 156 130
-1.01125 0.740241 4.42631 157 237 194
-2.56334 0.766199 4.52459 143 200 179
-1.92727 0.771073 4.47459 74 112 82
-0.850468 0.797265 4.41472 124 164 146
0.397093 0.803034 4.44831 188 225 229
0.423172 0.802945 4.43099 186 215 220
-0.799295 0.807433 4.42109 143 193 163
-0.884708 0.848035 4.3999 150 201 181
0.98424 0.850096 4.41694 140 199 185
0.364055 0.865663 4.46046 96 104 97
-1.04211 0.87314 4.38951 138 177 156
2.45201 0.875131 4.42305 124 152 152
-2.03114 0.902498 4.46203 74 143 106
-1.46244 0.916552 4.40587 138 185 159
-0.73565 0.927659 4.43974 160 230 193
-0.720672 0.936213 4.45121 81 99 86
-1.42193 0.9467 4.43948 71 102 87
-2.15551 1.04103 4.48232 89 128 113
-1.21781 1.0811 4.43355 42 53 43
-0.378558 1.10211 4.43821 117 141 147
-1.05401 1.11809 4.41539 167 226 188
-0.779924 1.11736 4.39048 130 195 173
-1.13465 1.12201 4.40198 60 75 61
1.04511 1.13925 4.44688 101 130 115
-1.96871 1.17337 4.49154 85 124 103
-0.500614 1.15963 4.38861 89 117 104
-2.02897 1.2096 4.47619 95 143 117
-0.905986 -2.08524 4.74538 127 167 165
-1.51587 -2.02469 4.60495 88 112 88
-1.59921 -2.02445 4.67817 65 90 56
-2.63621 -2.02549 4.67885 191 229 211
-2.18328 -2.05978 4.77842 107 177 147
-1.52939 -1.96394 4.60079 139 174 164
-2.39695 -2.05163 4.80955 142 185 164
-1.80673 -2.02124 4.75487 151 222 189
-1.05476 -1.99233 4.70945 112 188 154
-1.75406 -2.01602 4.77424 105 133 120
-1.97483 -2.01518 4.79072 171 233 203
-2.17966 -2.01131 4.81211 101 168 141
-2.43419 -1.99138 4.79148 130 166 154
-1.6077 -1.92489 4.67113 108 122 111
-0.624102 -1.92239 4.70441 131 184 170
0.831693 -1.86216 4.5404 100 113 111
0.863193 -1.84093 4.54075 130 165 151
-1.05421 -1.89411 4.69043 109 159 149
-0.896751 -1.88052 4.70778 120 165 146
-2.23971 -1.81145 4.6909 98 168 138
-0.636308 -1.80408 4.66132 118 152 142
-0.372058 -1.77772 4.64101 139 164 168
0.199338 -1.73868 4.57187 122 138 131
0.158949 -1.73823 4.60904 127 171 164
-2.74976 -1.77366 4.74645 162 219 210
-1.68972 -1.73579 4.62704 114 148 142
0.0145209 -1.70597 4.59432 114 163 149
0.21807 -1.66097 4.51266 153 215 201
-0.118274 -1.69184 4.61336 102 145 136
-1.74755 -1.62965 4.45608 115 168 135
0.296372 -1.67047 4.5836 104 143 127
-0.676771 -1.67034 4.63197 92 175 136
-0.605903 -1.67303 4.63749 244 255 250
0.0884008 -1.65718 4.58522 90 123 109
0.275434 -1.61095 4.57391 79 122 113
-1.15407 -1.60034 4.60685 68 80 68
-0.64579 -1.59861 4.62814 209 234 230
0.225347 -1.54518 4.49286 92 143 123
-0.167805 -1.56979 4.57841 118 168 156
-1.71853 -1.46282 4.31266 102 139 123
-1.05717 -1.52311 4.50501 117 197 162
-0.208687 -1.56203 4.61362 98 130 119
0.440386 -1.52913 4.53181 126 175 167
-2.2511 -1.58801 4.71675 95 137 126
0.213096 -1.50056 4.4822 111 156 137
-2.31279 -1.57717 4.72387 136 183 167
0.389427 -1.5171 4.5491 120 151 148
-1.71327 -1.42255 4.2953 92 140 116
-1.67397 -1.41053 4.29745 82 106 82
-1.04854 -1.46195 4.4626 67 89 65
-1.08211 -1.45308 4.4812 153 220 188
-0.735737 -1.48836 4.59914 98 153 128
-0.337084 -1.4556 4.51271 199 247 223
0.26827 -1.45688 4.51953 120 167 159
0.434246 -1.44621 4.51643 127 174 166
-0.0729362 -1.42057 4.531 162 237 221
0.00489023 -1.40788 4.54659 196 233 225
-1.62944 -1.33149 4.30826 79 134 101
-1.26832 -1.36025 4.54494 88 150 128
-1.09044 -1.32648 4.46658 80 144 108
-1.71192 -1.26088 4.25254 138 221 182
-0.362876 -1.32053 4.53453 87 133 111
-1.96414 -1.28119 4.4911 98 158 128
-0.404652 -1.29287 4.54491 77 119 101
0.318543 -1.2778 4.51099 94 139 122
-2.02369 -1.26492 4.52322 103 139 127
-0.520592 -1.2683 4.55288 99 152 138
0.0087265 -1.25365 4.50957 100 134 133
-0.0351465 -1.2792 4.58444 118 143 139
-0.204499 -1.2537 4.56289 197 234 232
0.374055 -1.24372 4.5286 178 224 218
-0.275538 -1.23375 4.52461 84 134 122
0.0431218 -1.22486 4.52891 107 121 119
0.332364 -1.22103 4.52699 103 131 132
-0.359957 -1.21319 4.5226 88 136 107
-0.0626515 -1.21662 4.53369 120 141 139
-0.348444 -1.20625 4.54752 104 155 128
-0.348165 -1.20604 4.54277 107 158 130
-0.175326 -1.20071 4.54164 134 182 176
0.381897 -1.17411 4.48972 104 109 108
-0.552358 -1.18628 4.57175 104 139 125
-0.418855 -1.16749 4.52654 199 240 232
-0.16575 -1.1589 4.51861 134 179 170
-0.0896366 -1.16551 4.54356 129 150 151
0.0627643 -1.14307 4.5083 109 146 142
0.0813606 -1.14505 4.52085 190 221 218
-1.22736 -1.12891 4.47803 70 106 76
-0.657271 -1.13874 4.56444 103 149 137
-0.0144112 -1.12726 4.53802 131 168 160
-0.258102 -1.11568 4.53173 98 136 124
-0.351497 -1.11117 4.56196 88 140 123
-0.514743 -1.10518 4.56341 93 126 112
-0.599926 -1.11406 4.61867 74 89 75
0.0321655 -1.08392 4.52574 104 162 134
0.127349 -1.0792 4.49916 126 151 153
-1.48514 -1.05 4.42728 138 205 168
-0.542613 -1.08114 4.58448 109 129 117
-0.195778 -1.06897 4.52743 104 129 125
-2.03192 -1.04552 4.47906 93 167 143
-1.07405 -1.0731 4.60282 92 153 119
0.139247 -1.05446 4.49026 173 231 207
-1.27579 -1.03436 4.45016 107 172 140
-0.0975434 -1.05146 4.51346 96 125 116
0.0756344 -1.04251 4.49371 103 157 144
-0.0563596 -1.04356 4.5338 82 118 106
-1.34439 -1.01216 4.42694 153 220 188
0.191672 -1.02593 4.47169 180 234 205
-1.03383 -1.0544 4.60256 102 138 116
-0.931299 -1.02695 4.56749 81 128 112
-0.118792 -1.0257 4.53884 138 188 178
0.203106 -1.01037 4.47982 95 139 116
0.0635133 -1.00803 4.50416 129 159 160
-0.0859593 -0.99193 4.51137 121 172 145
-0.372021 -0.983974 4.51089 112 153 146
-0.275274 -0.988824 4.58027 112 153 148
0.0257901 -0.976858 4.49548 98 129 128
-2.41681 -1.00254 4.66014 144 226 184
-0.108775 -0.938565 4.52722 133 153 158
-1.56201 -0.906952 4.45985 87 163 139
-0.211082 -0.922394 4.53321 124 187 171
-2.01641 -0.875462 4.36987 181 237 218
-0.147508 -0.89556 4.50855 138 192 175
-1.0086 -0.892126 4.54237 85 149 120
-1.64581 -0.868084 4.452 49 59 42
-0.00796642 -0.856062 4.49073 111 151 139
-0.221053 -0.816121 4.51538 223 243 244
-1.0373 -0.812427 4.56238 60 103 82
-0.828891 -0.807718 4.5225 84 127 116
-0.328998 -0.798821 4.48324 88 123 113
0.288118 -0.793845 4.46097 105 148 137
0.125792 -0.786811 4.45632 168 241 219
-0.964431 -0.777506 4.52298 142 214 178
-0.729601 -0.779104 4.52268 173 226 206
0.153595 -0.772746 4.48458 94 116 104
-1.09031 -0.780741 4.54798 156 218 204
-0.342033 -0.763011 4.51746 132 218 184
-0.939978 -0.737221 4.4891 156 210 193
-0.728693 -0.744427 4.51684 69 109 98
-1.15502 -0.723112 4.54719 79 120 105
0.398644 -0.702216 4.46619 105 143 145
-0.754951 -0.701824 4.5085 90 113 108
-2.30248 -0.697329 4.5311 107 147 145
-0.209742 -0.68817 4.50533 125 154 151
-1.22173 -0.696341 4.58395 77 142 120
-0.0448032 -0.654113 4.46739 128 171 158
0.241954 -0.658419 4.47388 93 106 104
-0.967313 -0.629678 4.44881 108 169 143
0.202656 -0.633509 4.46265 97 114 111
0.00961914 -0.632613 4.48118 194 231 229
-0.614036 -0.605044 4.42644 59 76 65
0.191661 -0.614276 4.47932 174 205 204
0.025099 -0.612706 4.46709 121 152 149
-1.2119 -0.616658 4.54807 133 197 167
-1.5053 -0.607381 4.52714 86 125 103
0.218597 -0.605095 4.49804 100 111 109
-1.70867 -0.572557 4.49737 141 224 192
-0.10709 -0.579785 4.48673 90 126 112
-2.53615 -0.58698 4.65151 135 156 157
-2.23588 -0.56528 4.57659 61 126 100
0.0245151 -0.546431 4.48386 106 146 141
-2.17201 -0.544015 4.55624 32 51 30
-0.187685 -0.527472 4.48909 143 175 174
-0.0617718 -0.516408 4.47279 116 155 147
-1.64791 -0.514651 4.52732 73 112 96
-0.377554 -0.500429 4.49031 99 126 123
-1.89761 -0.482104 4.3548 109 157 145
-0.449821 -0.503975 4.50716 165 217 210
-1.49254 -0.485963 4.50233 170 238 213
-0.177018 -0.479501 4.47657 146 198 191
0.0474395 -0.480864 4.47249 144 182 186
0.294547 -0.482084 4.46128 117 137 125
-0.342549 -0.47416 4.48884 144 173 180
-1.92702 -0.444093 4.33167 43 47 36
-0.186951 -0.455344 4.48075 64 85 77
0.299075 -0.44157 4.43928 83 117 110
-0.205678 -0.434831 4.44116 87 126 118
-1.58339 -0.433274 4.50949 57 96 74
0.104512 -0.428223 4.46911 98 128 117
-0.520268 -0.419413 4.47184 84 114 103
-0.292498 -0.421424 4.46879 89 163 145
-1.66146 -0.415585 4.53085 104 138 127
-0.234682 -0.399397 4.46398 108 146 140
-1.57095 -0.390324 4.5212 130 166 142
-0.161209 -0.383176 4.43836 102 153 139
-0.0373509 -0.391094 4.46962 121 166 163
-0.162812 -0.381695 4.44903 97 143 130
-1.93606 -0.349395 4.31702 139 180 172
-0.261132 -0.363128 4.48939 92 119 110
0.0267249 -0.357096 4.46216 108 139 132
-1.51612 -0.352213 4.51435 142 211 161
-1.6315 -0.350598 4.52954 149 187 175
0.0120043 -0.347441 4.46912 196 231 234
-1.66924 -0.342501 4.53138 123 166 153
-1.41347 -0.339469 4.50971 60 95 81
-1.90538 -0.317691 4.2626 107 141 134
-1.86907 -0.313066 4.2446 199 231 226
-2.13674 -0.306718 4.26629 127 172 156
-1.07087 -0.324983 4.49897 133 178 175
-1.42254 -0.315282 4.50841 125 184 156
-1.356 -0.308007 4.50498 118 181 155
-0.218902 -0.301637 4.42605 78 97 94
-0.0225028 -0.293638 4.47035 87 118 115
-2.11667 -0.279132 4.25658 150 207 186
-1.16231 -0.29135 4.49339 85 122 114
0.172325 -0.289811 4.41685 82 104 99
-1.85917 -0.270505 4.23593 159 216 201
-0.140937 -0.280553 4.47105 139 176 172
-0.482072 -0.271128 4.48872 102 147 138
-1.9464 -0.243614 4.27806 148 212 200
-0.221065 -0.244323 4.46466 138 161 163
-1.35983 -0.2323 4.47434 123 182 144
-0.144049 -0.232291 4.46477 184 218 224
-1.3379 -0.213062 4.43889 55 64 43
-0.783718 -0.186993 4.50068 69 84 80
-0.246241 -0.184429 4.46684 107 155 149
-0.781297 -0.186415 4.50386 81 98 94
-0.706454 -0.174713 4.50913 101 151 141
-0.198697 -0.17337 4.45541 126 162 156
-1.0467 -0.178015 4.53272 147 200 190
-0.310936 -0.171049 4.46076 107 157 147
-1.95352 -0.160598 4.27085 106 151 135
-0.53279 -0.168358 4.5134 185 230 221
-0.85894 -0.146483 4.48108 65 84 69
0.0268107 -0.151531 4.45688 100 144 138
-1.04701 -0.142073 4.49636 179 223 216
-0.930638 -0.144179 4.49855 75 119 96
-0.631569 -0.141688 4.45263 99 133 127
-0.356615 -0.143177 4.4739 182 222 220
-0.711291 -0.143472 4.51077 186 221 224
-0.533648 -0.124778 4.45805 81 113 108
-0.241128 -0.128827 4.4529 104 138 128
-1.15428 -0.119508 4.48324 163 237 209
-1.17539 -0.116555 4.49261 51 84 77
-0.405845 -0.118219 4.44912 103 154 146
-2.1972 -0.105905 4.28653 120 170 166
-2.0847 -0.0866473 4.26248 121 183 159
-1.17898 -0.090969 4.49041 166 235 208
-1.34854 -0.0841362 4.35957 162 217 190
-2.15974 -0.0649161 4.2935 111 142 111
0.0228356 -0.0662626 4.43107 112 150 152
-1.16764 -0.0662384 4.4803 99 135 121
-0.173657 -0.0615092 4.44282 102 148 142
-1.17795 -0.0595589 4.51235 122 165 144
-0.843871 -0.0544248 4.44646 165 209 192
-0.919231 -0.0499696 4.47459 134 189 162
1.32336 -0.0425591 4.39945 119 174 165
-0.483389 -0.0204253 4.46801 127 165 159
-1.22427 0.00317232 4.39203 98 136 118
-0.928988 0.0134582 4.44328 148 199 179
-0.415657 0.0189946 4.48102 103 127 117
0.0813862 0.0174627 4.43733 117 147 152
-0.482024 0.0234099 4.44946 221 245 243
-0.638724 0.0358516 4.44896 119 166 150
-0.505813 0.0594094 4.46306 83 117 106
-0.43742 0.0663918 4.46489 204 228 228
-1.8027 0.0724873 4.54658 142 207 181
0.00994752 0.0732523 4.41535 199 234 220
-0.153464 0.0848717 4.45496 144 219 203
-0.66852 0.101281 4.44837 149 206 175
-2.19343 0.099648 4.0528 98 151 111
-0.0130842 0.11051 4.40453 127 166 150
-0.552381 0.112861 4.43822 91 125 115
-0.250157 0.116523 4.42964 89 108 105
1.92763 0.117711 4.40645 93 151 133
-0.0298129 0.121259 4.41787 129 190 162
0.56275 0.155418 4.43984 119 148 139
-2.12425 0.156965 4.04902 44 53 33
2.44157 0.185105 4.36533 181 224 215
-0.0068674 0.195178 4.45394 141 206 191
-1.43332 0.221018 4.47761 97 123 109
-0.441745 0.23214 4.4204 161 216 189
0.970061 0.244823 4.42481 108 161 147
-1.68284 0.255 4.37276 165 233 198
-1.4098 0.267049 4.48212 120 151 154
-2.03066 0.291191 4.54422 54 110 89
-0.300321 0.287977 4.42374 62 98 84
1.16144 0.29241 4.42145 153 166 168
0.300414 0.292289 4.4263 127 169 162
0.404045 0.301498 4.46658 127 158 157
-0.255868 0.30447 4.41048 69 103 86
-0.111004 0.305964 4.43171 103 154 147
-0.263621 0.322581 4.3978 59 82 68
-0.8119 0.328511 4.439 144 205 179
-0.334007 0.326002 4.39568 170 224 217
-0.316907 0.338469 4.45573 88 106 99
1.35556 0.331606 4.40348 107 153 141
0.961858 0.345205 4.42417 93 102 92
-0.858548 0.354087 4.46249 65 109 96
-0.571806 0.361293 4.46964 78 82 76
-0.409391 0.355705 4.42122 96 117 109
2.47707 0.364839 4.44492 92 106 100
-0.891127 0.382872 4.46861 86 120 109
-0.398206 0.38281 4.44636 86 99 83
-0.304956 0.392958 4.39271 161 210 188
-0.19105 0.398851 4.44158 123 151 145
-0.474266 0.421706 4.45033 54 80 67
-0.319367 0.419285 4.46004 92 122 117
-0.489012 0.426695 4.42914 86 115 106
1.38513 0.427607 4.38917 192 213 215
-1.96128 0.454113 4.53905 63 79 78
-0.210005 0.440887 4.42627 196 233 223
-0.393909 0.447346 4.45968 98 125 115
-0.796682 0.463201 4.45337 157 209 186
-2.09187 0.470077 4.50814 128 172 166
-0.646585 0.461437 4.42306 80 116 92
-0.200192 0.462404 4.42528 100 124 130
1.79524 0.455246 4.37755 114 158 151
-1.89154 0.492234 4.4838 114 157 146
-1.82607 0.492499 4.4991 131 146 149
-0.947984 0.496411 4.46541 152 230 207
-2.05188 0.532553 4.5404 85 123 135
-0.036946 0.52818 4.41786 147 204 189
-0.95606 0.53525 4.445 127 181 164
-2.02607 0.541738 4.49854 185 226 228
-1.91778 0.551022 4.49776 137 174 164
-1.70749 0.565313 4.52569 91 145 110
-0.983409 0.559816 4.4893 55 96 89
-0.446897 0.554739 4.4199 126 159 168
-1.05421 0.566359 4.49818 50 80 69
-0.714972 0.573283 4.46249 90 127 111
1.18968 0.561379 4.41724 143 166 151
-1.84482 0.589757 4.50595 119 168 154
-1.81467 0.5979 4.49376 196 239 230
-2.0022 0.607642 4.50906 105 119 117
-0.521502 0.592016 4.42655 114 160 148
1.10804 0.587588 4.40195 108 134 116
-0.772563 0.604798 4.45515 157 228 212
1.09619 0.600057 4.42668 76 97 75
-0.992979 0.628419 4.45621 48 88 63
2.15426 0.616436 4.39088 129 149 150
1.03708 0.635348 4.40028 82 104 86
-0.390852 0.645779 4.44901 68 83 79
-1.98456 0.666187 4.51735 90 108 107
-0.355776 0.675418 4.48235 196 220 226
-0.520946 0.680947 4.47043 93 128 114
1.05956 0.686979 4.42731 110 148 148
1.01958 0.692675 4.39612 128 177 161
-0.320242 0.707012 4.43177 125 155 160
1.98319 0.699589 4.38095 118 155 135
-0.841024 0.737728 4.44323 169 232 200
1.36983 0.73296 4.39279 131 183 165
-1.01149 0.742044 4.43089 142 217 171
-0.993358 0.74033 4.43765 99 158 127
0.464994 0.740878 4.39088 160 213 199
0.444131 0.739454 4.40184 109 118 115
-0.639451 0.745774 4.41081 107 137 124
-1.07266 0.757186 4.42717 84 131 105
-1.05173 0.757628 4.42404 154 233 189
-0.840779 0.768958 4.4322 53 79 56
-0.563395 0.770278 4.42725 99 138 116
-0.918526 0.787824 4.43302 73 111 89
0.439409 0.784046 4.39985 106 121 117
-0.663398 0.794288 4.43057 159 203 186
-0.661199 0.793735 4.4292 172 216 199
-0.536977 0.806121 4.45951 118 152 151
0.466065 0.789857 4.37983 102 108 115
-0.220007 0.810838 4.42305 88 111 106
0.469582 0.808997 4.42668 73 85 91
-1.10594 0.815724 4.41774 147 209 179
0.409572 0.824458 4.44904 82 92 79
0.991429 0.807828 4.3887 131 182 168
-0.817588 0.823168 4.40827 163 225 195
0.370573 0.831948 4.44117 103 145 134
0.385093 0.833521 4.42711 172 209 207
0.983657 0.849031 4.4144 140 199 185
1.50716 0.840012 4.37612 83 95 75
-0.844552 0.857241 4.41894 142 201 181
-2.2303 0.883117 4.48847 99 137 131
-0.748661 0.871784 4.43666 66 91 81
-0.17495 0.872349 4.42191 92 134 127
0.741612 0.878658 4.42817 255 255 255
2.44221 0.867789 4.40573 126 162 156
-2.03799 0.908649 4.47646 82 157 119
-1.42611 0.902253 4.39568 43 73 60
-2.13337 0.931879 4.48268 69 93 81
-1.44165 0.940629 4.45349 122 174 157
-0.629321 0.939955 4.43226 77 126 110
0.411403 0.917457 4.36031 73 81 70
-1.41644 0.951875 4.41689 156 203 187
-1.39762 0.963269 4.42194 47 70 48
-1.15005 0.958244 4.39844 148 210 180
-0.594552 0.966305 4.41135 107 163 144
-1.04843 0.982665 4.40923 155 203 167
-1.16433 0.974359 4.37853 93 123 104
-0.953886 0.999824 4.43765 134 186 163
-1.31643 1.0097 4.4363 115 153 125
-0.85989 1.01645 4.42261 130 207 170
-0.897648 1.03085 4.42625 135 209 173
-0.947009 1.05892 4.4467 111 166 141
0.376862 1.07408 4.43787 189 209 214
-1.21833 1.08263 4.4368 42 53 43
-0.507581 1.09226 4.46134 189 225 225
0.307099 1.08253 4.41713 188 221 230
0.342034 1.09545 4.45937 97 120 116
2.72583 1.09673 4.41589 249 251 255
0.300131 1.1073 4.42439 117 135 134
1.12043 1.11623 4.42582 129 179 167
-1.05187 1.11657 4.40275 130 183 140
1.08138 1.12092 4.41653 132 196 177
-0.823471 1.13367 4.40904 157 226 189
-1.12449 1.14088 4.4178 55 68 52
1.09267 1.1457 4.41366 88 115 99
1.14706 1.17356 4.46914 50 67 46
-2.43909 -2.12201 4.83143 90 138 114
-1.53223 -2.03574 4.64111 102 136 106
-1.60114 -2.02713 4.6904 54 74 45
-1.48901 -1.99496 4.61269 200 237 221
-0.909472 -2.02042 4.67688 120 150 151
-2.52947 -2.02722 4.70806 131 169 157
-1.45554 -1.97597 4.60133 76 91 77
-2.10047 -2.05982 4.81442 110 152 141
-1.85738 -2.02334 4.80387 119 173 144
-0.737881 -1.95786 4.68841 176 205 202
-2.3098 -2.01749 4.84255 103 162 142
-2.20488 -1.99851 4.79858 172 252 215
-1.97347 -1.98189 4.75979 107 153 124
-1.76236 -1.96439 4.73814 83 101 84
-1.60469 -1.93094 4.67814 97 116 101
-1.01413 -1.93782 4.69997 108 148 136
-1.55708 -1.89825 4.62155 154 236 193
-2.72701 -1.87917 4.67055 156 205 183
-2.77457 -1.84701 4.66255 160 241 202
-1.01615 -1.8611 4.70039 98 133 113
0.771024 -1.81036 4.56091 147 193 187
-2.20823 -1.84713 4.67879 68 78 66
-2.17966 -1.85277 4.69661 154 213 198
-0.179577 -1.83225 4.64836 148 189 182
-0.630024 -1.79788 4.62535 127 163 149
-0.170784 -1.77856 4.6353 104 117 109
-2.74794 -1.79702 4.71587 102 142 131
-2.09468 -1.77378 4.6326 91 130 114
-1.00728 -1.78807 4.66588 95 131 117
0.0797967 -1.76567 4.60999 111 147 133
-0.198848 -1.7491 4.63037 211 249 243
0.197965 -1.73072 4.58663 122 134 122
0.220874 -1.70575 4.55747 104 120 109
-0.0617003 -1.69902 4.56413 105 138 123
0.0471128 -1.70368 4.58627 193 222 229
-0.922118 -1.66325 4.51404 76 99 77
-0.249466 -1.7113 4.66433 120 156 150
-0.0616301 -1.70352 4.59348 106 141 121
-0.305517 -1.69931 4.63298 129 156 153
0.18547 -1.66021 4.55317 74 91 88
-0.76753 -1.63355 4.5566 104 151 142
-2.70746 -1.68844 4.73864 54 75 53
-2.31009 -1.66899 4.73336 114 174 156
-0.399565 -1.62505 4.62671 209 236 233
-0.375442 -1.61581 4.63846 131 156 146
-1.15419 -1.60077 4.61014 62 76 64
-1.12027 -1.58902 4.60477 96 143 117
-0.466845 -1.59931 4.6346 130 164 153
-1.72002 -1.46211 4.30602 114 173 142
-0.219764 -1.57176 4.63867 134 172 154
-0.373309 -1.5442 4.57202 83 108 98
-0.282012 -1.53654 4.60983 200 236 230
-0.786643 -1.52022 4.62058 91 140 124
-1.15783 -1.49197 4.56468 45 63 46
-0.756831 -1.46135 4.58207 167 240 208
-0.111003 -1.44187 4.54388 108 149 134
0.718539 -1.42576 4.53847 174 207 210
-1.73599 -1.33038 4.31036 85 102 93
-0.342478 -1.38411 4.54202 114 163 143
-0.109343 -1.37348 4.50204 90 122 103
-0.398661 -1.36486 4.59012 121 176 151
-0.172834 -1.35301 4.55347 112 157 148
-2.06434 -1.32562 4.55658 62 87 59
-0.214397 -1.30064 4.52138 98 134 118
0.313805 -1.28317 4.5319 131 174 161
-0.178372 -1.25577 4.52452 141 169 170
-0.209897 -1.25748 4.56034 196 243 235
-0.257944 -1.25225 4.56607 101 155 138
-1.32375 -1.22486 4.54199 120 201 174
0.0418114 -1.22458 4.52321 83 95 89
-1.34903 -1.20462 4.50698 68 91 69
0.108069 -1.2123 4.52384 177 222 213
-2.09609 -1.21604 4.5476 144 221 184
-1.19748 -1.17833 4.46599 154 240 210
0.225843 -1.20496 4.53384 193 234 227
-1.22881 -1.16848 4.48728 46 63 52
-1.2236 -1.15333 4.5032 81 128 95
-1.07546 -1.16122 4.52721 112 161 171
-0.300783 -1.14964 4.53544 103 148 131
-0.532177 -1.14903 4.56961 176 232 209
-2.10023 -1.11456 4.46059 131 187 166
-2.04165 -1.12946 4.52362 79 110 79
-0.536344 -1.12534 4.54273 158 214 191
0.17885 -1.10748 4.50182 104 126 121
-1.39594 -1.10442 4.52149 43 62 43
-0.592983 -1.09226 4.58908 75 91 73
-0.52417 -1.0864 4.56447 82 109 93
0.193736 -1.07577 4.48761 171 241 218
-1.45087 -1.04973 4.50183 33 53 40
-0.367481 -1.05847 4.52595 170 209 207
0.160839 -1.05475 4.49344 79 94 86
-2.46828 -1.07515 4.71348 71 128 119
-0.181409 -1.00121 4.51065 99 160 146
-1.35363 -0.957351 4.36772 37 44 37
-1.10207 -0.956377 4.4796 126 192 167
-1.15636 -0.946193 4.485 166 217 210
-1.99735 -0.919357 4.42991 66 111 78
-1.62408 -0.926714 4.48362 59 95 81
-1.04017 -0.88055 4.53998 103 152 136
-1.52939 -0.823769 4.43744 100 138 126
-0.221019 -0.841398 4.51659 112 152 141
-0.296441 -0.828889 4.53452 95 145 133
-1.90394 -0.791058 4.35246 140 199 171
-0.44777 -0.799546 4.42424 149 191 160
-1.09319 -0.792879 4.55863 142 214 201
-1.46204 -0.755693 4.43295 62 111 83
-1.06435 -0.775043 4.5544 91 128 126
-0.0256704 -0.768099 4.48798 129 178 164
-2.51708 -0.697413 4.23712 109 158 130
-1.00528 -0.730295 4.47154 187 214 210
-2.49419 -0.722036 4.65737 55 70 56
-0.952718 -0.693223 4.44819 171 231 197
-2.54081 -0.64346 4.23045 98 154 119
-0.208337 -0.686789 4.48359 107 131 131
0.14927 -0.660437 4.48389 124 192 181
0.18321 -0.654714 4.47653 181 217 223
0.234647 -0.656116 4.47213 82 97 99
-1.47523 -0.639552 4.4774 94 168 134
-0.0430605 -0.654709 4.45968 104 149 133
0.0910617 -0.648627 4.4701 141 166 168
-0.736219 -0.626999 4.4513 155 206 192
-1.50564 -0.625389 4.50325 132 215 177
-1.48516 -0.636978 4.50937 45 76 61
0.114926 -0.600669 4.48085 104 142 136
-0.852557 -0.577674 4.44135 107 140 136
0.00749623 -0.585732 4.46568 191 242 234
0.147994 -0.582956 4.47251 212 239 236
-1.34187 -0.586366 4.55168 77 111 94
-2.17551 -0.576783 4.53865 192 247 228
0.182167 -0.567928 4.46055 112 135 137
-1.62186 -0.560868 4.5128 58 88 77
0.329814 -0.555042 4.46244 124 170 158
-0.540417 -0.554777 4.49469 70 115 106
-1.66533 -0.545285 4.52288 168 233 208
-0.455171 -0.54284 4.50469 146 222 188
0.263865 -0.536728 4.43637 80 94 90
-1.04882 -0.53526 4.52405 113 157 140
-0.273808 -0.531953 4.48833 94 136 119
0.331087 -0.515967 4.40754 121 167 148
-2.24637 -0.543214 4.5685 117 181 151
-1.08961 -0.523541 4.48754 182 230 218
-0.43303 -0.527834 4.50578 75 106 99
-0.191574 -0.527044 4.50156 127 164 162
0.334487 -0.513267 4.43212 101 146 130
-2.22847 -0.517727 4.57929 44 61 40
-1.65343 -0.514765 4.54153 83 128 111
-1.94611 -0.477222 4.37284 137 161 167
-1.68503 -0.509308 4.50318 113 155 130
-0.193981 -0.490023 4.4871 172 225 212
0.288638 -0.493948 4.44386 81 95 89
-1.55376 -0.485933 4.5397 57 105 79
-0.162824 -0.478562 4.47749 78 102 94
-0.128551 -0.484807 4.48503 175 227 210
-0.0763301 -0.459191 4.45015 119 160 155
-2.19133 -0.470318 4.56418 89 120 99
-1.48403 -0.464037 4.52601 92 136 123
-1.14102 -0.441745 4.45219 183 210 206
0.0988521 -0.461024 4.51076 183 223 221
-0.115669 -0.440614 4.48114 207 232 236
0.128206 -0.439738 4.42812 105 152 143
0.296875 -0.438832 4.44444 88 121 117
-1.58611 -0.441916 4.53046 47 84 58
-0.147536 -0.432652 4.456 74 118 95
0.369966 -0.428908 4.43965 142 172 167
-0.711661 -0.418037 4.4384 176 230 201
-0.521521 -0.418056 4.44983 83 110 101
0.0915986 -0.427 4.4712 70 83 69
-1.63352 -0.407887 4.55735 148 195 179
-0.435739 -0.402045 4.48704 202 232 237
-0.235421 -0.398288 4.47222 106 144 138
0.257618 -0.386195 4.42833 95 117 112
-1.03023 -0.382795 4.53123 195 235 233
-2.0105 -0.361993 4.3418 135 178 163
-1.53795 -0.378652 4.5009 68 87 68
0.265141 -0.362163 4.41025 114 148 141
0.302888 -0.375674 4.4462 218 239 240
-1.88141 -0.35023 4.30352 111 173 157
-1.45995 -0.362937 4.51286 93 145 108
-1.3749 -0.359898 4.53943 78 125 109
-0.00370129 -0.354568 4.47899 204 233 237
0.0249834 -0.359288 4.46501 118 147 144
0.21117 -0.354372 4.44572 92 114 109
-2.00923 -0.333294 4.34126 92 115 93
-1.74082 -0.343926 4.4948 95 136 121
-1.51405 -0.353031 4.50865 135 207 160
-0.584379 -0.349526 4.47385 89 123 113
-0.285819 -0.353807 4.49642 98 121 117
-1.86735 -0.313647 4.24101 189 221 216
-1.437 -0.337948 4.4687 151 234 196
0.347483 -0.339063 4.461 133 156 151
-1.31354 -0.333871 4.51807 76 104 84
-0.937559 -0.322639 4.51486 123 184 174
-0.38242 -0.330741 4.48818 91 126 116
-0.755318 -0.32402 4.4586 189 229 217
-0.816998 -0.308999 4.44211 58 75 71
-1.35389 -0.308663 4.5007 124 187 161
-2.1208 -0.278798 4.25268 147 209 187
-0.0223087 -0.294823 4.46285 83 114 113
0.116433 -0.286773 4.44712 123 164 159
0.173624 -0.295664 4.38038 81 103 98
-1.3526 -0.283564 4.48796 49 69 46
0.0322179 -0.279504 4.46105 129 172 159
0.239934 -0.277969 4.46363 133 171 165
-2.11944 -0.256216 4.30146 91 115 105
-1.92764 -0.266249 4.30518 52 77 63
0.025598 -0.266011 4.45479 98 143 140
0.177907 -0.264772 4.42185 110 153 140
-2.58958 -0.25365 4.38034 70 101 74
-0.2206 -0.242874 4.46845 139 167 167
-1.38429 -0.247875 4.4674 130 198 167
0.458226 -0.246184 4.42768 228 242 248
-1.31539 -0.231303 4.50354 62 81 64
-0.604633 -0.222211 4.4975 113 155 144
-2.2702 -0.204442 4.25844 156 221 200
-0.225851 -0.21305 4.46064 206 237 236
-0.832009 -0.19842 4.50435 92 132 120
0.438965 -0.201879 4.46092 209 236 240
-1.02766 -0.192616 4.52658 108 156 144
-0.781257 -0.186939 4.50097 78 91 89
-0.659988 -0.186895 4.49593 96 119 114
-0.99431 -0.180636 4.52617 200 238 240
-0.915978 -0.17764 4.50347 66 93 84
-1.14538 -0.168611 4.52049 181 232 224
0.423341 -0.167428 4.4609 113 148 138
-2.04906 -0.15447 4.28303 95 136 121
-1.21665 -0.159743 4.46284 106 150 137
-1.06717 -0.16127 4.51104 81 98 94
-1.02784 -0.1626 4.50617 61 84 76
-0.575798 -0.159811 4.45853 179 215 209
-0.707765 -0.148133 4.48622 178 213 216
-0.902343 -0.151921 4.49611 131 205 177
-1.19718 -0.127528 4.53161 49 70 71
-0.250393 -0.129145 4.45583 130 168 156
-1.15664 -0.114026 4.49924 162 236 208
-2.08033 -0.100598 4.30309 92 134 111
-1.97564 -0.102496 4.272 61 90 67
-2.1309 -0.0830061 4.27612 46 53 40
-0.369958 -0.07822 4.45876 109 142 135
-2.16241 -0.0684851 4.27168 128 171 138
-0.311235 -0.070767 4.4569 85 101 94
-0.313096 -0.0710419 4.45559 84 105 97
0.0234759 -0.0617917 4.45228 110 148 148
-0.250424 -0.047038 4.41107 84 100 99
-0.0628326 -0.0569943 4.44302 114 140 134
-2.08268 -0.0452163 4.28489 76 109 82
-1.01115 -0.0414453 4.48251 135 213 176
-0.954007 -0.0359204 4.48257 115 141 127
-0.409911 -0.0421613 4.43843 139 169 170
-0.0105148 -0.0363003 4.43445 91 145 138
-0.625589 -0.0356958 4.45408 213 247 246
-1.38231 -0.0134512 4.36969 57 73 62
-0.726993 -0.0177377 4.38147 96 137 109
-0.392441 -0.00717613 4.46147 70 98 85
-0.0639965 0.00636743 4.45461 133 163 164
-1.12174 0.0114235 4.43556 160 231 205
-1.7453 0.0189703 4.50974 50 96 73
-0.0692568 0.0254188 4.44726 97 119 117
-0.15485 0.0350592 4.44293 120 133 135
0.0968523 0.0527448 4.3792 111 143 132
0.379293 0.049558 4.44163 95 116 101
-1.63543 0.0598701 4.49727 147 205 181
-1.2368 0.0615986 4.31593 99 145 109
-0.108007 0.0629901 4.44352 115 138 130
-0.871089 0.0688226 4.38127 136 193 168
-1.80027 0.0716829 4.54316 151 217 188
-0.625391 0.078795 4.46215 157 202 186
-0.182611 0.0777748 4.4208 81 104 90
-0.649161 0.101283 4.46976 81 96 88
-0.241209 0.0976471 4.44112 164 215 207
-0.0474871 0.099295 4.419 81 103 98
-0.0136092 0.103794 4.3779 83 111 105
-0.902984 0.112573 4.38156 70 94 76
-0.653051 0.125663 4.43971 65 97 73
-0.58418 0.121012 4.45918 168 224 205
0.518601 0.128757 4.42084 119 133 121
0.593635 0.130175 4.4269 144 198 191
0.495235 0.142816 4.46785 143 209 198
-0.711802 0.16058 4.46987 100 141 113
0.558439 0.155017 4.45665 107 134 124
0.588745 0.164198 4.45921 69 82 68
2.494 0.159797 4.37129 111 163 146
0.280253 0.179545 4.48199 115 143 137
-0.0535709 0.191714 4.41711 180 231 217
0.499825 0.197576 4.46296 137 186 178
-1.55615 0.221562 4.51457 123 128 126
0.297095 0.220469 4.48134 155 188 191
-1.65441 0.223285 4.39618 125 192 161
-1.43921 0.226684 4.49838 78 117 102
-0.352373 0.2246 4.42494 55 79 71
0.613786 0.22923 4.39654 241 248 245
-0.580959 0.235531 4.44826 89 114 104
-1.66475 0.233206 4.36301 42 62 43
-0.0601466 0.244333 4.45365 103 137 131
-1.71526 0.249924 4.35964 59 78 51
0.45659 0.258545 4.38468 131 180 178
-1.24374 0.282371 4.31037 144 213 186
0.29927 0.286058 4.40496 127 168 163
0.708639 0.285557 4.41451 170 224 211
2.63842 0.287143 4.41342 96 121 107
-1.90079 0.301125 4.49492 101 98 93
-0.487882 0.288661 4.41729 111 157 145
-0.783555 0.300226 4.45898 153 201 183
0.480719 0.317473 4.45395 82 87 78
0.505409 0.299813 4.43774 141 201 207
0.605981 0.313803 4.4109 143 158 184
-0.264146 0.32465 4.43035 55 78 64
0.489441 0.323305 4.44903 78 105 95
2.64684 0.320927 4.36676 102 141 125
-0.54332 0.333675 4.4528 89 135 113
0.390595 0.337315 4.45714 92 111 108
0.492129 0.352621 4.46272 100 157 156
-0.575911 0.361132 4.45459 87 94 89
-0.500477 0.349317 4.40907 102 125 117
1.36819 0.355536 4.39822 124 155 148
1.42549 0.356083 4.41303 111 156 140
2.46553 0.359108 4.42628 98 119 110
0.861151 0.365393 4.37459 152 180 204
0.947206 0.370366 4.37995 68 67 71
1.06063 0.363156 4.41422 159 185 191
0.785619 0.368986 4.30705 252 254 254
-1.83409 0.390496 4.51249 209 233 239
-0.403163 0.384241 4.4489 74 95 80
-2.52201 0.37918 4.149 103 126 104
-0.228342 0.404873 4.42095 80 117 101
-0.932438 0.417611 4.49241 104 155 141
-0.0160662 0.434032 4.47127 117 159 148
-1.91142 0.444104 4.5066 168 224 205
1.75318 0.435152 4.41172 148 173 175
2.25111 0.433873 4.40848 121 188 173
-1.95545 0.457207 4.51817 57 74 77
-0.700068 0.453141 4.46532 87 119 102
-1.78692 0.460649 4.49306 133 164 165
-1.83989 0.492756 4.51431 143 155 159
-1.86551 0.500804 4.49428 207 241 234
-0.646785 0.49361 4.45415 85 126 98
-0.0531305 0.486586 4.38561 82 106 96
-1.98071 0.516744 4.50838 203 237 237
-0.330244 0.506936 4.42264 178 223 214
-0.0812869 0.522437 4.46318 106 146 141
-2.13309 0.538987 4.52688 104 121 118
1.84824 0.526056 4.39885 217 241 241
-1.9965 0.545434 4.51321 83 126 115
-0.915077 0.534404 4.45062 148 220 198
1.1954 0.531955 4.41041 109 119 106
1.1034 0.538269 4.39837 110 153 138
1.291 0.54621 4.39789 99 110 90
1.26136 0.548632 4.39638 87 89 69
1.83239 0.545405 4.38341 172 217 208
-1.04986 0.558795 4.47646 57 84 81
-0.877827 0.56602 4.46366 84 127 116
1.08061 0.545911 4.37334 163 210 202
-0.928384 0.566118 4.44259 75 110 120
1.0781 0.574791 4.4297 117 161 148
2.13065 0.567438 4.3832 210 225 234
-2.15036 0.59427 4.52413 74 96 101
-1.8464 0.589911 4.5064 119 168 154
2.06051 0.578088 4.40252 198 230 229
2.32028 0.566922 4.40219 117 131 129
2.58435 0.585695 4.41032 190 215 217
-2.00878 0.61233 4.52221 79 91 91
1.06464 0.597791 4.42205 152 211 197
-2.0369 0.61618 4.50588 51 70 67
-1.99752 0.631137 4.51881 45 59 48
-1.87098 0.635613 4.50604 55 79 67
-1.81585 0.636214 4.51619 48 67 48
-1.02782 0.624497 4.46509 121 199 162
-0.686756 0.631887 4.46918 88 117 102
-2.19639 0.654069 4.51259 148 182 188
-0.396574 0.642201 4.43069 97 120 116
1.03823 0.640336 4.40532 87 109 97
2.60053 0.65034 4.43534 97 95 101
-0.574386 0.659149 4.43504 86 135 107
-0.353061 0.663765 4.45453 173 205 211
-0.338925 0.676254 4.42794 118 135 138
1.43337 0.665348 4.38038 83 105 86
-0.447872 0.686047 4.44924 190 228 228
-1.93095 0.698248 4.49059 110 153 138
0.325585 0.714697 4.45195 218 240 245
1.9851 0.70886 4.40313 122 170 152
2.13097 0.700455 4.31065 130 170 159
-2.50097 0.765377 4.54363 202 235 231
-0.340916 0.742699 4.43256 89 131 113
-1.9476 0.742466 4.46012 112 159 143
-0.640845 0.745138 4.42213 104 134 123
-0.399953 0.747133 4.45259 98 134 128
0.981088 0.74445 4.37625 153 219 200
-0.848796 0.776607 4.45581 59 85 62
-0.565105 0.764522 4.42963 141 178 162
1.31522 0.768945 4.42608 90 114 82
-1.04098 0.783571 4.4541 67 111 80
-1.13675 0.785936 4.40005 65 107 89
0.463704 0.802352 4.4038 85 94 98
-0.51079 0.817557 4.45086 223 247 247
-2.36002 0.840185 4.5076 96 117 114
-0.970881 0.835228 4.44302 43 73 48
-0.889495 0.821423 4.39625 64 88 70
-0.572031 0.830633 4.46436 181 219 219
0.408266 0.823652 4.42513 96 104 93
-0.514872 0.839726 4.45925 99 114 116
-0.215488 0.838239 4.45813 120 142 137
-2.21014 0.857311 4.49998 95 133 121
0.355713 0.837197 4.38588 128 163 153
1.49995 0.832784 4.35894 86 95 74
-2.19074 0.866494 4.51997 73 102 86
2.48807 0.845475 4.39951 121 152 143
-2.13632 0.866724 4.47099 188 227 229
-1.15403 0.8633 4.43384 75 101 83
-2.05183 0.882845 4.47986 67 109 86
-0.166651 0.873421 4.41852 101 138 134
0.441006 0.865837 4.3879 80 90 78
-1.37707 0.892392 4.45806 51 80 65
-1.34273 0.890458 4.44543 122 185 153
-0.162256 0.886993 4.4505 115 166 159
-0.635958 0.890444 4.39589 157 212 187
-1.0485 0.907296 4.39661 40 76 54
-0.64416 0.920464 4.46569 166 228 204
-2.31218 0.941681 4.51034 100 111 119
0.370245 0.927299 4.3868 104 120 113
-0.716855 0.936817 4.42543 93 121 98
-0.629074 0.939852 4.43202 77 126 110
-2.42507 0.972831 4.50308 83 94 91
-1.42702 0.943114 4.41576 114 167 140
-0.174378 0.946768 4.43097 126 177 179
1.12176 0.941329 4.42851 90 111 89
-2.17826 0.968097 4.48818 124 160 154
0.377393 0.958714 4.4583 108 134 121
-0.557462 0.971833 4.43961 112 148 136
1.10262 0.968364 4.44116 92 122 109
-0.733162 0.965771 4.39774 180 232 209
0.412563 0.971613 4.37693 121 153 128
-1.07918 0.988649 4.41425 54 87 72
-0.560254 0.99507 4.49191 130 184 171
-0.429008 0.990063 4.43858 141 170 174
-1.36577 0.993547 4.46934 112 139 130
-2.23676 1.04037 4.52498 151 217 198
-1.03994 1.01311 4.40186 66 107 70
-0.968081 1.02702 4.45958 72 92 69
-2.06509 1.03577 4.48582 63 114 86
-2.00868 1.02695 4.44869 45 80 60
-1.13469 1.03593 4.40243 41 62 37
-0.556512 1.04146 4.4415 106 131 121
-0.634405 1.06564 4.43808 95 141 118
-0.757988 1.07771 4.42396 157 225 190
-2.21823 1.10987 4.49595 200 237 227
-0.691557 1.08671 4.42198 69 101 84
0.335313 1.09128 4.44881 112 145 141
0.267115 1.10095 4.43041 241 252 255
-0.799893 1.11499 4.43527 52 85 64
