ply
format ascii 1.0
element vertex 1256
property float x
property float y
property float z
property uchar blue
property uchar green
property uchar red
end_header
-0.0704755 -0.448615 2.19994 148 210 186
-0.0480995 -0.448955 2.19993 66 131 122
-0.357869 -0.445373 2.20947 151 221 198
-0.0487821 -0.440989 2.19964 133 201 184
-0.0215331 -0.436774 2.20063 75 149 125
-0.0209847 -0.43666 2.2009 80 154 130
0.000714783 -0.41644 2.20066 83 152 142
-0.715691 -0.421773 2.23887 94 163 153
0.904387 -0.409618 2.15202 123 204 171
-0.00921131 -0.407474 2.20277 84 141 132
0.610634 -0.403806 2.17497 130 188 163
0.546515 -0.4012 2.17939 135 212 178
0.810935 -0.392662 2.16464 61 110 78
-0.31234 -0.382481 2.21548 61 139 115
-0.0190091 -0.380628 2.20651 93 153 152
0.417026 -0.378632 2.18789 84 145 147
0.529885 -0.375626 2.18646 134 221 187
0.820742 -0.373614 2.16927 80 145 123
-0.479693 -0.368058 2.22462 77 142 127
-0.0334748 -0.355014 2.2101 73 132 118
0.619877 -0.351243 2.18384 167 225 201
0.448427 -0.34029 2.19396 69 131 125
0.641311 -0.326423 2.18686 69 132 112
0.625531 -0.323899 2.18902 144 223 196
-0.0683425 -0.319031 2.21564 57 132 104
0.422036 -0.318098 2.19882 89 156 151
0.721261 -0.314442 2.18705 147 202 183
0.0908094 -0.31232 2.20586 161 219 194
0.553744 -0.310896 2.19453 84 141 120
1.07517 -0.286139 2.04005 157 188 241
0.549603 -0.297747 2.19536 84 166 137
0.600176 -0.298304 2.19549 78 145 124
0.0925163 -0.294632 2.20853 146 207 181
1.02247 -0.292826 2.17937 146 201 184
1.02021 -0.288147 2.17802 129 162 128
-0.0221853 -0.288859 2.21808 160 213 204
0.362009 -0.285577 2.20266 62 122 104
0.708939 -0.285071 2.19464 118 168 136
0.531391 -0.283063 2.19593 141 226 181
0.708785 -0.283327 2.19531 55 99 68
0.814267 -0.283397 2.18985 149 225 184
0.638158 -0.281829 2.19703 71 138 111
0.3404 -0.278135 2.2069 85 156 136
-0.121834 -0.272979 2.22146 94 143 145
0.6197 -0.271079 2.19974 81 147 118
0.414653 -0.268863 2.20136 72 135 103
-0.802528 -0.269447 2.25037 214 251 247
0.506119 -0.261104 2.20078 53 111 86
0.506606 -0.258973 2.20109 125 173 149
0.661257 -0.258516 2.20154 66 103 87
0.725872 -0.258881 2.1981 114 177 138
0.720826 -0.258202 2.19914 136 206 169
0.506067 -0.257025 2.20051 50 103 83
0.464697 -0.249411 2.20291 59 126 97
0.97045 -0.241472 2.18998 173 241 188
-0.191043 -0.237978 2.22902 93 166 170
0.441959 -0.236323 2.20671 68 144 110
0.441968 -0.236269 2.20688 68 144 110
0.392972 -0.234705 2.20951 98 169 149
0.290631 -0.23408 2.21393 79 138 124
0.60256 -0.224186 2.211 75 139 109
0.473876 -0.216344 2.21 106 176 146
0.505188 -0.213074 2.20761 139 205 176
0.6715 -0.214229 2.2104 73 145 109
0.423725 -0.212774 2.21078 56 119 93
0.455084 -0.210709 2.21005 81 154 114
0.501745 -0.210698 2.20894 50 127 89
0.576262 -0.210298 2.21253 141 233 198
0.670343 -0.208809 2.21269 68 133 94
0.629776 -0.204068 2.21445 143 217 191
0.500784 -0.199207 2.21211 131 201 170
0.640248 -0.196132 2.21372 135 191 162
0.440781 -0.191312 2.21391 128 214 172
0.255449 -0.188977 2.22056 99 147 141
0.593183 -0.186831 2.21635 62 134 98
0.263654 -0.182372 2.22312 75 139 120
0.467665 -0.18217 2.21609 125 186 160
0.470566 -0.181 2.21687 46 98 75
0.919075 -0.178945 2.21044 136 206 176
0.579654 -0.176065 2.2169 146 209 169
0.293365 -0.171241 2.22029 67 132 106
0.332866 -0.171328 2.22059 73 129 118
0.293967 -0.170865 2.22119 53 124 97
0.357625 -0.159693 2.22011 88 145 136
0.480184 -0.159224 2.22288 138 206 181
0.580884 -0.148614 2.22613 148 220 178
0.407149 -0.14353 2.22362 82 144 126
0.888747 -0.142971 2.2205 155 230 192
0.487526 -0.140847 2.22709 113 178 156
0.262035 -0.134208 2.22953 72 142 119
0.294151 -0.123863 2.22888 147 205 187
0.633287 -0.125766 2.22902 82 142 124
0.594797 -0.122845 2.22973 127 184 145
0.570103 -0.116814 2.23077 77 164 130
0.295744 -0.111115 2.23144 79 135 114
0.86535 -0.114256 2.22905 86 122 108
0.857516 -0.108724 2.22829 151 211 181
0.310313 -0.105295 2.23163 139 197 173
0.351967 -0.0956614 2.2356 69 136 121
0.299009 -0.0942164 2.23541 85 140 125
0.407823 -0.0827282 2.23918 93 162 141
0.830021 -0.0799731 2.23548 148 215 176
0.40524 -0.0755596 2.23994 145 219 185
0.915815 -0.0726136 2.09876 61 93 169
0.268716 -0.0729848 2.24015 78 141 121
0.568236 -0.0731199 2.2414 79 150 133
0.530559 -0.0707067 2.23871 138 217 178
0.337679 -0.0676061 2.24195 150 220 203
0.49821 -0.0608752 2.24347 59 123 101
0.481324 -0.0579896 2.24535 111 173 151
0.456231 -0.0560015 2.24511 64 136 116
0.808699 -0.0535836 2.24416 123 189 154
0.144391 -0.0487786 2.24515 178 234 215
0.739204 -0.0494792 2.24461 72 149 112
0.176017 -0.0413162 2.24554 213 241 228
0.301218 -0.0334686 2.2495 64 144 121
-0.0858029 -0.031088 2.25594 75 121 109
0.25422 -0.0285579 2.2491 77 151 127
0.286479 -0.0199411 2.24984 84 149 128
0.258567 -0.0163265 2.25349 90 157 136
0.765307 -0.00663152 2.25463 132 196 150
0.448643 -0.00310483 2.25796 86 138 114
0.762619 -0.00356612 2.25599 132 198 163
0.469355 -0.00181002 2.25882 96 158 142
-0.340771 0.00156442 2.25834 118 172 159
0.533136 0.00558252 2.25743 88 160 130
0.363815 0.0330134 2.26447 46 110 88
0.725663 0.0363148 2.26601 132 197 165
0.276419 0.0384045 2.26285 77 157 134
-0.23046 0.0521459 2.26944 94 158 158
0.27915 0.053065 2.26539 52 117 92
0.382992 0.0751612 2.27425 103 158 143
-0.309068 0.100991 2.27829 63 121 127
0.0330817 0.122807 2.27886 52 130 113
0.637166 0.13506 2.29009 167 236 199
0.232176 0.140491 2.28369 161 216 207
0.631852 0.140625 2.29271 134 209 157
0.631013 0.142908 2.29278 56 126 86
0.628561 0.144045 2.29469 134 208 174
0.62148 0.154838 2.29549 44 90 54
0.618308 0.155397 2.29483 149 219 172
0.618858 0.155436 2.29481 128 193 147
0.231654 0.158006 2.28603 249 254 253
0.609987 0.158108 2.29648 88 169 124
0.231212 0.162421 2.28766 239 245 244
0.0834445 0.166004 2.28739 78 147 136
0.371681 0.169137 2.2939 164 229 207
0.110693 0.172213 2.28806 92 161 151
0.169486 0.180038 2.28939 212 249 247
0.653643 0.171206 2.17674 216 241 255
1.21938 0.230234 2.80003 196 225 255
0.230191 0.1988 2.29585 202 238 238
0.296964 0.203922 2.29892 144 201 186
0.273181 0.209605 2.29832 136 205 185
0.265114 0.231968 2.30353 69 128 114
0.225595 0.241917 2.30451 76 138 126
0.507417 0.276349 2.32494 109 145 123
0.50672 0.27915 2.32618 207 213 172
0.50399 0.280775 2.32588 95 115 80
0.497095 0.287734 2.32783 149 197 169
0.468904 0.339694 2.342 104 98 79
-0.331857 -0.888293 2.18605 139 193 164
-0.320433 -0.887821 2.18568 86 134 116
-0.539062 -0.885987 2.19654 78 118 93
-0.390092 -0.882952 2.18915 166 224 199
1.00922 -0.832085 2.07152 142 193 166
-0.295034 -0.864142 2.18156 73 132 104
-0.363906 -0.863705 2.19081 78 142 120
0.211013 -0.843517 2.14161 99 166 145
0.322202 -0.841024 2.135 154 211 203
-0.374047 -0.860308 2.19353 78 134 121
0.323882 -0.837622 2.13736 107 160 157
-1.05276 -0.881017 2.27094 137 176 190
0.453726 -0.823596 2.13142 80 149 112
-0.315617 -0.836999 2.18553 146 208 168
-0.80369 -0.854633 2.24173 83 152 137
0.237212 -0.814483 2.14061 131 207 175
-1.25726 -0.865828 2.29696 241 255 241
-0.0547638 -0.815939 2.16984 219 255 250
0.163979 -0.805366 2.14542 88 157 137
-0.507821 -0.824702 2.20418 71 124 115
0.208026 -0.801211 2.14243 162 229 190
-1.04848 -0.842966 2.26748 100 142 131
-0.698198 -0.828258 2.22795 89 142 132
-0.984565 -0.831145 2.2443 92 121 118
-0.600975 -0.819664 2.21636 75 121 109
-0.534857 -0.816658 2.20917 134 203 176
-0.640274 -0.819313 2.22129 70 118 100
-0.323229 -0.808794 2.19071 50 116 97
-0.584903 -0.807259 2.21519 92 148 125
-0.583727 -0.800594 2.21531 83 131 113
0.236611 -0.772571 2.14321 155 214 176
-0.421462 -0.790254 2.19829 85 143 118
-0.679926 -0.799773 2.2275 64 94 81
-0.0500252 -0.779162 2.17142 58 115 100
-0.028197 -0.776523 2.16949 84 135 115
-0.940127 -0.79456 2.24087 166 235 215
-1.04536 -0.790036 2.25274 176 241 225
-0.938082 -0.787373 2.24158 100 135 131
-0.646761 -0.778725 2.22089 58 100 82
0.0740152 -0.755049 2.16025 107 153 154
-0.799402 -0.781447 2.2444 93 153 153
-0.443349 -0.762382 2.20342 83 152 119
0.203947 -0.744486 2.14867 94 156 138
-0.609673 -0.765184 2.21323 184 232 214
0.268043 -0.739722 2.14182 96 143 121
-1.21955 -0.787944 2.2862 210 246 230
0.146155 -0.740587 2.15326 89 156 135
0.315562 -0.733939 2.14611 145 215 192
-0.978316 -0.764743 2.24679 188 236 224
-0.0928421 -0.739158 2.17689 84 147 138
-0.777777 -0.759388 2.23995 111 158 156
-0.990589 -0.761841 2.25059 129 180 172
-0.132554 -0.734864 2.17823 83 136 122
-0.646504 -0.747497 2.22186 89 150 136
-0.709828 -0.747411 2.2295 155 214 199
-1.06676 -0.745569 2.2426 34 61 57
-1.01015 -0.749792 2.25505 194 240 228
0.334962 -0.715082 2.14856 166 239 223
-1.06922 -0.743423 2.24014 142 185 176
-1.13215 -0.747363 2.2652 163 201 201
0.2372 -0.702052 2.14861 183 224 192
0.175462 -0.698161 2.153 83 137 114
0.427392 -0.69526 2.14382 81 137 118
0.25693 -0.692132 2.14786 74 130 95
0.424599 -0.685512 2.14657 74 133 112
0.207351 -0.684371 2.15343 59 128 95
0.166472 -0.68499 2.15581 145 214 187
-0.140392 -0.68991 2.18309 58 132 120
0.302673 -0.681997 2.15164 134 202 177
0.243612 -0.667075 2.15419 75 146 119
0.654089 -0.663943 2.13815 69 143 115
-1.1192 -0.701759 2.27106 82 132 120
-1.03303 -0.696895 2.26678 193 243 231
0.649682 -0.657843 2.13702 61 112 85
-1.12077 -0.696073 2.27283 89 131 124
-0.850537 -0.683127 2.23638 171 228 213
-0.881105 -0.677994 2.22867 97 117 104
0.422158 -0.653427 2.15259 91 155 150
0.301633 -0.6432 2.15367 133 201 176
-1.28773 -0.678794 2.29065 123 122 142
-0.892065 -0.662375 2.23689 166 221 194
-0.850405 -0.66254 2.24601 102 122 117
-0.885132 -0.658961 2.24594 66 110 97
-0.291464 -0.642409 2.19606 100 160 149
0.214646 -0.631594 2.16038 84 135 115
0.131167 -0.630283 2.16302 65 104 83
0.338119 -0.622475 2.15762 66 129 103
-0.893349 -0.644488 2.25057 96 119 114
0.192512 -0.620164 2.16331 85 157 137
0.131654 -0.613775 2.16615 101 170 150
0.422636 -0.608031 2.15714 81 143 125
-0.166785 -0.592906 2.19004 78 130 113
-0.160249 -0.592376 2.19022 50 95 78
-0.347201 -0.592831 2.20179 90 156 144
-0.881232 -0.603477 2.25077 189 243 230
0.149468 -0.58237 2.16947 77 138 124
0.154052 -0.580162 2.16472 49 93 80
0.131804 -0.579081 2.16877 71 119 107
-0.67273 -0.59254 2.23106 108 171 161
0.282137 -0.574025 2.16469 71 135 113
0.164442 -0.568934 2.16807 161 240 207
0.431678 -0.566037 2.16222 43 132 113
-0.046963 -0.564655 2.1875 65 129 117
0.265909 -0.557447 2.16704 63 126 106
0.214348 -0.555647 2.17045 61 123 107
-1.20176 -0.582137 2.27466 117 167 163
0.875474 -0.547978 2.13411 82 161 128
-1.04893 -0.569003 2.26034 88 137 123
-1.05819 -0.562767 2.25888 87 129 112
-1.02306 -0.552629 2.24953 76 134 106
-0.0411588 -0.536326 2.19001 81 143 131
-1.26011 -0.551305 2.2796 102 114 138
0.233281 -0.523978 2.17272 73 138 117
-0.0414351 -0.523532 2.19219 104 157 148
0.175986 -0.516141 2.17472 60 119 98
0.464976 -0.510794 2.16866 104 172 155
-0.00634633 -0.504484 2.18986 56 109 100
-1.00173 -0.518322 2.25803 83 138 121
-0.495209 -0.503424 2.21451 80 145 129
-0.236799 -0.496481 2.20199 88 150 128
0.621618 -0.476247 2.16528 77 155 132
0.380068 -0.475181 2.17589 93 147 154
-1.01671 -0.484388 2.25364 103 144 117
0.365938 -0.467576 2.17503 75 132 124
0.759632 -0.450996 2.15871 79 141 119
0.386278 -0.447373 2.18017 83 149 148
0.735812 -0.443425 2.16303 84 142 114
0.793005 -0.442313 2.15826 71 126 107
-0.0669578 -0.440696 2.20129 52 119 104
0.00157829 -0.439759 2.19739 78 143 118
0.903318 -0.424598 2.15143 127 208 161
0.222373 -0.417561 2.18852 82 144 128
-1.00166 -0.423778 2.25851 204 247 234
-0.283113 -0.395037 2.21015 76 133 118
1.05437 -0.383389 2.15335 75 121 108
0.0554086 -0.383628 2.20097 186 232 255
0.733628 -0.380213 2.17416 83 154 127
1.05805 -0.377001 2.15764 141 215 181
-0.28364 -0.372268 2.21373 71 145 115
1.0306 -0.364047 2.16051 87 136 134
1.01455 -0.360371 2.15963 162 230 189
-0.485535 -0.364464 2.22615 68 137 134
-0.0108458 -0.356988 2.20808 98 151 148
0.198787 -0.327945 2.20168 88 151 142
0.757136 -0.325086 2.18466 67 123 100
0.305258 -0.31722 2.19811 68 126 115
0.549232 -0.316065 2.19409 70 129 108
1.12127 -0.287047 2.02791 166 203 253
0.812147 -0.300393 2.18628 72 130 101
0.973714 -0.297884 2.17884 82 149 112
0.369717 -0.295826 2.20015 90 146 135
0.583057 -0.296497 2.19358 74 137 121
1.13207 -0.266651 2.0248 177 212 255
0.340402 -0.278133 2.2069 85 156 136
0.711394 -0.273213 2.19772 132 207 179
0.70386 -0.271218 2.19791 70 133 107
0.707956 -0.268727 2.19793 145 209 187
0.353463 -0.263228 2.20566 87 134 138
0.453997 -0.261099 2.20048 168 233 201
0.458306 -0.257897 2.20133 80 142 106
0.502624 -0.258532 2.2022 72 140 115
0.661213 -0.258228 2.20174 66 103 87
0.966486 -0.256084 2.18748 93 167 137
0.72149 -0.254802 2.20037 81 136 117
0.515989 -0.251434 2.20172 64 138 108
0.507452 -0.251418 2.20354 140 211 178
0.680955 -0.246825 2.20204 56 125 104
0.474188 -0.237249 2.20843 144 237 186
0.440941 -0.236884 2.20652 92 164 128
0.47077 -0.234985 2.20695 83 157 129
0.737672 -0.233803 2.20447 75 135 104
0.42572 -0.22367 2.20941 71 143 120
0.50541 -0.212928 2.20799 147 224 187
0.497408 -0.206394 2.21043 69 130 92
0.431165 -0.202476 2.21221 62 135 109
-1.05794 -0.191946 2.26862 195 247 240
0.644071 -0.184888 2.21551 80 133 94
0.263701 -0.182393 2.22305 75 139 120
0.332685 -0.17164 2.21976 69 122 109
0.293729 -0.165897 2.22204 53 127 101
0.324244 -0.159943 2.22255 76 145 125
0.552843 -0.148238 2.22367 139 207 166
0.722431 -0.148817 2.22449 71 138 109
0.122415 -0.138142 2.22851 71 115 102
0.261434 -0.133895 2.22699 73 139 114
0.594633 -0.123012 2.22932 127 184 145
0.305702 -0.120564 2.22975 153 213 207
0.573215 -0.120603 2.2305 93 169 135
0.351948 -0.0956021 2.23576 69 136 121
0.299018 -0.0944193 2.23489 64 122 104
0.525006 -0.0949711 2.23619 56 143 109
-0.341424 -0.0859084 2.25013 62 114 104
0.277435 -0.0817526 2.23956 86 151 135
0.477526 -0.0505993 2.24807 93 152 138
0.414533 -0.0404286 2.25087 161 233 210
0.442223 -0.0308042 2.25003 147 220 194
0.295669 -0.0283635 2.24981 62 124 100
0.764174 -0.0216634 2.25092 70 135 103
0.415883 -0.0137807 2.25314 77 150 118
0.450363 -0.0137672 2.25703 76 134 109
0.765295 -0.00662454 2.25465 132 196 150
0.447924 -0.00344011 2.25838 95 144 122
0.351845 -0.00130972 2.25657 230 255 250
0.469497 -0.00170889 2.25903 86 148 132
0.808819 -4.62449e-05 2.12963 219 254 255
-0.328442 0.00647091 2.25937 93 149 120
0.282031 0.00803367 2.25607 81 134 114
-0.0709361 0.0223858 2.26513 86 162 144
0.641562 0.0199449 2.2615 75 142 127
0.724101 0.0361435 2.26615 127 195 164
0.276406 0.0386682 2.26344 87 165 141
0.343419 0.0409802 2.26443 75 130 111
0.583867 0.0624174 2.27165 76 146 116
0.382641 0.0696495 2.27275 164 233 213
-0.159015 0.0732303 2.27356 95 161 149
0.870217 0.0663547 2.12202 79 103 185
0.817207 0.0878311 2.13569 121 157 217
-0.711512 0.103419 2.2807 213 246 239
0.538801 0.108301 2.28281 68 144 113
0.679125 0.126524 2.16764 218 243 255
0.652922 0.129775 2.17551 62 94 160
0.231045 0.140168 2.28338 163 216 206
0.0598297 0.147661 2.28399 73 134 124
0.165727 0.151471 2.28278 153 229 251
0.231425 0.15803 2.28612 249 254 253
-0.535885 0.164152 2.26783 109 125 114
0.227572 0.167903 2.28969 90 139 123
0.292894 0.206299 2.30044 97 155 137
0.601937 0.198203 2.19026 78 95 162
0.163802 0.224295 2.29733 97 157 146
0.0119139 0.229782 2.30006 101 153 143
0.268521 0.231107 2.30382 142 218 187
0.617639 0.233054 2.1882 188 212 255
0.278996 0.250516 2.30911 74 147 125
-0.00542081 0.312755 2.31906 71 140 129
-0.897847 -0.92127 2.2565 79 111 100
-0.687941 -0.901416 2.22618 90 128 122
0.968497 -0.840062 2.07409 78 122 91
-0.714783 -0.896266 2.23146 184 230 217
-1.02109 -0.906367 2.25612 53 84 99
-0.938189 -0.90464 2.2542 113 155 162
-0.791519 -0.895796 2.23881 78 125 117
0.699828 -0.846418 2.10947 80 146 117
0.233785 -0.849308 2.13876 83 142 127
-0.981611 -0.891048 2.2519 110 147 167
-1.06095 -0.893487 2.26323 86 121 125
0.980313 -0.823451 2.07488 139 177 165
-0.363894 -0.863682 2.1911 78 142 120
0.415593 -0.838959 2.13113 85 137 130
-0.953422 -0.882505 2.25001 116 132 149
0.183333 -0.837976 2.14327 87 138 130
0.144005 -0.837375 2.14467 104 150 137
-0.194867 -0.848024 2.17432 86 137 123
0.454733 -0.831959 2.13057 93 153 135
-0.698406 -0.863599 2.22808 109 163 150
0.441952 -0.823599 2.13096 97 150 130
1.00493 -0.803789 2.07651 61 112 92
0.725621 -0.813958 2.10968 65 128 102
-0.380974 -0.837712 2.1897 135 226 181
0.262925 -0.820421 2.13979 94 153 138
-0.795754 -0.856753 2.24083 89 151 139
-0.311001 -0.835997 2.18611 72 129 98
-1.16388 -0.871914 2.28075 106 134 151
-0.803703 -0.854595 2.24215 79 148 135
-0.87528 -0.853209 2.25139 76 141 126
-0.576401 -0.837107 2.20977 55 98 85
-0.012342 -0.820232 2.16512 102 153 149
-1.20277 -0.858597 2.27454 108 141 167
-1.25731 -0.865821 2.29708 241 255 241
-0.478159 -0.824437 2.1965 96 160 141
-1.19411 -0.853754 2.28039 116 140 158
-0.892651 -0.843985 2.25447 78 138 127
-0.813467 -0.840316 2.24542 87 149 135
-0.685124 -0.829649 2.22463 73 100 90
0.231272 -0.800381 2.13991 71 113 102
-0.554606 -0.824058 2.21249 94 150 137
-0.619469 -0.820681 2.21671 145 210 189
-0.323102 -0.809185 2.18917 80 137 116
-0.62998 -0.818303 2.21917 86 126 108
-0.776946 -0.822705 2.24072 92 152 141
0.247785 -0.787768 2.14055 84 157 141
-0.425555 -0.806028 2.1968 70 129 109
-1.05953 -0.831891 2.27023 80 135 126
-0.789109 -0.822323 2.24255 253 255 255
-0.68598 -0.815451 2.22763 75 130 111
-0.986383 -0.820401 2.24883 207 241 234
-0.611019 -0.808061 2.21882 165 241 207
0.146944 -0.782833 2.1481 71 142 122
-0.486555 -0.797309 2.20083 147 229 180
-0.0506554 -0.785515 2.16976 43 101 83
-0.0329715 -0.786096 2.16985 51 105 92
0.592707 -0.772227 2.12746 67 135 112
0.0253933 -0.782386 2.16464 85 153 136
-1.26697 -0.83048 2.2987 225 242 231
-0.488989 -0.790541 2.20142 65 98 83
-0.0498892 -0.779084 2.17208 58 115 100
-0.69044 -0.79767 2.22969 88 147 127
-0.0279287 -0.776324 2.1712 74 129 110
-0.665684 -0.793887 2.22674 91 133 110
-0.0435113 -0.776099 2.17325 71 124 110
0.242199 -0.761105 2.14315 67 102 92
0.955464 -0.744633 2.09617 73 121 109
-0.463682 -0.776919 2.20298 134 206 176
-0.530862 -0.775391 2.20766 78 138 107
-0.454788 -0.774823 2.20478 68 125 110
-0.349157 -0.771771 2.19444 193 243 225
0.346506 -0.753862 2.14078 95 150 141
-0.676127 -0.781415 2.22681 78 126 108
-0.296546 -0.766548 2.18865 96 159 143
0.97879 -0.73719 2.09421 158 212 175
0.174289 -0.751191 2.15167 100 156 135
0.244225 -0.746756 2.14018 45 91 72
0.189591 -0.748027 2.14814 82 143 117
-0.114994 -0.752243 2.1743 69 130 120
0.531554 -0.740906 2.13504 80 146 134
-0.550248 -0.763765 2.21405 54 105 77
0.257832 -0.740801 2.14026 66 121 104
-0.449753 -0.758887 2.20484 58 117 102
0.306545 -0.736838 2.14604 73 132 112
-0.109908 -0.745398 2.17802 88 154 149
-0.705772 -0.76068 2.22824 70 123 103
-0.571012 -0.755088 2.21259 76 131 114
0.322691 -0.73433 2.147 103 150 141
-0.727552 -0.761152 2.23091 81 130 114
0.107392 -0.731147 2.15573 80 144 115
-0.777419 -0.759268 2.24019 102 149 147
-0.556946 -0.750283 2.21519 68 128 117
0.0750531 -0.733212 2.16279 100 157 154
-0.978849 -0.760117 2.24698 102 139 137
0.218678 -0.726328 2.14672 85 138 111
-0.49047 -0.745513 2.20878 76 130 113
-0.132226 -0.734645 2.17976 85 138 125
-0.476963 -0.742893 2.20776 77 138 112
0.16502 -0.725287 2.15359 65 123 94
-0.645798 -0.747405 2.22143 89 150 136
-0.546814 -0.744988 2.21462 93 143 133
0.955624 -0.710113 2.10471 91 110 115
-0.893449 -0.75114 2.25207 99 155 150
0.145073 -0.717859 2.15529 46 90 73
0.272559 -0.71525 2.14751 78 119 112
0.0224159 -0.715091 2.1692 177 228 230
0.207159 -0.708762 2.14823 129 213 165
-1.18195 -0.749973 2.2823 111 149 143
-0.00137774 -0.713528 2.17294 53 114 104
0.92459 -0.693285 2.10606 107 168 140
0.387298 -0.70224 2.14665 85 154 134
0.16469 -0.699383 2.15613 82 127 108
0.233303 -0.699106 2.15205 73 121 103
0.721149 -0.692614 2.12669 83 144 130
0.42755 -0.695204 2.14416 81 137 118
0.263059 -0.694791 2.14908 66 121 94
0.64207 -0.691881 2.13377 49 104 87
0.203111 -0.69064 2.15281 98 140 123
-0.318167 -0.701755 2.19568 98 157 142
0.424851 -0.685405 2.14723 75 134 114
0.646252 -0.681446 2.13492 73 145 122
0.178326 -0.685388 2.15547 80 138 113
0.26638 -0.682516 2.15031 60 99 78
0.693025 -0.678933 2.13152 69 121 111
0.677858 -0.675358 2.13033 52 102 84
0.235526 -0.679513 2.15513 79 147 122
0.262223 -0.678793 2.15138 73 128 103
0.304378 -0.675358 2.14933 72 103 88
-1.12514 -0.712211 2.27223 98 151 138
0.417974 -0.673806 2.14746 82 134 111
-0.110174 -0.679986 2.18202 104 164 154
-0.181047 -0.678571 2.18516 89 154 139
1.0489 -0.659204 2.10437 85 140 123
-0.988714 -0.702702 2.26376 83 121 115
-0.873836 -0.688431 2.2286 157 203 190
0.903466 -0.657061 2.11239 102 146 140
-0.555419 -0.680044 2.2168 93 152 131
0.334201 -0.662454 2.1543 81 142 128
-0.874428 -0.68346 2.23135 103 141 129
-1.0862 -0.692167 2.27179 132 187 184
-1.0573 -0.692031 2.26441 90 129 121
-1.06685 -0.690004 2.26768 72 126 109
-1.07271 -0.68904 2.26885 188 236 218
-0.141754 -0.662902 2.18396 85 156 140
0.253689 -0.653109 2.15562 71 136 111
0.659706 -0.647971 2.13846 120 201 162
0.729238 -0.645746 2.13414 87 142 133
-0.968747 -0.678047 2.26181 98 145 142
0.634243 -0.638979 2.14245 87 155 130
-0.892095 -0.662343 2.23708 166 221 194
-0.850448 -0.662324 2.24724 92 115 111
-0.970876 -0.664402 2.26158 98 134 142
-0.873414 -0.65819 2.24586 200 220 208
-0.0793198 -0.641307 2.18391 89 161 139
0.215881 -0.632426 2.1591 80 133 113
-0.877295 -0.653456 2.25024 86 109 105
-0.959094 -0.656585 2.25892 75 84 98
-0.0491714 -0.633818 2.18217 80 138 127
0.878496 -0.612616 2.12774 110 153 120
1.18118 -0.59923 2.08731 54 112 88
0.29193 -0.612095 2.1596 160 210 186
-0.0911296 -0.610237 2.18357 119 191 171
-0.302134 -0.611447 2.19793 87 145 121
1.15499 -0.590731 2.09758 159 207 181
-0.352244 -0.609412 2.20102 67 130 110
0.115219 -0.601108 2.16903 79 129 111
-0.200448 -0.602322 2.19091 151 223 201
0.242887 -0.589964 2.16311 136 203 164
-1.18649 -0.616138 2.27247 139 159 190
-0.166785 -0.592786 2.19067 92 141 127
0.14632 -0.58813 2.16589 135 203 172
0.247616 -0.586861 2.16467 61 105 74
0.176959 -0.586126 2.16769 53 97 80
0.17358 -0.583027 2.16658 123 199 158
-0.323804 -0.590006 2.20042 90 152 138
0.938262 -0.572286 2.11984 82 123 116
0.154367 -0.579965 2.16492 61 105 92
-0.672536 -0.592555 2.23091 92 155 145
0.254261 -0.576516 2.16382 79 141 105
0.181244 -0.576541 2.1662 57 85 72
-0.524012 -0.584682 2.21704 55 129 117
1.00317 -0.563969 2.11899 74 135 107
0.249503 -0.565808 2.16614 58 104 85
0.431645 -0.565899 2.16299 43 132 113
0.885905 -0.558291 2.12992 83 129 110
-0.109617 -0.566489 2.18885 80 151 124
0.819466 -0.558124 2.13951 125 169 156
-1.30278 -0.592075 2.28615 208 198 210
0.246627 -0.557674 2.16882 89 151 133
-1.20182 -0.582223 2.2743 111 162 158
0.214703 -0.555476 2.17117 56 119 103
0.436922 -0.550692 2.16358 88 159 143
0.216895 -0.54854 2.16939 73 139 114
-1.15578 -0.565053 2.25921 244 255 255
0.671052 -0.534791 2.15344 81 154 144
-1.16504 -0.553244 2.26856 141 155 161
-0.605276 -0.542541 2.22635 92 161 150
-0.111127 -0.534741 2.19013 103 162 148
0.809683 -0.524279 2.14524 80 127 119
-1.25791 -0.551453 2.27869 133 151 168
-1.25936 -0.551429 2.27928 111 123 147
1.1676 -0.513522 2.10784 116 163 117
0.22591 -0.521877 2.17344 93 144 130
0.315375 -0.519846 2.17061 75 137 123
0.679515 -0.514194 2.15694 78 150 130
0.807248 -0.513107 2.14756 74 130 117
1.15801 -0.506128 2.11349 107 168 142
-0.330599 -0.517908 2.20285 88 151 125
-1.26222 -0.529557 2.27798 131 129 159
-1.19212 -0.524577 2.26852 123 149 143
0.688961 -0.501351 2.15767 75 140 124
-0.00663437 -0.504247 2.19103 61 114 111
0.648935 -0.497683 2.1565 134 203 170
0.639043 -0.495851 2.16042 109 181 158
0.67135 -0.495184 2.15896 78 138 120
-0.236482 -0.496549 2.2016 88 150 128
-0.168804 -0.489061 2.19846 86 146 138
-1.27022 -0.505149 2.28143 160 169 183
-0.386127 -0.485289 2.20887 74 120 101
0.883957 -0.474772 2.14578 91 149 138
1.12223 -0.463525 2.12573 139 201 161
0.366565 -0.467505 2.17819 70 125 116
0.993729 -0.460519 2.135 72 130 105
-0.0678563 -0.465373 2.20234 92 153 125
1.01012 -0.457707 2.13741 82 151 118
-0.987863 -0.476473 2.25256 108 163 146
0.786818 -0.458417 2.15732 72 126 109
-0.067298 -0.455537 2.1988 68 121 94
-0.457855 -0.457351 2.21634 75 137 123
0.885997 -0.443324 2.14784 74 142 119
-0.0668871 -0.440741 2.20109 47 115 98
0.40215 -0.437968 2.18153 62 131 118
-0.00875116 -0.436362 2.20109 176 215 207
0.639743 -0.431961 2.16914 85 151 139
0.356531 -0.427417 2.18256 85 143 149
0.903555 -0.424498 2.15178 127 208 161
0.735072 -0.424384 2.16674 64 125 105
0.752382 -0.42381 2.16394 42 99 78
0.854501 -0.416601 2.1549 99 141 124
-0.715627 -0.421804 2.23783 90 158 147
-1.11018 -0.423167 2.2631 98 143 126
0.71434 -0.406871 2.17024 72 144 121
0.839778 -0.404175 2.16089 79 145 126
0.609585 -0.400146 2.17546 75 109 99
0.72745 -0.400176 2.17055 70 130 112
0.978373 -0.39896 2.15124 150 218 183
-0.00272229 -0.397126 2.20417 82 144 126
-0.0130733 -0.390426 2.20564 253 255 254
0.478416 -0.379665 2.18586 92 145 136
0.805623 -0.379719 2.17068 64 119 102
-0.305238 -0.377906 2.21151 75 122 100
-0.527181 -0.379867 2.22581 94 156 144
0.267791 -0.373801 2.19353 84 144 133
0.844349 -0.367346 2.16773 60 116 97
0.326427 -0.368437 2.19242 83 140 132
0.652067 -0.367672 2.18132 73 136 110
0.787516 -0.367104 2.17308 83 136 123
1.01227 -0.365791 2.15828 79 140 126
-0.479542 -0.367299 2.22463 89 151 137
-0.0314638 -0.361836 2.20745 66 134 111
1.0797 -0.357017 2.15877 89 152 132
1.074 -0.356113 2.16041 71 127 116
-1.30485 -0.367952 2.27352 129 141 147
-0.0283333 -0.358135 2.20957 85 152 131
-0.0106901 -0.356699 2.20903 104 156 156
0.650907 -0.351381 2.18225 86 153 138
0.720525 -0.350992 2.17838 71 125 108
-0.478674 -0.354813 2.22455 81 153 140
0.786758 -0.341328 2.17997 94 152 127
0.82311 -0.341456 2.17662 75 133 109
-1.12478 -0.345554 2.26589 95 167 145
1.14304 -0.311097 2.01869 176 216 255
-0.0713981 -0.332013 2.21411 57 126 106
0.0427443 -0.326491 2.20785 184 227 255
-1.14145 -0.329731 2.26682 82 132 114
-0.0888077 -0.32382 2.21244 161 230 185
-0.0693954 -0.319376 2.21678 56 129 97
-0.0341103 -0.318286 2.2127 144 209 194
0.30478 -0.317321 2.19791 67 127 116
0.564427 -0.310599 2.19394 83 175 140
-1.19365 -0.317254 2.26965 83 158 144
0.682206 -0.309245 2.18956 84 150 121
0.083271 -0.305805 2.20221 65 93 80
-1.11583 -0.310905 2.26363 67 127 109
0.742197 -0.304063 2.18871 82 137 112
0.665551 -0.300519 2.19341 148 225 191
0.813044 -0.300134 2.1869 70 121 94
0.0239735 -0.300199 2.2123 58 108 108
0.600851 -0.298777 2.19571 77 139 121
0.670469 -0.298559 2.19193 78 137 109
1.01275 -0.29654 2.17962 80 151 131
-1.12308 -0.299052 2.26698 204 254 242
0.764514 -0.292396 2.1924 145 218 178
0.484566 -0.284863 2.19905 74 131 106
-0.298581 -0.280998 2.22434 78 126 128
0.612782 -0.276191 2.19778 88 155 128
-0.12242 -0.273009 2.22166 96 145 147
0.704172 -0.270948 2.19871 70 133 107
0.450579 -0.257031 2.20255 79 131 101
0.459449 -0.257247 2.20338 72 135 103
0.487794 -0.257279 2.19801 81 159 112
0.721544 -0.254854 2.20019 74 129 110
-1.2778 -0.257135 2.27011 248 254 255
-1.27052 -0.256242 2.26915 174 165 178
0.535929 -0.251018 2.20688 66 128 104
0.441086 -0.248779 2.20504 45 109 79
-0.601538 -0.247775 2.24489 96 158 158
0.335208 -0.244294 2.20867 90 155 134
0.961415 -0.243228 2.19188 89 147 118
1.11483 -0.227359 2.03352 174 205 255
0.396066 -0.239827 2.20822 98 152 135
0.492683 -0.241482 2.20512 59 147 117
0.964258 -0.239811 2.19195 81 146 114
0.474158 -0.237984 2.20618 139 226 182
0.23764 -0.234155 2.21332 59 118 103
0.972211 -0.23488 2.1932 153 214 170
-1.23603 -0.23336 2.26561 160 144 162
0.410477 -0.218658 2.21018 71 134 114
0.475235 -0.218174 2.20999 87 127 109
0.535948 -0.215277 2.20981 73 147 111
0.684789 -0.214617 2.21037 87 148 120
0.732414 -0.214573 2.21052 87 145 121
-0.0754295 -0.211979 2.22695 155 234 215
0.976149 -0.201913 2.07384 184 224 255
0.932617 -0.211298 2.20096 81 139 111
1.02922 -0.197158 2.05946 187 232 255
-1.21749 -0.208492 2.26838 163 154 157
-1.28445 -0.202867 2.27598 143 134 160
-1.21809 -0.196804 2.27103 97 105 105
1.08838 -0.182127 2.04621 89 119 198
-0.440971 -0.190863 2.23883 84 145 141
0.932894 -0.19173 2.20672 147 214 182
0.944001 -0.182633 2.08125 69 62 147
0.256831 -0.187914 2.22147 101 146 137
-0.430207 -0.184388 2.23829 82 141 133
0.563503 -0.183466 2.21648 46 102 81
0.914093 -0.184386 2.20801 73 135 111
-1.29726 -0.184968 2.26947 161 158 180
0.921573 -0.183277 2.20832 138 207 170
0.512505 -0.177463 2.21801 123 205 162
1.09072 -0.167166 2.051 121 158 232
-0.54578 -0.170153 2.2429 112 170 152
0.459373 -0.17002 2.21815 70 122 105
0.618915 -0.168895 2.22029 51 105 76
0.632962 -0.169302 2.21594 71 118 86
0.139103 -0.166733 2.22618 79 139 131
0.923583 -0.167687 2.21055 206 187 142
0.293644 -0.165989 2.22246 47 121 95
0.925117 -0.166841 2.21266 208 176 127
0.635007 -0.163262 2.21977 122 194 152
0.308377 -0.159804 2.22372 80 147 132
0.356959 -0.159463 2.21983 71 124 115
-0.0755216 -0.157713 2.23903 37 111 99
0.140265 -0.157791 2.22781 89 143 144
0.31578 -0.158609 2.22261 72 138 126
-0.522334 -0.156269 2.24087 85 130 114
0.117585 -0.156193 2.22616 81 141 141
0.352636 -0.156861 2.22287 168 226 215
0.0197198 -0.154895 2.23378 73 137 142
0.46208 -0.153934 2.22296 61 129 104
0.895671 -0.15254 2.21827 150 226 195
0.304925 -0.147585 2.22521 42 104 74
0.127746 -0.143489 2.23056 87 136 122
0.128062 -0.143999 2.22914 84 133 119
0.625098 -0.145466 2.22514 44 88 75
0.262603 -0.142331 2.23138 167 224 221
0.122299 -0.138267 2.22821 77 117 105
0.313155 -0.138965 2.22749 88 157 142
0.502146 -0.138711 2.2243 61 106 90
0.29783 -0.136219 2.22571 49 122 90
0.498813 -0.137224 2.22704 119 188 167
0.128153 -0.13316 2.23042 70 137 122
0.531699 -0.133392 2.22524 150 240 187
0.859658 -0.124922 2.22366 63 131 106
0.492015 -0.121933 2.2327 68 142 116
0.580749 -0.120911 2.23008 62 129 97
-0.828184 -0.119129 2.26119 109 163 163
0.311935 -0.118347 2.22468 56 104 86
0.607386 -0.118637 2.23201 89 148 127
1.07507 -0.111542 2.07555 205 234 255
0.412536 -0.110751 2.23284 73 129 106
0.445787 -0.110273 2.23352 69 129 111
0.644699 -0.109916 2.23239 91 158 129
0.279143 -0.106847 2.23377 91 143 126
0.570798 -0.108358 2.23271 82 151 124
0.337552 -0.102653 2.23393 73 131 113
0.515396 -0.103536 2.23487 146 225 192
0.298807 -0.0947825 2.23488 64 122 104
0.321402 -0.0905876 2.23589 41 109 92
0.864812 -0.0873193 2.10963 63 82 173
0.849398 -0.0621527 2.11428 219 242 255
0.478686 -0.0515431 2.24718 79 137 113
0.276963 -0.039009 2.24854 95 166 149
0.608648 -0.0405068 2.24807 128 158 163
0.255209 -0.0343911 2.24645 63 131 106
-0.215876 -0.0319896 2.25611 107 164 156
0.327131 -0.033331 2.25021 69 126 111
-0.323101 -0.030393 2.25515 103 161 150
0.284909 -0.0303367 2.24897 88 156 139
0.442353 -0.0304733 2.2508 147 220 194
0.782839 -0.0265496 2.2511 142 206 184
0.280638 -0.0213169 2.25082 75 134 119
0.764742 -0.0213914 2.25051 67 133 98
0.450884 -0.0137782 2.2562 97 152 133
-0.334921 -0.003118 2.25905 233 251 250
0.485227 -0.00152635 2.25812 66 141 109
0.606533 -0.000961175 2.25856 109 159 157
0.821688 0.00204892 2.12599 208 245 255
-0.328431 0.00685271 2.26021 94 146 122
-0.04925 0.0193202 2.26497 77 151 155
0.64235 0.0201983 2.26214 73 144 127
0.753942 0.0265237 2.1431 218 251 255
0.658823 0.0306546 2.26429 79 147 124
0.730521 0.0310551 2.26483 134 211 174
0.755103 0.032769 2.14539 56 59 144
0.748121 0.0388296 2.1443 54 62 163
0.778336 0.0434828 2.14009 85 76 149
0.804915 0.0546122 2.1357 211 239 255
-0.558535 0.0726004 2.27595 136 156 174
-0.72083 0.0722892 2.277 72 141 121
0.207854 0.0865885 2.27261 194 240 228
0.810675 0.0841611 2.13567 218 249 255
-0.499306 0.103489 2.27766 111 121 121
0.778075 0.0975813 2.14672 202 226 255
0.789092 0.109223 2.14576 222 246 255
0.671369 0.11162 2.17044 65 79 161
-0.587924 0.123043 2.28213 124 158 148
0.035366 0.122835 2.278 63 143 126
0.316131 0.121118 2.28154 62 118 95
0.289432 0.124689 2.28388 71 147 136
0.660727 0.119841 2.1723 193 212 245
0.665453 0.119104 2.17246 56 63 136
0.642841 0.126865 2.28882 144 227 172
0.666729 0.11998 2.17403 54 60 137
0.679767 0.120748 2.16631 66 55 117
0.659113 0.123723 2.17299 54 56 120
0.663107 0.12223 2.16974 218 238 255
0.654916 0.125473 2.17256 222 246 255
-0.5184 0.135377 2.28406 123 144 136
0.637303 0.135439 2.29295 167 236 199
0.457529 0.13784 2.28743 197 237 232
0.64991 0.132122 2.17539 221 247 255
0.64778 0.136515 2.17613 55 79 137
0.273563 0.151094 2.28665 73 143 126
0.642156 0.141412 2.17791 82 81 153
0.647488 0.141064 2.17686 221 237 255
-0.535888 0.164364 2.26824 111 128 119
0.315385 0.168219 2.29155 90 136 123
0.139819 0.173433 2.28805 98 158 148
0.239869 0.184583 2.29406 96 158 140
0.727598 0.176412 2.16188 218 246 255
0.706136 0.17828 2.16586 223 247 255
1.10695 0.191711 2.3109 52 109 88
0.0207085 0.217496 2.29854 97 159 159
0.0732916 0.216408 2.29723 78 138 138
0.16445 0.224899 2.29837 87 148 138
0.742499 0.210425 2.16271 53 76 151
0.618953 0.233502 2.19022 199 225 255
0.238338 0.250535 2.30658 73 138 122
0.42142 0.253565 2.31561 74 139 114
0.33861 0.265623 2.31292 231 249 250
0.506401 0.278986 2.32592 223 234 201
-0.846 0.283492 2.30536 107 168 158
-0.845119 0.282891 2.30423 113 174 164
0.133488 0.288199 2.31241 64 135 115
-1.25506 -0.920656 2.2949 109 149 154
-1.06324 -0.893191 2.26898 96 118 124
-0.658902 -0.872344 2.2166 78 114 92
-0.58358 -0.867781 2.21173 72 130 119
-1.14861 -0.889679 2.27382 108 148 167
-0.95384 -0.882608 2.25105 112 129 148
0.91085 -0.806691 2.08935 90 143 123
1.00337 -0.803018 2.07451 62 113 93
-0.47396 -0.840969 2.19854 95 140 144
-1.1642 -0.871944 2.2807 108 128 146
-1.09501 -0.853294 2.27173 183 235 228
0.997888 -0.788303 2.08817 82 131 111
-0.520102 -0.81537 2.20282 144 211 190
-1.21183 -0.840391 2.28367 110 124 146
0.177732 -0.786353 2.14447 100 157 132
0.724091 -0.774585 2.11389 55 89 83
-0.700502 -0.808522 2.22919 101 149 137
0.140264 -0.779199 2.14936 82 145 125
0.826016 -0.764384 2.10569 91 147 134
-0.83473 -0.809495 2.24731 86 145 137
-0.512707 -0.794868 2.20654 146 198 181
-0.489691 -0.790422 2.203 76 109 94
-0.292555 -0.784042 2.18718 72 123 103
0.992005 -0.748493 2.09043 129 194 148
0.295467 -0.759134 2.13981 91 144 131
0.988739 -0.733746 2.09607 96 143 127
-0.548058 -0.759484 2.20959 58 104 85
0.753955 -0.729157 2.11678 59 124 103
-0.57101 -0.755088 2.21258 76 131 114
-0.485294 -0.753753 2.20773 77 139 121
-0.819704 -0.761468 2.24717 89 142 132
-0.269747 -0.740562 2.18836 71 120 100
0.165139 -0.72534 2.15306 74 134 104
0.954973 -0.710315 2.1032 89 108 111
-1.26125 -0.76544 2.29208 255 255 255
-1.01692 -0.746527 2.25272 84 116 129
0.309884 -0.711128 2.14408 85 127 110
-0.900907 -0.733841 2.23538 213 253 241
0.0803257 -0.708605 2.16313 88 131 116
0.193827 -0.706128 2.14942 77 103 80
0.941708 -0.694215 2.1039 97 140 129
0.233303 -0.699105 2.15205 73 121 103
-1.12001 -0.72819 2.26351 197 227 216
-1.02303 -0.725716 2.25098 83 111 105
-0.999691 -0.727407 2.26222 152 206 201
-1.14931 -0.730265 2.27832 60 95 98
0.262536 -0.687385 2.14899 135 201 160
0.67801 -0.675345 2.13032 52 102 84
1.03492 -0.662347 2.1052 163 221 210
-1.10966 -0.703421 2.2673 50 60 54
1.04024 -0.657959 2.10787 109 153 147
0.201251 -0.663101 2.15471 111 168 143
-1.07026 -0.692213 2.26748 59 106 98
0.695285 -0.652631 2.13588 61 124 98
-1.05546 -0.686413 2.26781 87 131 124
-0.50631 -0.667571 2.21388 101 154 145
-0.871663 -0.669766 2.24251 68 96 90
0.45607 -0.622987 2.15046 57 90 75
1.14015 -0.610405 2.09361 70 113 102
0.290313 -0.617181 2.15771 140 212 189
0.877022 -0.612877 2.12395 110 154 123
0.969252 -0.611448 2.11616 72 131 100
0.166359 -0.618597 2.16442 64 129 104
0.288061 -0.602187 2.16011 152 227 199
1.15501 -0.590691 2.09785 159 207 181
0.114644 -0.601006 2.16989 83 138 119
1.01013 -0.588145 2.11599 74 125 98
0.173705 -0.583198 2.1656 118 196 155
0.55523 -0.569312 2.15793 79 135 116
1.00306 -0.563978 2.119 84 145 117
0.158571 -0.565667 2.17288 89 140 126
0.885992 -0.558301 2.12981 83 129 110
-0.109262 -0.566305 2.18962 95 170 142
0.885476 -0.550655 2.13213 60 120 90
0.444221 -0.547991 2.16239 99 166 159
-0.11198 -0.54509 2.19279 75 133 109
0.84274 -0.536198 2.14141 68 122 109
-1.16388 -0.553721 2.26615 135 152 155
0.809529 -0.52424 2.14553 79 126 118
0.466459 -0.5231 2.16569 64 123 95
0.85846 -0.517258 2.14062 87 139 122
1.15658 -0.512189 2.11409 51 111 87
1.15899 -0.505479 2.11659 116 173 148
-1.05518 -0.531029 2.25828 69 96 80
-1.09106 -0.528144 2.26196 81 133 116
-1.19109 -0.528652 2.26926 244 249 248
-1.19375 -0.523787 2.2722 124 154 149
-0.497088 -0.504068 2.21415 77 148 128
0.514959 -0.488703 2.16695 68 141 119
0.920485 -0.470333 2.14008 68 140 104
0.365356 -0.46541 2.17426 85 129 128
-0.98775 -0.47619 2.25359 102 163 149
0.658626 -0.438892 2.16538 79 151 128
0.602107 -0.433591 2.17227 88 160 137
0.608614 -0.433659 2.17141 73 148 120
0.661033 -0.425855 2.1626 83 134 106
0.979421 -0.420096 2.14575 79 146 109
1.0471 -0.389521 2.15301 76 134 129
0.793669 -0.386636 2.1684 64 105 97
1.05653 -0.382649 2.15147 59 94 80
0.804577 -0.382133 2.17035 74 119 103
-1.27846 -0.389468 2.27208 92 100 113
-0.527181 -0.379867 2.22581 94 156 144
-1.25596 -0.383991 2.27374 104 146 135
1.14245 -0.342864 2.01663 162 184 236
1.03171 -0.364595 2.15951 101 139 143
0.648836 -0.361715 2.1793 151 219 196
0.661797 -0.358498 2.18077 68 124 103
1.03917 -0.354237 2.16079 76 132 121
1.13209 -0.331484 2.01957 173 214 255
1.07002 -0.350541 2.16142 125 197 174
1.12035 -0.327153 2.02332 98 94 170
1.0897 -0.322793 2.03441 93 97 176
1.11487 -0.321163 2.02564 87 103 179
1.14273 -0.31113 2.01869 178 213 255
0.710433 -0.327102 2.18724 73 131 107
1.09839 -0.302872 2.03031 95 111 188
-0.0121365 -0.319037 2.21336 70 129 131
1.02917 -0.304465 2.17524 130 204 170
0.0850288 -0.302486 2.20689 64 108 95
1.12303 -0.28044 2.02719 83 98 167
0.600869 -0.298912 2.19524 79 139 121
0.27271 -0.293786 2.20401 66 109 100
0.788692 -0.288634 2.18611 63 123 92
1.03295 -0.273696 2.05111 89 108 183
1.07919 -0.271254 2.03974 184 221 255
0.485153 -0.284595 2.19976 67 124 103
0.77158 -0.285715 2.19289 75 130 103
1.12689 -0.267104 2.02734 79 86 165
1.03508 -0.26897 2.05339 183 222 255
0.709871 -0.27995 2.19762 38 95 70
0.718557 -0.275109 2.19847 66 120 97
0.499775 -0.267538 2.19952 77 133 104
0.48667 -0.260129 2.19728 45 125 88
0.656162 -0.250876 2.20247 77 137 96
0.686678 -0.249237 2.20183 154 239 194
1.10375 -0.233285 2.03515 93 100 180
0.681666 -0.246428 2.1995 50 107 86
0.395515 -0.240801 2.20539 96 139 128
1.13845 -0.222594 2.03196 124 145 227
0.476396 -0.229127 2.20679 59 113 96
0.96073 -0.22559 2.19618 164 225 197
0.961067 -0.221153 2.19603 87 120 105
0.576803 -0.215761 2.20958 148 232 197
0.955429 -0.21811 2.19318 107 176 139
0.732272 -0.214969 2.20933 86 144 120
0.455964 -0.208822 2.21045 120 191 151
1.04262 -0.196107 2.05587 187 232 255
1.09792 -0.195022 2.04086 98 100 188
0.963641 -0.197116 2.07648 76 79 154
0.983308 -0.19473 2.07112 178 226 255
0.574646 -0.20309 2.21419 71 138 107
0.611738 -0.202972 2.21351 166 222 209
1.0382 -0.189724 2.0586 200 236 255
0.945257 -0.186388 2.08104 202 239 255
1.05777 -0.184359 2.04903 94 112 189
0.0882645 -0.191658 2.22408 81 139 138
1.05306 -0.18115 2.053 86 86 176
0.504884 -0.186076 2.21455 144 219 187
0.287881 -0.182377 2.22186 100 162 144
0.914429 -0.184159 2.2086 71 134 114
1.07169 -0.164277 2.05138 99 112 198
0.520536 -0.169747 2.21929 54 112 83
0.924498 -0.166946 2.21251 195 169 122
0.973285 -0.154401 2.07892 89 100 198
0.140247 -0.157522 2.22854 89 143 144
0.522622 -0.15986 2.2191 148 221 189
0.895364 -0.152106 2.21961 134 214 183
1.0697 -0.142834 2.05858 106 139 219
0.406793 -0.143747 2.226 90 152 134
1.05906 -0.130704 2.06154 109 130 212
0.538357 -0.136718 2.22561 76 119 92
1.02852 -0.120121 2.06616 211 235 255
0.495429 -0.124613 2.22652 134 220 186
1.04863 -0.118405 2.06575 95 127 210
1.0753 -0.111428 2.07579 205 234 255
0.412298 -0.112084 2.23291 77 133 110
0.550556 -0.106052 2.23376 59 116 85
1.02679 -0.0934129 2.07389 107 124 217
0.93059 -0.0880733 2.09789 176 215 253
0.433997 -0.0892463 2.23994 95 154 139
1.08787 -0.0854341 2.09027 99 109 193
0.91701 -0.0722156 2.09694 86 86 156
1.07736 -0.072202 2.09549 98 103 188
0.836392 -0.0633653 2.11804 203 232 255
0.849756 -0.0614901 2.11584 206 223 255
0.413882 -0.0526953 2.24697 76 111 91
0.804109 -0.0331041 2.1282 71 86 179
0.200764 -0.0301088 2.24787 87 157 144
0.862567 -0.0265522 2.11336 210 244 255
0.764683 -0.0212161 2.25096 67 133 98
0.79134 -0.0128675 2.13211 88 74 145
0.91898 -0.0141531 2.1028 86 91 176
0.477214 -0.00412988 2.259 77 144 113
0.802741 -0.00202728 2.13015 67 77 155
0.814486 0.000395725 2.12495 63 55 142
0.821669 0.00199178 2.12587 208 245 255
0.753724 0.0265745 2.14325 218 251 255
0.39284 0.0388465 2.26651 96 142 123
0.724261 0.0364517 2.26684 131 198 169
-0.536617 0.042064 2.26597 112 148 164
0.256876 0.0413607 2.26358 62 136 110
0.789274 0.0397306 2.13647 211 241 255
0.794919 0.041015 2.13026 64 85 166
0.777287 0.0435534 2.13974 73 60 140
0.752834 0.0486488 2.14738 214 244 255
-0.56833 0.0572792 2.27307 82 119 117
0.739988 0.0529545 2.15079 51 54 128
0.746735 0.0550841 2.14582 209 242 255
0.785509 0.0525325 2.13894 39 49 126
0.805427 0.0546935 2.13578 214 246 255
0.812431 0.0560151 2.13199 73 74 162
0.787568 0.0610268 2.13949 225 247 255
0.81437 0.0688938 2.13182 71 80 160
0.777066 0.0971763 2.14606 206 225 255
-0.195153 0.11869 2.28168 111 178 179
-0.529572 0.122806 2.28099 119 129 123
0.666712 0.11306 2.17082 222 252 255
0.300374 0.126876 2.28201 81 134 121
0.678588 0.121141 2.17049 98 101 139
0.796629 0.117105 2.14195 216 251 255
0.666128 0.119409 2.17296 68 71 146
0.713781 0.121213 2.16338 61 81 158
0.65539 0.126102 2.17376 228 247 255
0.453344 0.137187 2.28792 186 240 235
0.649685 0.131952 2.17509 214 245 255
0.0601842 0.147808 2.28418 78 144 133
-0.560516 0.157048 2.28588 94 118 116
0.666748 0.144545 2.17364 52 72 143
0.737991 0.156851 2.15726 71 65 146
0.30297 0.171318 2.29065 64 105 97
0.744867 0.158858 2.15716 225 246 255
0.699947 0.165028 2.16562 70 69 137
0.775447 0.166687 2.15175 216 239 255
0.686662 0.170781 2.16807 220 249 255
0.708051 0.172347 2.16602 74 63 149
0.652807 0.177396 2.18055 58 80 151
0.727675 0.176706 2.16244 218 246 255
0.665972 0.180046 2.17859 72 83 141
0.63944 0.187676 2.18242 76 100 182
0.249997 0.200804 2.29591 53 105 87
0.617299 0.194467 2.18661 210 241 255
0.647564 0.196156 2.18276 63 85 163
0.848373 0.198412 2.17753 208 247 255
0.631111 0.209714 2.18874 192 218 254
0.693586 0.206012 2.1703 74 80 151
0.590502 0.214974 2.19543 219 244 255
0.733103 0.21697 2.165 224 247 255
0.629992 0.224972 2.18338 43 59 135
0.662677 0.223816 2.17883 53 63 140
0.285111 0.240418 2.30505 60 126 101
0.574556 0.230773 2.19939 93 112 169
0.835485 0.238179 2.19276 70 70 146
0.340459 0.27217 2.31719 235 253 252
0.133367 0.288152 2.31234 64 135 115
0.256477 0.31203 2.32373 68 125 110
0.19969 -0.830832 2.14233 87 147 129
0.952114 -0.810745 2.0769 99 96 118
-0.460022 -0.851379 2.19913 133 201 176
0.442368 -0.823645 2.13364 96 149 129
0.986335 -0.805765 2.0824 169 205 191
-0.959075 -0.862089 2.24823 113 125 135
-0.47378 -0.840939 2.19871 95 140 144
-0.40089 -0.83159 2.18938 77 135 111
0.972544 -0.798116 2.08229 198 224 218
-0.542908 -0.830434 2.21238 99 140 133
-0.582889 -0.826627 2.21123 61 87 71
0.933107 -0.78561 2.08805 98 129 120
0.255744 -0.795233 2.14568 99 163 141
-0.631496 -0.824766 2.22471 76 115 90
0.957374 -0.772067 2.08863 90 144 121
-0.5976 -0.798901 2.21593 88 122 111
0.896145 -0.762301 2.09777 150 202 172
-0.481935 -0.785602 2.20198 140 210 169
-0.0434316 -0.776904 2.17357 74 127 113
0.215808 -0.756294 2.14402 76 131 106
-1.10505 -0.795998 2.26661 96 108 114
0.253094 -0.748927 2.14021 156 236 201
-0.101903 -0.758103 2.17376 62 102 90
-0.122829 -0.753547 2.17382 88 142 135
-0.606126 -0.760583 2.21673 86 122 116
-0.727162 -0.760973 2.23124 80 129 113
-0.82094 -0.761067 2.25089 91 152 142
-0.269073 -0.740314 2.18986 79 137 119
-0.630994 -0.748242 2.21898 82 114 103
0.664256 -0.720828 2.12645 79 157 134
-1.10729 -0.751002 2.26294 77 81 82
0.145006 -0.718334 2.15784 59 103 86
0.894554 -0.702926 2.10893 188 223 213
0.912351 -0.705531 2.10618 144 207 175
-0.689039 -0.731207 2.22706 86 116 103
-1.15811 -0.745605 2.27329 173 210 202
-1.14136 -0.740154 2.27099 174 213 211
-1.16542 -0.737805 2.27851 56 89 82
-1.11901 -0.729167 2.26436 175 209 199
-1.0241 -0.723687 2.25023 83 112 103
-1.14938 -0.730196 2.27879 60 91 94
-1.02817 -0.722713 2.25847 59 86 82
0.29431 -0.685627 2.1445 136 223 190
-0.970457 -0.700143 2.25666 55 69 67
-0.848442 -0.664478 2.24471 96 125 116
-0.877459 -0.655073 2.24389 60 79 76
-0.896058 -0.65347 2.24991 58 64 53
0.456627 -0.621962 2.15269 56 94 82
0.847595 -0.605414 2.12367 99 145 122
0.890978 -0.603924 2.12041 52 102 72
0.922615 -0.605325 2.12083 63 120 99
0.288004 -0.602189 2.16013 150 224 196
-0.352442 -0.609025 2.20104 74 135 115
0.210072 -0.596362 2.16784 102 138 121
-1.14414 -0.581547 2.2649 132 172 160
0.444546 -0.547832 2.16308 99 166 159
-0.0509117 -0.54319 2.19416 48 111 91
-1.0759 -0.55744 2.26545 100 149 133
-1.26339 -0.55399 2.28641 119 130 150
0.0177514 -0.528554 2.18878 84 151 152
0.468129 -0.520353 2.15925 87 138 111
1.1689 -0.515476 2.11047 110 167 122
0.177732 -0.514948 2.17611 65 128 112
-0.332229 -0.518298 2.20365 69 126 105
1.15883 -0.505479 2.11667 119 176 151
-0.0459684 -0.514436 2.19447 68 124 111
0.655653 -0.500859 2.15795 69 120 106
-1.02646 -0.513484 2.25709 70 99 76
0.767011 -0.490585 2.15031 61 109 91
-0.232849 -0.49085 2.2002 84 142 118
-1.14181 -0.440828 2.26439 112 170 152
0.659362 -0.418668 2.16072 65 117 94
0.904939 -0.418573 2.14883 80 137 112
0.601721 -0.41725 2.17209 64 132 97
0.227996 -0.418863 2.18529 111 185 159
0.810617 -0.391028 2.16363 83 133 109
0.772136 -0.376964 2.17002 47 103 92
1.10333 -0.354684 2.02825 98 100 184
-0.291173 -0.373632 2.21452 80 141 115
-0.111873 -0.367448 2.21124 63 131 120
0.646278 -0.366358 2.18513 78 134 111
-0.0294988 -0.358757 2.20909 87 155 132
-0.0479847 -0.330476 2.21924 79 143 131
0.0466009 -0.324069 2.20503 186 224 254
0.549734 -0.31493 2.19674 64 131 110
1.06934 -0.299109 2.04304 89 98 188
-0.571864 -0.316857 2.23383 255 255 255
0.0685175 -0.309703 2.20793 55 88 74
0.514605 -0.307052 2.19527 62 126 90
-0.0961204 -0.30779 2.21917 78 154 120
0.0843174 -0.304687 2.21049 82 121 106
0.473873 -0.306143 2.19802 65 122 101
1.00444 -0.305156 2.17683 76 142 117
1.05249 -0.278357 2.04713 95 112 191
1.02944 -0.27107 2.05722 83 83 173
1.11957 -0.261676 2.02581 113 106 181
0.48649 -0.2604 2.19647 54 127 89
0.662232 -0.258467 2.19703 87 126 110
1.10769 -0.230647 2.03836 67 105 193
1.10739 -0.230965 2.03747 72 96 180
0.96347 -0.240607 2.19199 72 138 103
0.238327 -0.234649 2.2185 59 118 103
0.563584 -0.223197 2.20929 56 117 89
0.494837 -0.212346 2.20758 103 197 150
0.577954 -0.214767 2.21228 140 219 186
-0.0745697 -0.21051 2.23419 140 215 194
0.283357 -0.209281 2.2163 64 129 108
0.624563 -0.190688 2.21381 64 128 93
0.511782 -0.186642 2.21101 78 135 102
0.67191 -0.180424 2.22025 90 144 107
0.963876 -0.164543 2.08083 76 83 180
0.139273 -0.166073 2.22571 79 139 131
-0.546793 -0.162354 2.24704 55 110 95
0.536064 -0.163088 2.2172 147 211 175
0.918927 -0.162622 2.22013 44 46 40
0.632924 -0.157616 2.21986 64 106 83
-0.534305 -0.152777 2.2472 93 142 128
0.382602 -0.149083 2.22293 67 122 105
0.607914 -0.148341 2.22427 64 105 78
0.530088 -0.143406 2.22561 37 69 50
0.311309 -0.118304 2.22529 66 116 98
0.257555 -0.11026 2.23317 70 123 113
0.858265 -0.112947 2.2293 158 224 195
0.529384 -0.0996632 2.23709 70 130 96
0.512105 -0.0778722 2.23899 64 106 88
0.497179 -0.0636385 2.24312 48 109 83
0.51353 -0.0370994 2.24456 255 255 254
0.794279 -0.0014572 2.12584 207 250 255
0.793279 -0.00270586 2.12317 187 232 255
0.815244 0.00142511 2.12717 63 96 176
0.940053 0.00727151 2.10582 88 111 197
0.806262 0.0138755 2.13477 59 83 171
0.392721 0.0379322 2.26447 98 150 127
0.782093 0.0372342 2.13726 66 64 134
0.75086 0.0420649 2.15147 41 73 156
0.754977 0.0499763 2.14987 213 249 255
-0.5683 0.0825129 2.27692 86 103 100
-0.497741 0.102491 2.27538 106 121 123
-0.584146 0.113883 2.27881 77 99 87
