ply
format ascii 1.0
element vertex 1286
property float x
property float y
property float z
property uchar blue
property uchar green
property uchar red
end_header
-0.621676 -1.59285 3.74187 156 225 214
0.804018 -1.51872 3.62612 172 234 220
-0.689264 -1.56134 3.73345 101 161 143
-0.650182 -1.562 3.73295 66 102 96
0.834276 -1.49875 3.62064 136 196 178
-0.103847 -1.47944 3.68869 114 146 135
0.853712 -1.39381 3.61869 172 221 199
0.842659 -1.36881 3.59563 86 101 87
0.835787 -1.36996 3.60512 166 219 209
1.98018 -1.30791 3.49572 175 241 212
0.786154 -1.32996 3.60652 121 189 164
0.899769 -1.28299 3.47822 106 135 119
1.53669 -1.43115 3.88105 119 171 154
0.750455 -1.31343 3.6204 144 193 179
1.82886 -1.2608 3.50761 185 241 220
0.668187 -1.23391 3.61629 141 202 192
0.882771 -1.13341 3.33197 167 237 197
1.79327 -1.18203 3.51262 182 222 227
0.650966 -1.17147 3.60186 187 223 233
0.261141 -1.16491 3.63669 77 127 115
-0.709333 -1.17739 3.73697 86 130 123
-0.123795 -1.13407 3.69874 81 125 112
0.877105 -0.991514 3.37833 133 150 116
-0.29542 -1.04519 3.71937 92 149 128
-0.122794 -0.943589 3.68442 159 211 181
0.521026 -0.914266 3.61612 163 220 212
0.801195 -0.861594 3.40611 161 203 172
-1.72799 -0.939322 3.85165 88 125 121
-0.426236 -0.871978 3.72157 159 218 210
1.21506 -0.711558 3.31749 160 195 168
-0.0746387 -0.683751 3.67767 170 236 217
-0.0742966 -0.683131 3.68508 158 227 207
0.454052 -0.613672 3.61855 81 143 127
-0.814761 -0.618931 3.73869 57 105 76
1.06559 -0.527743 3.29287 42 65 57
0.726772 -0.519666 3.2726 58 99 62
0.989506 -0.472249 3.29968 152 224 178
0.396626 -0.504755 3.60893 86 128 133
0.449053 -0.412141 3.60055 70 112 105
1.04035 -0.34918 3.39271 47 90 79
0.827295 -0.277317 3.46434 41 51 39
0.667637 -0.223546 3.52825 159 219 179
1.25453 -0.107039 3.42015 172 249 215
1.10245 -0.0454266 3.40386 24 40 17
0.89913 -0.022594 3.41974 21 90 63
0.542083 -0.0192137 3.56027 175 204 209
0.521837 -0.00532334 3.5566 168 184 183
0.789691 0.0470989 3.4222 53 80 54
1.33582 0.0471651 3.30638 181 216 189
1.10309 0.0535318 3.36564 109 139 110
0.702617 0.0898464 3.47177 53 84 69
0.843051 0.121538 3.78098 135 188 155
0.504704 0.117834 3.56937 182 214 213
0.789848 0.120316 3.41996 132 208 176
0.720719 0.125595 3.46386 141 206 181
0.657798 0.126512 3.49057 39 49 37
1.18274 0.128228 3.33202 146 179 144
1.19188 0.12744 3.32842 163 226 186
0.711827 0.190523 3.45331 177 237 206
0.61637 0.288784 3.49329 166 228 206
0.680653 0.346332 3.48667 75 148 122
0.882167 0.38364 3.43738 38 73 53
0.71519 0.386724 3.46201 165 227 205
0.649987 0.398198 3.47941 180 238 220
0.365639 -1.89809 3.64931 153 227 199
0.117024 -1.90639 3.68183 74 101 85
0.11448 -1.89335 3.68113 154 206 188
0.105126 -1.88307 3.68276 131 193 175
-0.483747 -1.89368 3.71636 113 160 152
-0.310727 -1.81635 3.70932 90 142 125
-0.336838 -1.81414 3.71886 95 145 133
0.931254 -1.76606 3.62222 155 196 188
0.918302 -1.75366 3.60327 110 143 136
0.289994 -1.78668 3.67923 165 244 225
0.391035 -1.77414 3.6621 110 160 156
0.921182 -1.75635 3.6162 96 132 126
0.277636 -1.77889 3.67011 63 91 85
-0.950031 -1.80896 3.74142 163 235 215
0.265342 -1.76025 3.67028 73 111 105
0.901642 -1.72774 3.60794 185 226 218
1.06335 -1.71948 3.61567 140 199 184
0.869321 -1.71333 3.61118 173 228 211
1.05205 -1.71506 3.61644 91 135 128
0.272934 -1.73428 3.66911 84 142 131
1.73566 -1.68541 3.56674 136 161 171
1.23823 -1.69667 3.59886 87 141 134
0.897303 -1.69884 3.61036 184 237 224
-0.774593 -1.7247 3.72809 76 106 101
0.73144 -1.68201 3.63579 181 239 228
0.880159 -1.67031 3.62367 187 239 229
0.606969 -1.6768 3.64412 70 112 105
1.01236 -1.65327 3.60131 87 127 126
1.20494 -1.65342 3.60641 71 131 123
-0.368023 -1.68323 3.71198 125 184 169
0.538922 -1.65551 3.65158 163 218 209
1.7464 -1.61415 3.5599 205 242 234
-0.43421 -1.67438 3.73426 109 128 136
0.524835 -1.6245 3.65542 98 135 125
1.07811 -1.59402 3.59798 157 210 200
1.01239 -1.59665 3.608 58 91 84
-1.03749 -1.65839 3.75413 84 153 132
-0.570717 -1.62437 3.72988 140 194 181
0.507119 -1.59036 3.64632 89 121 116
-0.726679 -1.62138 3.73448 77 109 104
1.14896 -1.56262 3.60019 128 189 175
0.524346 -1.5677 3.64122 75 128 118
-0.7536 -1.60484 3.73035 106 156 138
0.270468 -1.55336 3.65853 80 102 100
0.0920407 -1.55373 3.66491 97 156 142
0.269554 -1.55471 3.66773 95 126 125
-0.645721 -1.5597 3.71739 171 224 214
0.463836 -1.53226 3.64275 103 156 153
-0.651348 -1.56222 3.73452 87 115 109
0.836103 -1.49839 3.62005 131 194 178
1.66391 -1.46821 3.54449 61 147 129
-0.340902 -1.53337 3.72444 76 145 132
-0.685297 -1.53837 3.73271 110 177 156
0.800716 -1.48377 3.6208 69 101 96
0.630274 -1.48667 3.63689 98 134 128
0.824851 -1.47567 3.61178 103 163 153
-0.691466 -1.52633 3.74746 176 232 227
-0.991977 -1.53106 3.76575 103 154 146
0.517676 -1.45934 3.64238 98 153 144
-1.14648 -1.483 3.77842 108 152 153
1.65061 -1.38919 3.5423 75 119 113
-1.11355 -1.46166 3.76463 101 148 145
1.59122 -1.37416 3.52828 98 126 127
-0.249589 -1.43502 3.71512 95 148 138
0.232344 -1.41778 3.66672 88 158 145
-1.21237 -1.45501 3.7684 165 222 207
1.85667 -1.34947 3.50835 78 131 111
1.58493 -1.35527 3.53354 164 228 209
0.0692764 -1.39286 3.66464 194 235 220
-1.38954 -1.43728 3.79415 70 135 126
-0.102715 -1.3821 3.68917 82 137 120
-0.568117 -1.37159 3.74472 89 150 140
0.113787 -1.33491 3.65122 72 102 97
1.88638 -1.26273 3.50238 169 235 200
0.592775 -1.29179 3.61733 71 113 102
0.0537841 -1.30179 3.66808 91 128 108
1.33501 -1.19781 3.3802 134 183 167
-1.30871 -1.33146 3.78985 185 235 225
1.61633 -1.23384 3.50982 165 222 184
-0.371359 -1.29866 3.71317 83 131 125
-0.324087 -1.29281 3.71178 98 132 125
0.948642 -1.15577 3.32102 102 119 108
0.31433 -1.26377 3.65141 102 141 133
-0.0727168 -1.27268 3.68107 74 116 105
-0.419739 -1.28059 3.7157 89 132 117
-0.233454 -1.2793 3.70331 83 127 110
0.855446 -1.14879 3.33227 127 187 147
-0.293193 -1.2737 3.71712 181 238 229
-1.49703 -1.30013 3.79784 169 224 221
0.881437 -1.14344 3.33987 93 118 90
2.03009 -1.18587 3.47903 82 130 118
0.981845 -1.10907 3.2857 32 60 47
-0.336259 -1.25526 3.72792 186 233 230
-1.51319 -1.28261 3.80969 167 225 214
0.98308 -1.10922 3.29029 43 79 65
1.79323 -1.18203 3.51282 182 222 227
-1.51765 -1.27485 3.80497 91 139 140
0.666161 -1.20771 3.61671 159 208 206
-0.0519653 -1.21428 3.673 165 225 195
0.0108932 -1.20366 3.65147 64 100 88
0.47131 -1.1982 3.63843 85 127 116
-0.141144 -1.21707 3.69617 159 232 210
0.689811 -1.18226 3.60075 90 126 109
-1.94654 -1.25089 3.82234 92 159 152
0.208328 -1.19261 3.66131 183 242 227
0.26761 -1.18496 3.65653 92 142 130
-0.0824115 -1.19143 3.68057 78 130 107
0.173905 -1.18117 3.65138 136 213 185
0.189199 -1.18391 3.65458 37 78 57
1.31328 -1.09998 3.39626 49 76 56
0.684102 -1.15986 3.59527 60 91 88
0.26127 -1.16492 3.63684 79 132 118
0.254866 -1.14784 3.63177 122 156 139
0.654203 -1.13341 3.5896 175 219 182
1.58559 -1.08632 3.43699 130 165 155
-0.709038 -1.17744 3.7378 91 142 135
0.706518 -1.1271 3.57777 135 205 165
1.09425 -1.04725 3.32357 167 227 193
1.81213 -1.09553 3.49514 83 119 105
0.933491 -1.02663 3.30774 56 75 56
-0.532572 -1.15439 3.73368 90 142 124
1.2863 -1.03804 3.36539 52 75 61
0.935885 -1.01694 3.30227 172 220 196
0.489667 -1.11166 3.62943 55 92 88
-1.36872 -1.15953 3.79441 98 138 127
-0.0270589 -1.11871 3.65417 159 241 206
-0.395464 -1.13485 3.72806 85 145 137
-0.0273874 -1.11876 3.67179 163 223 193
-1.02494 -1.13654 3.77077 96 146 134
0.189319 -1.08105 3.65968 82 156 132
1.07686 -0.980533 3.32586 132 180 152
0.0184963 -1.07817 3.67271 149 197 185
0.256131 -1.06405 3.65863 52 112 102
0.223989 -1.06625 3.66913 59 98 83
1.49204 -0.986808 3.44378 169 233 198
0.554809 -1.02923 3.62272 177 237 226
0.941248 -0.945496 3.36841 167 212 185
0.454643 -1.01757 3.63542 81 145 140
0.482233 -1.00805 3.63029 106 157 153
-2.24405 -1.06813 3.86342 75 92 78
0.85116 -0.93248 3.41105 129 146 125
0.665988 -0.964317 3.54235 159 190 151
-0.469521 -1.0082 3.72147 100 147 144
-0.0088007 -0.960837 3.63491 128 193 168
0.66779 -0.935499 3.5323 59 69 57
0.642684 -0.921513 3.53278 33 58 44
-0.587398 -0.970855 3.73703 66 101 91
0.438342 -0.934563 3.62387 64 107 104
1.06843 -0.850167 3.29056 45 115 74
0.0325283 -0.93247 3.61187 150 229 188
0.151209 -0.939265 3.64476 52 81 65
-0.360355 -0.95235 3.71245 76 129 116
-0.1227 -0.94362 3.68239 156 212 183
0.431267 -0.927619 3.6266 175 233 215
0.347277 -0.925657 3.64268 82 130 124
0.517106 -0.923981 3.63094 90 136 130
0.296692 -0.924613 3.64875 97 131 130
0.520978 -0.914251 3.61658 163 220 212
-0.0357894 -0.917638 3.64646 65 86 77
-1.68088 -0.966317 3.85188 121 185 179
-0.318109 -0.929449 3.70726 175 225 215
0.579197 -0.902671 3.60917 144 213 193
0.744313 -0.843577 3.41386 83 119 89
-0.41721 -0.913354 3.71147 103 152 138
0.499014 -0.891044 3.63263 91 133 126
-0.165347 -0.900827 3.69022 61 107 85
0.288407 -0.88842 3.64707 97 145 146
1.01259 -0.789116 3.33241 112 172 142
-1.46453 -0.86768 3.80732 89 113 101
-2.0117 -0.867701 3.85362 68 121 94
0.492085 -0.756677 3.61082 167 220 211
0.81604 -0.679073 3.26324 172 220 191
0.805187 -0.679599 3.28015 57 83 69
0.22338 -0.754233 3.65113 70 122 112
0.538954 -0.733198 3.57537 159 201 183
-1.35358 -0.781136 3.81406 132 174 163
-0.273375 -0.749068 3.70324 57 116 102
-1.33034 -0.761015 3.80305 94 104 88
-0.331056 -0.738595 3.70636 109 151 144
0.597919 -0.711022 3.60104 131 148 144
1.47606 -0.6711 3.419 61 104 89
1.82485 -0.674929 3.44326 55 99 76
-0.223057 -0.716084 3.67847 57 93 81
0.822276 -0.641696 3.27498 180 231 197
0.615269 -0.679545 3.60086 148 185 183
-0.744692 -0.701347 3.7484 86 135 133
-0.0741918 -0.683603 3.67956 170 236 217
-0.72615 -0.690012 3.74123 111 144 129
-0.0642429 -0.671926 3.67808 74 137 121
0.159392 -0.667883 3.65551 64 115 108
-2.09706 -0.698509 3.8838 105 139 133
-0.191311 -0.663744 3.68799 61 96 70
0.53976 -0.632641 3.5931 151 161 155
-0.870244 -0.65721 3.75 108 146 134
1.35792 -0.582098 3.40776 49 70 67
0.723232 -0.553399 3.27857 145 191 168
0.714264 -0.547422 3.26662 48 55 42
-0.772143 -0.614006 3.73648 78 112 95
-0.229801 -0.586258 3.68925 161 229 218
-0.128787 -0.577546 3.66195 70 110 99
1.07822 -0.510504 3.28331 56 75 48
-0.987306 -0.580641 3.7717 70 87 83
-0.232305 -0.567994 3.70057 152 211 196
-0.815929 -0.57642 3.7571 99 119 114
0.344748 -0.556694 3.62411 86 160 148
0.445289 -0.550154 3.60049 193 225 224
-1.19293 -0.574693 3.80742 55 89 83
0.983365 -0.498324 3.30893 85 116 87
1.76175 -0.520579 3.436 65 97 86
-2.03367 -0.570152 3.89016 105 132 128
-1.25356 -0.543247 3.81741 182 223 215
-0.0366865 -0.52153 3.66135 105 159 142
1.12796 -0.46917 3.28589 162 229 208
-0.217119 -0.521187 3.699 176 227 220
-0.165543 -0.514413 3.68657 76 119 116
-0.938391 -0.520554 3.78545 80 121 116
-0.483478 -0.485289 3.73462 62 102 97
0.808127 -0.427056 3.4154 35 35 17
0.936526 -0.402999 3.35452 174 232 203
-0.975381 -0.439797 3.79561 100 152 142
0.937094 -0.38291 3.35724 86 109 87
0.806821 -0.387846 3.45208 41 52 32
-0.70322 -0.411115 3.74071 184 211 207
1.14944 -0.373269 3.40022 42 56 38
-1.58908 -0.417073 3.85943 117 136 133
0.43192 -0.380237 3.58633 162 224 206
1.03927 -0.349737 3.38977 46 82 70
-0.836626 -0.376698 3.75885 107 150 139
0.751586 -0.34322 3.46856 183 240 201
-1.4942 -0.378044 3.84424 106 144 138
-0.0152003 -0.330798 3.66099 102 151 143
-0.00635484 -0.327712 3.65723 80 113 98
0.412092 -0.314325 3.59597 86 138 128
0.579838 -0.285121 3.56467 158 208 206
0.452726 -0.282811 3.58897 139 196 187
0.044443 -0.276028 3.65237 52 116 97
0.546438 -0.264952 3.58216 113 156 145
0.600182 -0.259899 3.57044 95 134 143
0.700104 -0.252452 3.51833 129 169 134
0.80492 -0.25022 3.47181 52 65 49
1.40291 -0.24054 3.39674 143 192 164
0.818816 -0.233047 3.43621 51 84 69
0.698165 -0.221214 3.51154 51 91 79
-0.499547 -0.233387 3.72778 141 178 174
0.636281 -0.219244 3.55503 49 103 86
0.690082 -0.218052 3.49985 151 221 181
0.822248 -0.209783 3.4262 69 105 83
0.825023 -0.208633 3.43143 76 115 93
-1.63306 -0.225996 3.86766 96 130 124
0.932795 -0.198041 3.45383 69 100 79
-0.907072 -0.175013 3.77908 123 160 158
1.38808 -0.14315 3.38588 163 207 176
0.587654 -0.13532 3.52089 163 227 197
-0.475979 -0.12065 3.72257 117 152 148
0.532775 -0.112347 3.58283 197 230 226
1.04443 -0.0923959 3.40984 170 224 189
1.12957 -0.0706201 3.39565 152 232 189
1.38416 -0.0523797 3.34703 148 206 182
1.1139 -0.0392815 3.3891 148 213 174
1.11745 -0.0371477 3.39677 132 191 153
1.00738 -0.0279426 3.43273 45 96 69
1.12382 -0.0243673 3.38432 142 205 165
0.540541 -0.0215325 3.55181 164 193 202
0.514078 -0.0198176 3.55751 171 211 210
1.08095 -0.0120622 3.41853 185 224 198
1.07351 -0.00794759 3.40723 11 33 9
-0.730549 0.00835799 3.76347 83 142 134
0.379992 0.0215296 3.57819 87 131 125
1.06018 0.0202661 3.41479 84 126 91
0.276114 0.0376627 3.58364 83 120 124
1.10424 0.0545646 3.36895 86 109 87
0.605588 0.060213 3.48753 137 182 163
0.847108 0.0628855 3.41517 46 63 50
0.795926 0.0676236 3.42932 50 63 49
1.02619 0.0719837 3.42728 60 127 90
0.495294 0.0879696 3.55807 95 129 119
0.502538 0.109754 3.55032 122 154 149
0.511488 0.109991 3.56593 98 109 107
0.802189 0.105578 3.41136 170 228 203
1.00477 0.105113 3.43832 47 103 74
0.499392 0.126624 3.54584 99 121 116
1.19273 0.12818 3.33062 163 226 186
-0.980799 0.149998 3.65031 221 255 254
0.683666 0.156589 3.48122 32 64 33
1.107 0.155256 3.40584 129 188 160
-0.910681 0.178551 3.65208 209 254 245
1.20122 0.164365 3.33159 41 64 49
1.17644 0.167407 3.3472 68 84 60
0.872818 0.173661 3.41099 199 236 202
1.10271 0.186751 3.39969 59 133 103
0.68781 0.242608 3.47905 157 219 201
1.14465 0.237803 3.38146 49 64 43
1.6558 0.235053 3.33464 118 149 152
0.935091 0.248906 3.40886 68 106 84
1.62658 0.246926 3.34625 59 79 74
1.22107 0.248969 3.33877 161 222 184
0.79227 0.267917 3.43189 78 99 77
0.808249 0.269323 3.44859 164 203 165
0.61673 0.289367 3.49488 168 237 210
0.634668 0.299728 3.48776 78 127 111
0.517908 0.311085 3.53872 205 235 230
0.779175 0.30723 3.4497 33 69 63
0.980016 0.307004 3.40203 54 101 75
0.74269 0.316783 3.46191 142 191 163
0.881506 0.312629 3.42223 57 81 57
1.13652 0.306302 3.36198 141 195 152
0.681683 0.34699 3.48844 79 147 122
1.03453 0.344266 3.40228 184 238 208
1.2791 0.350033 3.31646 103 144 117
-1.90017 0.421138 3.94139 128 134 145
1.20962 0.364243 3.34264 154 212 194
0.650097 0.39854 3.48026 182 237 218
1.10858 0.386123 3.36952 148 222 170
0.685157 0.400263 3.46754 73 116 103
1.00345 0.389293 3.39189 174 246 203
0.881333 0.404033 3.43983 64 106 89
1.27685 0.392962 3.31392 77 128 100
0.707004 0.41699 3.45955 67 120 106
0.895117 0.422492 3.44092 159 230 210
0.667658 0.431852 3.48401 125 177 154
0.654356 0.519309 3.50723 175 216 208
1.70646 -1.85254 3.57233 163 229 200
0.117024 -1.90639 3.68183 74 101 85
-0.778083 -1.88243 3.7328 173 229 218
-0.868167 -1.85806 3.70386 80 92 92
0.272306 -1.8167 3.68013 125 209 191
-0.31302 -1.81826 3.71375 100 149 135
-0.337139 -1.81402 3.71835 97 148 134
0.920493 -1.75551 3.61215 97 135 129
0.289696 -1.78632 3.67754 147 226 212
0.944957 -1.75662 3.6213 139 162 158
0.323061 -1.77915 3.67656 73 115 114
0.328441 -1.78008 3.67575 85 126 118
0.853063 -1.73419 3.59797 178 228 216
0.837476 -1.72531 3.60785 93 161 126
0.258201 -1.75036 3.67604 140 210 197
1.0628 -1.71908 3.61365 136 198 182
1.04885 -1.71328 3.60752 73 112 104
1.56777 -1.69653 3.5734 101 120 117
1.70488 -1.68656 3.56257 93 140 131
1.52025 -1.69329 3.58923 89 124 110
0.504176 -1.70644 3.64646 87 129 118
0.607013 -1.67677 3.64393 70 112 105
0.3493 -1.68155 3.66258 82 111 108
1.20221 -1.65279 3.60563 68 127 119
1.14048 -1.65126 3.60785 102 170 163
0.646881 -1.65939 3.63508 81 125 119
1.38923 -1.63243 3.58238 62 103 95
1.72529 -1.61406 3.54773 76 118 111
-0.803512 -1.69526 3.73797 98 130 125
-0.367952 -1.68305 3.71099 126 186 168
1.74741 -1.61455 3.56225 201 240 232
0.281094 -1.65057 3.66392 66 126 115
0.325354 -1.64115 3.65186 99 125 112
0.533574 -1.63006 3.64004 169 225 204
-0.750771 -1.66018 3.71937 134 217 179
-0.798548 -1.6606 3.73689 93 121 115
-0.216196 -1.6502 3.70951 76 128 111
1.25123 -1.59556 3.58647 71 119 107
0.561853 -1.61761 3.64739 99 151 144
1.08577 -1.60001 3.60493 76 117 112
0.322711 -1.61722 3.64968 74 83 73
1.32173 -1.57658 3.57332 161 230 215
0.632329 -1.58879 3.63127 111 153 146
1.16014 -1.56644 3.59311 162 227 201
0.617974 -1.57629 3.63764 186 239 230
-1.22511 -1.62262 3.7701 94 127 130
1.8011 -1.52044 3.53146 93 119 106
2.05561 -1.51302 3.5071 101 145 128
0.278671 -1.56381 3.65892 196 238 231
0.442327 -1.55831 3.65772 184 234 230
1.81172 -1.4991 3.53008 103 160 152
1.48175 -1.51284 3.5647 133 161 161
1.92592 -1.48813 3.51748 122 156 149
0.372091 -1.53911 3.66024 166 229 220
-1.13277 -1.57803 3.77231 79 122 113
-0.64868 -1.56101 3.72635 55 93 87
0.121621 -1.52559 3.67099 80 132 115
-0.929579 -1.54864 3.75404 94 143 127
-0.683137 -1.5399 3.74258 146 215 195
-0.690801 -1.52608 3.74565 165 219 219
0.369584 -1.48507 3.64969 94 128 122
1.65221 -1.42306 3.53442 40 101 87
-0.744104 -1.48214 3.74717 191 239 241
-1.14043 -1.47867 3.753 136 173 171
0.267646 -1.44658 3.664 70 119 105
0.400324 -1.42428 3.64598 66 113 104
-1.13065 -1.46704 3.76827 212 250 250
0.828418 -1.38484 3.60382 85 110 106
2.07719 -1.33186 3.49377 135 172 162
-0.71523 -1.40984 3.73 98 133 123
0.755779 -1.3606 3.62123 86 118 124
-0.735603 -1.40266 3.74209 156 225 210
0.781021 -1.35386 3.6222 180 226 227
1.87935 -1.31021 3.50925 91 133 122
-1.69659 -1.38814 3.71725 159 232 210
-0.363333 -1.38759 3.71735 130 174 161
0.0618788 -1.35743 3.66741 166 206 194
0.174216 -1.34552 3.63497 73 95 90
-0.568117 -1.37159 3.74472 89 150 140
0.0925125 -1.32792 3.64833 157 212 185
0.285454 -1.32566 3.65616 100 128 122
-1.44857 -1.36272 3.76812 80 111 104
-1.45008 -1.36355 3.77634 86 130 123
0.627831 -1.30842 3.62521 90 143 134
0.0526702 -1.30374 3.68126 73 112 91
-0.231473 -1.30618 3.70442 88 118 113
0.4636 -1.28092 3.64056 97 126 117
-0.160834 -1.29869 3.70106 77 131 108
-0.323264 -1.29197 3.7126 88 127 119
-0.34808 -1.28439 3.70751 84 107 99
0.314325 -1.26377 3.6514 102 141 133
1.64077 -1.20465 3.47927 145 221 180
-1.49841 -1.30018 3.79884 175 229 230
2.03052 -1.18555 3.47628 87 125 113
-0.805122 -1.27091 3.74756 243 255 255
-0.245805 -1.2455 3.69454 70 121 107
-0.0809475 -1.23665 3.68934 84 134 122
1.65421 -1.1529 3.44091 93 144 117
1.61377 -1.15338 3.45306 159 214 187
-0.0333788 -1.21644 3.66771 184 251 219
1.26884 -1.10815 3.38464 66 83 74
2.05716 -1.14175 3.4698 65 102 92
-1.94518 -1.25062 3.81855 100 165 156
-0.473073 -1.20624 3.71076 119 157 151
0.650506 -1.17481 3.61257 187 226 235
0.952961 -1.06941 3.29889 130 171 126
0.176899 -1.18185 3.66407 141 217 183
-0.515363 -1.19463 3.72865 87 138 124
0.668412 -1.14302 3.58491 142 240 196
0.451341 -1.15472 3.63702 95 144 136
0.703276 -1.12674 3.56895 165 228 184
0.702164 -1.1087 3.5605 75 112 72
1.26971 -1.0503 3.36412 170 233 191
2.07112 -1.07954 3.45456 93 144 130
0.704902 -1.10893 3.56649 68 94 54
-0.0802983 -1.13322 3.68315 91 138 116
-0.0284546 -1.11879 3.65801 144 222 191
-0.0290639 -1.11702 3.65671 144 213 180
1.44555 -1.04981 3.43938 82 121 100
-0.458164 -1.1192 3.72154 95 138 127
-0.0407439 -1.09756 3.66761 82 116 99
0.228407 -1.08984 3.655 97 161 142
0.00489067 -1.08564 3.67571 70 96 82
0.30238 -1.0817 3.65678 84 134 130
0.01542 -1.07783 3.66884 154 206 196
-0.926459 -1.10341 3.7596 169 226 205
0.438757 -1.05592 3.63089 81 124 111
0.51806 -1.04287 3.62504 112 161 153
0.355743 -1.03723 3.64489 94 134 132
1.46583 -0.974569 3.43247 82 119 93
-0.292629 -1.04402 3.70987 82 131 109
0.486102 -1.00985 3.63746 85 139 132
-1.20149 -1.04611 3.79451 81 104 96
-0.614836 -1.0198 3.7392 85 122 114
-0.0716667 -0.983744 3.6415 80 118 100
0.660762 -0.942989 3.53365 130 159 150
-0.511493 -0.988014 3.73471 171 225 212
0.649042 -0.930319 3.53515 199 244 201
0.642515 -0.921503 3.53293 33 58 44
-0.142822 -0.959278 3.69087 94 128 118
0.438473 -0.934551 3.62464 64 107 104
-0.0272801 -0.936786 3.64566 75 104 88
-0.345613 -0.9502 3.70304 90 144 131
0.517672 -0.924146 3.62499 78 128 118
-0.445883 -0.938712 3.71897 87 118 109
-0.450838 -0.925658 3.70427 196 236 231
0.722119 -0.85465 3.42506 29 49 37
0.126949 -0.904661 3.64274 145 204 184
-0.453917 -0.924927 3.7437 172 228 215
-0.0502245 -0.900666 3.65953 48 64 47
0.152024 -0.898025 3.63614 143 225 183
-0.217643 -0.887588 3.68938 75 105 94
0.572515 -0.867412 3.61566 65 101 85
0.41409 -0.871839 3.63929 89 147 136
-0.404042 -0.884038 3.7046 87 118 109
-0.200334 -0.867196 3.70321 164 219 202
0.185874 -0.838017 3.62904 70 89 86
0.206174 -0.828089 3.63894 69 127 99
0.197133 -0.823407 3.62892 79 146 115
0.356869 -0.807166 3.62086 99 146 138
0.511045 -0.784497 3.60775 57 77 78
0.517218 -0.774916 3.58649 70 86 85
0.0699317 -0.779027 3.64018 75 110 96
0.199375 -0.78288 3.65699 97 143 144
0.824991 -0.699083 3.27865 163 204 173
0.805006 -0.694211 3.27407 125 170 143
0.351242 -0.762356 3.63077 90 141 133
0.491459 -0.756703 3.61018 165 218 209
0.816339 -0.67915 3.26262 158 204 175
0.482637 -0.731397 3.59835 161 211 201
0.0852807 -0.733881 3.63286 93 124 109
-1.35103 -0.764316 3.81741 205 239 238
-1.33194 -0.760869 3.80499 100 110 94
0.228399 -0.730314 3.64051 104 142 136
0.0338044 -0.729958 3.66394 81 119 101
1.82493 -0.688456 3.46217 88 128 117
-1.34178 -0.751302 3.81169 119 130 128
0.837353 -0.647031 3.2802 165 218 185
-1.39032 -0.741005 3.81258 103 129 116
0.521927 -0.696517 3.59237 171 200 197
0.519579 -0.684364 3.59975 74 85 77
1.73157 -0.646244 3.43747 158 225 204
-0.0922468 -0.686226 3.67365 95 128 107
0.563907 -0.66683 3.59916 128 173 164
-0.728412 -0.689207 3.75086 102 134 129
0.0556627 -0.675276 3.65813 64 115 88
-1.37615 -0.685616 3.81075 98 117 108
1.87731 -0.597523 3.425 100 164 152
0.528234 -0.619372 3.59288 152 182 177
0.134968 -0.626501 3.64195 87 139 129
-0.694654 -0.643072 3.74362 97 132 122
1.77953 -0.586442 3.4399 70 104 104
-0.817236 -0.620308 3.72956 81 118 92
-0.771705 -0.614184 3.73478 78 112 95
0.41281 -0.586576 3.61954 96 136 134
1.06465 -0.532963 3.30497 29 48 29
0.774213 -0.528255 3.2735 43 65 41
0.754048 -0.513165 3.28867 42 64 36
1.12664 -0.513496 3.28052 136 174 144
-1.14293 -0.570605 3.77787 51 112 86
0.163579 -0.55249 3.6277 91 137 125
-1.25017 -0.569628 3.8152 82 107 97
1.86421 -0.505228 3.42523 72 99 89
-0.922486 -0.548419 3.76941 77 117 99
1.16425 -0.474123 3.30803 61 83 71
-0.184205 -0.52339 3.68203 126 183 168
1.00555 -0.467817 3.29896 32 81 59
-0.1733 -0.516791 3.68629 72 100 87
-1.2469 -0.532147 3.81932 81 109 96
-0.0322452 -0.509354 3.65822 156 211 202
2.00386 -0.47517 3.40077 80 124 111
-2.0394 -0.533399 3.89637 95 111 104
1.86782 -0.457199 3.40908 82 131 115
-0.914791 -0.494845 3.7741 85 127 120
-0.483202 -0.485512 3.73355 51 87 81
-1.80641 -0.499714 3.87636 106 151 135
1.69575 -0.420219 3.43012 175 230 221
-1.04327 -0.439633 3.8034 83 130 121
-0.558804 -0.42584 3.73357 98 135 125
0.440061 -0.389717 3.57224 97 150 140
0.826214 -0.372409 3.43217 91 159 118
0.744254 -0.367996 3.47559 97 144 112
0.434307 -0.37885 3.59463 162 218 207
-0.850664 -0.371635 3.77014 209 245 233
0.74887 -0.341496 3.46127 173 229 188
-0.50393 -0.356884 3.72413 93 162 141
0.755526 -0.32685 3.46409 62 87 67
0.877358 -0.317334 3.47189 88 166 125
0.419515 -0.324812 3.59393 128 188 178
0.730028 -0.308797 3.43368 181 234 207
0.758268 -0.314459 3.46797 135 210 164
0.00999052 -0.323948 3.64092 171 202 193
0.413164 -0.313817 3.59877 69 119 107
1.17593 -0.293313 3.40125 125 204 161
0.861935 -0.299233 3.5003 97 132 106
0.0315493 -0.298459 3.64066 67 84 75
1.83685 -0.27352 3.40003 74 131 122
0.596692 -0.280743 3.57106 207 240 243
0.697208 -0.277582 3.5113 188 204 181
1.74457 -0.253247 3.41828 91 127 115
0.804556 -0.251113 3.46776 66 80 62
0.541686 -0.254318 3.58428 164 208 207
0.67982 -0.232402 3.51475 46 73 53
1.25965 -0.224631 3.4078 114 156 138
0.637372 -0.221074 3.54706 48 78 67
-0.177075 -0.230315 3.68753 82 135 126
0.63493 -0.219699 3.55281 41 95 78
0.935463 -0.216055 3.44443 127 173 137
0.823286 -0.209899 3.42587 82 118 94
1.38928 -0.199942 3.3944 177 244 205
-1.63317 -0.225963 3.86782 96 130 124
1.40329 -0.198097 3.37774 148 199 171
1.14078 -0.187787 3.42334 133 201 166
0.563678 -0.192941 3.56829 92 127 130
1.12964 -0.168689 3.4175 173 254 209
1.45036 -0.14468 3.35134 162 238 197
0.532802 -0.112248 3.58322 197 230 226
0.99484 -0.103936 3.41709 197 228 207
1.44975 -0.0954648 3.36965 71 119 107
1.11138 -0.0931735 3.38888 77 149 113
1.40713 -0.0729692 3.38235 167 213 177
1.12249 -0.073194 3.39103 166 243 205
-1.79691 -0.0781255 3.89621 118 143 133
1.37286 -0.0674368 3.37098 58 98 87
1.51539 -0.0610468 3.35544 58 89 80
1.11588 -0.0561434 3.39484 173 246 208
1.3915 -0.0492066 3.35858 48 89 82
1.11106 -0.0406953 3.38504 163 238 194
1.12291 -0.0350332 3.38821 63 100 60
1.10743 -0.0263277 3.38045 66 91 63
-1.10468 -0.0166956 3.8281 87 141 118
0.240646 -0.00976383 3.59843 127 166 164
1.07003 0.00175079 3.4034 169 202 168
0.379322 0.021418 3.57772 98 146 140
1.05897 0.0205338 3.41552 154 201 168
1.23708 0.0370985 3.36289 162 229 202
1.12318 0.041357 3.37628 155 207 167
0.619727 0.0492528 3.49189 155 213 188
1.19552 0.0502136 3.35187 100 155 130
0.606051 0.0600502 3.48706 149 194 175
-0.824791 0.0744745 3.77604 80 125 116
1.04287 0.0665695 3.41174 172 239 194
1.08604 0.0705577 3.39044 76 91 64
1.26723 0.0672892 3.34544 167 231 201
1.11728 0.0754047 3.36411 65 78 46
-0.638304 0.0868441 3.74774 70 134 115
0.828759 0.0787063 3.42103 71 88 79
0.49698 0.0891613 3.56209 117 140 132
0.662295 0.0944846 3.49079 138 191 177
0.912602 0.0936311 3.44125 69 145 103
1.02363 0.0975273 3.42191 43 71 51
0.497262 0.109263 3.56384 208 242 242
0.510741 0.108611 3.56148 99 110 108
0.801807 0.104898 3.40927 159 217 192
0.8492 0.118805 3.4349 68 96 77
1.02312 0.11664 3.42844 156 244 204
1.08099 0.12008 3.41619 34 37 22
1.01441 0.123954 3.42872 161 251 208
0.532409 0.130253 3.54702 107 122 118
1.03097 0.127516 3.43506 54 96 78
1.00867 0.134503 3.42999 69 133 104
1.07585 0.150363 3.41759 144 239 194
0.313079 0.162196 3.58126 90 157 142
0.683293 0.156469 3.48083 32 64 33
0.73161 0.163292 3.47707 33 63 58
0.784684 0.161314 3.41944 45 54 34
1.10226 0.155884 3.37491 150 214 185
1.20055 0.163824 3.33003 41 64 49
0.758254 0.182072 3.43815 104 119 92
1.16884 0.172761 3.33863 142 179 147
0.915388 0.179547 3.39871 159 238 194
0.732245 0.185082 3.45818 53 81 58
1.04161 0.18082 3.39982 164 246 204
1.11728 0.193858 3.396 59 134 106
1.11896 0.19302 3.39385 49 86 60
0.665328 0.202306 3.49502 50 70 57
1.11169 0.201276 3.39489 137 226 177
0.626541 0.214437 3.51469 97 136 114
0.661666 0.213614 3.5078 152 212 182
0.93252 0.207714 3.39758 45 92 54
1.11189 0.216629 3.39438 43 53 41
1.1175 0.220308 3.39401 42 54 42
0.729573 0.22378 3.4369 156 208 191
0.629872 0.233704 3.51235 103 137 120
1.13775 0.221844 3.38384 25 34 21
0.606207 0.238788 3.52504 52 79 59
1.70449 0.233918 3.32594 70 91 82
0.765984 0.250192 3.44789 10 27 14
1.14504 0.239283 3.37162 51 67 49
0.846338 0.252039 3.43821 88 139 112
1.13498 0.245582 3.37415 182 233 189
1.62757 0.24741 3.34758 58 75 71
0.512218 0.271732 3.5445 80 114 108
1.33457 0.253123 3.30116 83 137 102
0.861462 0.269398 3.41966 60 93 66
1.28169 0.260866 3.32183 192 233 206
0.612485 0.281248 3.49364 83 118 108
0.737865 0.281809 3.46823 159 214 187
1.64393 0.273323 3.3197 170 219 199
0.467513 0.304253 3.55045 92 140 146
0.784232 0.303196 3.45648 43 52 49
1.27008 0.296043 3.3322 38 51 37
0.778545 0.306275 3.44717 43 72 69
1.29621 0.314234 3.30595 151 210 179
1.64853 0.315065 3.3292 214 241 231
1.12042 0.324604 3.37577 122 162 121
0.951238 0.329437 3.42018 91 123 106
1.23595 0.323904 3.35247 163 186 148
0.56582 0.347709 3.54047 92 106 105
1.34265 0.347291 3.3088 19 46 30
1.31592 0.351396 3.29444 40 61 29
0.831373 0.372939 3.45893 153 217 205
0.739911 0.384333 3.45989 62 79 68
1.27146 0.384205 3.32813 174 232 207
0.741082 0.402876 3.44987 166 238 215
1.24234 0.394987 3.3335 81 129 117
0.00600527 0.456768 3.57143 64 81 70
0.803617 0.442231 3.44272 181 246 225
0.110858 0.467748 3.58046 52 116 94
0.826591 0.449635 3.44252 14 70 49
0.988937 -1.86008 3.63133 55 73 60
0.967274 -1.85387 3.63078 145 197 180
0.377626 -1.8648 3.66265 166 230 224
0.933791 -1.82507 3.62119 130 184 167
-1.19329 -1.87553 3.7451 79 107 87
0.272855 -1.81661 3.67965 144 223 209
0.259353 -1.80152 3.68086 138 191 181
0.260579 -1.80209 3.68337 119 172 159
-0.804172 -1.80916 3.72826 99 139 134
0.272469 -1.78007 3.66096 71 103 86
-0.919172 -1.80467 3.73971 69 133 111
0.215013 -1.75909 3.65909 110 158 146
1.01115 -1.73407 3.60532 100 132 121
1.54137 -1.72552 3.59118 92 135 126
2.04261 -1.68866 3.51577 100 139 131
0.840802 -1.7268 3.61502 64 141 113
1.0768 -1.73725 3.62113 124 181 166
0.258834 -1.74979 3.67315 148 218 205
-1.10244 -1.78093 3.74137 144 218 192
0.929607 -1.70516 3.58995 71 102 87
1.37192 -1.70459 3.60601 78 126 114
0.0450148 -1.74189 3.6991 108 177 157
0.354863 -1.72339 3.66518 93 113 118
-1.33135 -1.74299 3.72922 88 149 139
1.03605 -1.68803 3.60473 112 154 147
1.61522 -1.647 3.56011 110 151 146
0.350511 -1.68261 3.66818 73 112 110
0.508772 -1.68108 3.66946 118 142 140
0.730421 -1.66973 3.63452 93 134 126
-1.33969 -1.72117 3.75948 70 112 124
-1.17075 -1.71967 3.75653 162 233 217
1.72509 -1.61415 3.54835 74 114 109
1.74541 -1.61015 3.54982 202 239 231
-0.774951 -1.69115 3.73465 99 125 112
0.281938 -1.65173 3.66823 86 149 139
-0.354326 -1.67322 3.71744 116 140 132
1.2953 -1.60769 3.5773 89 130 122
0.892435 -1.62514 3.6467 78 132 109
1.06473 -1.60682 3.61237 56 91 77
-0.795385 -1.65928 3.72922 100 127 118
1.25231 -1.59595 3.58872 71 119 107
1.48257 -1.58685 3.56737 78 89 87
0.324265 -1.61988 3.66539 69 71 65
0.612857 -1.61482 3.64262 110 146 140
0.264255 -1.61522 3.66371 118 144 131
0.294134 -1.60046 3.64862 159 205 199
0.425063 -1.57742 3.64777 65 106 91
0.492027 -1.57617 3.64882 102 155 146
0.838017 -1.57075 3.62929 136 208 188
2.06083 -1.51404 3.51383 107 147 135
0.288746 -1.57115 3.66504 168 218 208
0.223914 -1.56176 3.66691 75 113 107
0.290041 -1.55698 3.66013 128 165 161
0.27337 -1.55559 3.6654 102 123 124
0.677484 -1.54438 3.6388 91 151 141
1.66629 -1.49117 3.5466 69 122 108
0.823328 -1.52411 3.62988 118 174 161
-0.567332 -1.55988 3.73439 108 162 149
-1.22058 -1.53462 3.74389 95 126 127
-0.722908 -1.53697 3.74485 169 231 217
0.801979 -1.48869 3.62119 84 117 110
-1.71385 -1.51247 3.71839 180 247 220
-0.110506 -1.4944 3.7029 220 247 244
-0.0904953 -1.48447 3.69245 94 128 117
0.5692 -1.44431 3.61493 133 194 184
-0.644984 -1.49532 3.73755 97 125 119
-0.0914353 -1.48677 3.71009 108 159 161
-0.0594968 -1.47629 3.69925 198 239 234
0.822244 -1.43336 3.61562 100 140 129
1.88159 -1.39453 3.5289 93 138 111
1.99498 -1.39342 3.51835 89 115 109
-1.75216 -1.47099 3.72814 121 213 172
-2.10424 -1.49392 3.80607 112 161 141
-0.976954 -1.47039 3.75483 172 225 215
0.641804 -1.41249 3.61909 77 112 108
1.61386 -1.37789 3.54951 177 211 205
1.87438 -1.36554 3.51433 64 97 82
-0.254804 -1.43601 3.7102 90 158 141
1.64959 -1.35755 3.5295 85 116 109
-1.16391 -1.44913 3.77203 87 119 125
0.580718 -1.39033 3.62948 54 125 109
0.213168 -1.39468 3.64721 95 136 121
2.07911 -1.33224 3.49796 124 158 152
-1.49479 -1.40081 3.71925 83 125 107
0.060976 -1.37434 3.65905 89 114 100
0.750946 -1.35948 3.60904 127 168 160
-1.31807 -1.41621 3.78302 78 128 110
-1.00639 -1.40173 3.75263 111 137 124
1.87749 -1.30994 3.50629 99 139 128
-1.01136 -1.40359 3.77005 77 102 92
-0.059531 -1.37576 3.70009 82 115 100
0.235263 -1.36161 3.65323 191 228 224
0.226202 -1.35659 3.66087 97 131 130
-1.01798 -1.38018 3.75364 154 215 205
0.762108 -1.32634 3.60524 211 247 247
0.761705 -1.31707 3.61689 74 90 72
1.30479 -1.22874 3.37333 165 237 214
-1.44683 -1.36545 3.76747 102 144 133
0.0654468 -1.33271 3.66954 180 207 204
1.72411 -1.27553 3.52061 86 125 117
-1.25904 -1.35834 3.75968 92 135 126
0.924367 -1.19039 3.31957 120 200 153
-0.10654 -1.32654 3.69491 90 130 118
-2.02269 -1.35965 3.80281 105 141 127
-0.292186 -1.32913 3.7145 104 147 136
-1.30977 -1.34741 3.79124 102 137 123
0.939651 -1.18725 3.33006 164 223 192
0.691757 -1.28282 3.61416 181 237 232
1.30951 -1.19523 3.36127 148 213 181
-1.49495 -1.32935 3.78284 79 134 125
-0.959261 -1.32151 3.76611 152 144 127
0.505673 -1.2762 3.63674 114 160 154
-0.322603 -1.29242 3.71782 86 123 115
0.235821 -1.26549 3.64015 183 246 226
0.272582 -1.26924 3.65349 85 111 98
0.853303 -1.16247 3.33646 125 191 150
0.940917 -1.16177 3.34166 108 174 139
-0.34662 -1.28482 3.71239 83 112 103
-0.41762 -1.27557 3.70364 92 137 128
-0.419729 -1.27757 3.7302 88 143 134
0.0910305 -1.24353 3.63374 165 208 197
0.116573 -1.25773 3.67348 93 141 129
0.500765 -1.2466 3.63282 85 134 120
1.33279 -1.16203 3.3867 173 214 186
0.927604 -1.12946 3.30668 38 46 36
-0.368602 -1.26223 3.71299 94 129 125
2.02977 -1.18476 3.47359 89 126 116
-1.31867 -1.28297 3.79226 139 185 172
0.518464 -1.22046 3.62222 84 130 118
0.963496 -1.10964 3.29493 113 146 119
-0.396301 -1.25178 3.72462 72 127 118
-0.0789549 -1.23137 3.68006 107 162 147
-1.52431 -1.27413 3.80497 106 135 149
-0.423591 -1.24632 3.72248 92 136 130
-0.189335 -1.2346 3.68965 99 153 146
0.612823 -1.21132 3.61525 94 147 138
1.15771 -1.12711 3.37559 59 145 103
-0.0334216 -1.21671 3.67232 177 237 206
0.00816353 -1.20873 3.66197 55 92 76
2.05957 -1.14192 3.47365 65 102 92
-1.94903 -1.25121 3.82718 119 188 178
1.27548 -1.10555 3.39008 41 57 40
1.59596 -1.12915 3.45647 175 236 208
-1.00784 -1.22588 3.77262 167 226 206
0.935032 -1.0777 3.31085 137 228 172
1.33954 -1.09387 3.37953 42 63 38
1.54768 -1.11905 3.45258 72 123 115
-0.985579 -1.2142 3.77172 114 137 123
0.569245 -1.16604 3.61471 60 106 94
-0.337813 -1.19078 3.71905 103 138 128
0.702841 -1.1504 3.56592 87 154 123
-0.515173 -1.19471 3.73004 78 131 118
0.747267 -1.14338 3.58166 78 113 86
-0.0183972 -1.15651 3.64476 80 117 97
0.636672 -1.12614 3.56232 99 138 117
0.0323431 -1.15579 3.64113 132 189 168
0.0342907 -1.15645 3.65538 143 189 177
1.6206 -1.08864 3.44942 155 217 201
0.259641 -1.14719 3.6475 64 85 70
0.975144 -1.03127 3.28188 41 60 41
-0.725672 -1.17341 3.74884 100 146 134
0.664235 -1.1245 3.57311 76 108 84
-1.59093 -1.19263 3.80985 99 140 125
1.33181 -1.0641 3.40004 56 85 60
0.0675693 -1.13008 3.63398 45 92 66
-0.250225 -1.15326 3.71296 102 140 128
1.28443 -1.04024 3.36895 67 86 69
0.296168 -1.12058 3.64207 87 116 107
-1.37209 -1.15999 3.79821 79 120 112
-0.449684 -1.13564 3.71811 158 229 213
0.223205 -1.11576 3.66761 80 156 132
0.488513 -1.10867 3.62791 60 100 95
0.572731 -1.09596 3.62095 203 238 234
0.270848 -1.09973 3.6465 74 109 99
1.82601 -1.03395 3.47421 76 99 95
0.303745 -1.08194 3.66668 92 151 143
-0.915725 -1.10336 3.75672 97 131 124
0.229313 -1.07486 3.64464 180 233 220
-0.543598 -1.08439 3.73116 77 120 111
0.22171 -1.06641 3.65991 89 123 106
0.554598 -1.05217 3.61961 75 133 115
0.698486 -1.0338 3.55398 108 121 99
1.07826 -0.965015 3.31069 68 86 63
1.50612 -1.00092 3.43248 148 214 179
0.519636 -1.04293 3.62688 106 150 144
-2.15017 -1.0983 3.8626 90 114 112
0.423133 -1.02349 3.63656 101 129 129
0.557622 -1.0018 3.62746 168 208 207
0.069823 -0.989621 3.63286 160 207 205
0.170253 -0.998633 3.65161 160 237 200
0.647599 -0.976417 3.56048 37 44 29
0.853031 -0.93177 3.40933 129 146 125
1.14147 -0.905233 3.29737 103 165 129
-0.638858 -1.01945 3.74975 115 165 153
1.18892 -0.883225 3.25843 57 116 88
0.0730519 -0.975061 3.61976 16 62 56
-0.00603171 -0.979388 3.64682 50 86 74
0.164506 -0.979249 3.64622 92 138 116
1.0721 -0.88241 3.28893 47 54 41
2.01882 -0.930796 3.45515 82 120 108
-0.616289 -0.999261 3.74558 103 134 127
0.656211 -0.938372 3.52308 133 163 152
1.12003 -0.870121 3.27321 162 196 172
0.521556 -0.957889 3.62499 77 86 76
-0.142155 -0.95835 3.6823 90 122 111
0.625434 -0.922091 3.55464 114 191 153
0.51756 -0.926566 3.61139 89 135 123
-0.346747 -0.950094 3.71009 113 166 156
-0.50422 -0.951637 3.72033 86 124 112
0.413619 -0.928393 3.62967 86 128 121
0.519744 -0.92634 3.6234 85 127 116
-0.306594 -0.941272 3.70872 70 116 103
-0.227173 -0.93956 3.7064 157 194 184
0.251469 -0.929235 3.6596 108 145 135
0.109944 -0.905805 3.6353 63 95 94
0.579133 -0.899403 3.60543 142 202 191
0.128028 -0.904438 3.6522 166 223 198
0.155282 -0.894651 3.6374 142 207 168
0.184134 -0.89512 3.6438 68 107 91
0.498759 -0.890128 3.62342 104 145 138
1.60547 -0.83641 3.41884 87 111 103
1.23923 -0.797296 3.2775 32 64 40
1.58657 -0.829648 3.41711 53 69 76
-0.161682 -0.891304 3.69869 80 123 108
-0.403194 -0.883809 3.71371 89 128 120
1.64045 -0.797049 3.40977 72 108 92
-0.257704 -0.856579 3.68676 108 151 140
-0.0110286 -0.831327 3.6285 160 213 193
-0.178747 -0.83661 3.68606 199 249 225
0.038529 -0.835887 3.65411 68 101 94
1.86814 -0.778367 3.44808 85 122 118
0.459057 -0.814096 3.63793 49 92 83
0.149043 -0.80677 3.6539 160 213 193
-0.160007 -0.806274 3.67379 164 220 209
0.105734 -0.801915 3.65569 150 205 178
1.95368 -0.754484 3.44253 93 123 118
0.153849 -0.781502 3.63579 66 110 93
0.198237 -0.7849 3.65476 87 138 131
0.49236 -0.774965 3.60757 90 129 131
1.54113 -0.735183 3.42635 172 236 201
-0.920206 -0.78086 3.75956 85 144 124
0.503734 -0.744229 3.59772 70 87 78
0.571669 -0.7439 3.5946 66 85 76
-0.0261427 -0.755381 3.66675 84 126 108
0.552651 -0.731199 3.5566 150 196 174
-1.35196 -0.763959 3.8238 175 207 202
0.521722 -0.725276 3.58975 179 201 199
0.60125 -0.709163 3.59623 89 106 102
-0.0166071 -0.719412 3.67242 159 243 195
0.57011 -0.701523 3.57599 135 178 145
-1.39315 -0.740442 3.82101 82 100 93
0.937415 -0.628254 3.27481 155 211 176
-2.23458 -0.738951 3.88193 159 193 182
0.0134048 -0.684135 3.66362 75 129 106
0.0670187 -0.689431 3.67074 67 137 107
0.543431 -0.673957 3.59758 126 146 141
0.608967 -0.676068 3.59783 161 190 194
1.6173 -0.640664 3.43082 62 93 86
1.73233 -0.646481 3.43571 175 240 219
-0.910048 -0.699678 3.75524 84 116 111
-1.40508 -0.701606 3.81882 113 144 137
0.16007 -0.666323 3.65635 91 139 133
-1.37953 -0.684897 3.81943 99 122 117
0.118725 -0.65249 3.66178 100 154 141
0.888032 -0.577952 3.30381 48 68 69
1.87854 -0.59726 3.42724 98 161 151
-1.38177 -0.662074 3.81686 99 124 128
-0.671885 -0.646213 3.74787 115 139 129
0.499354 -0.61444 3.57459 113 143 138
0.922093 -0.562781 3.29041 123 172 150
1.73082 -0.584904 3.43303 82 106 96
1.77928 -0.586478 3.43957 63 97 96
-0.745824 -0.634299 3.74662 113 145 144
-1.31425 -0.618036 3.82185 118 129 119
0.11193 -0.596942 3.65445 126 170 163
0.779335 -0.530332 3.26926 49 69 46
0.50102 -0.582518 3.60066 62 60 59
-2.09861 -0.608362 3.90571 127 176 160
-0.837466 -0.58498 3.76025 94 110 103
1.70293 -0.538558 3.4549 36 89 80
-1.29532 -0.577708 3.81395 90 111 108
-0.19155 -0.560639 3.69289 75 106 85
1.76133 -0.518946 3.43084 76 103 93
-0.959806 -0.56467 3.79049 85 106 104
-0.765451 -0.561512 3.75933 105 147 140
0.46053 -0.537279 3.58843 78 76 68
1.66814 -0.512771 3.43789 87 123 117
-2.03858 -0.570859 3.8897 97 113 112
-1.24434 -0.554476 3.78025 154 216 194
-0.26263 -0.543941 3.7043 69 112 101
-0.22284 -0.539708 3.69196 163 229 218
1.38278 -0.494914 3.41007 184 255 215
1.60918 -0.497815 3.43312 156 207 187
-1.26133 -0.548986 3.82657 174 215 218
-1.92993 -0.540095 3.88168 102 131 122
0.455673 -0.501141 3.59678 55 67 55
-1.86466 -0.536321 3.87485 111 124 110
-1.67235 -0.526413 3.85942 102 156 133
-1.13831 -0.51963 3.80839 82 125 110
-1.71976 -0.518461 3.87725 91 152 138
-1.80917 -0.498601 3.8853 112 162 150
0.494811 -0.461026 3.58539 128 168 157
0.477431 -0.445441 3.5927 156 206 194
1.29294 -0.397265 3.33565 57 80 58
0.612647 -0.416671 3.51883 86 105 78
1.29261 -0.395826 3.34301 44 56 38
1.85062 -0.398329 3.40476 43 91 67
-1.3339 -0.442411 3.80663 109 139 128
0.798336 -0.390278 3.4427 54 58 39
-0.725976 -0.41121 3.74035 72 99 83
0.508558 -0.388129 3.58814 123 144 135
-1.58304 -0.407327 3.86149 100 127 118
0.76387 -0.372326 3.47857 37 39 27
-0.667254 -0.389806 3.7475 127 162 158
0.416688 -0.376483 3.58779 102 152 134
0.41815 -0.377482 3.58241 82 123 108
-0.710501 -0.385387 3.7366 128 178 160
1.06401 -0.347177 3.38077 186 217 188
-0.710699 -0.383166 3.75058 110 173 147
0.746119 -0.35285 3.47088 33 39 34
0.770275 -0.353809 3.47659 186 241 194
1.07406 -0.344731 3.39482 168 236 195
-0.850681 -0.361573 3.7678 99 153 140
0.751495 -0.338099 3.47895 139 211 175
-0.773982 -0.357442 3.77128 215 243 237
0.488427 -0.339048 3.58761 92 132 120
0.0144625 -0.321429 3.63869 177 214 204
1.19668 -0.292514 3.40284 135 196 162
-1.57814 -0.325584 3.86014 109 126 123
-0.470309 -0.310092 3.71874 101 163 151
0.717684 -0.285523 3.48693 62 76 58
0.916318 -0.283283 3.4592 161 215 178
0.628243 -0.293686 3.56973 118 140 138
0.651783 -0.285111 3.53095 118 137 118
0.471597 -0.282285 3.57922 147 193 187
0.720474 -0.275376 3.50356 47 58 38
1.40252 -0.267982 3.40561 135 200 178
0.456065 -0.271607 3.58471 167 220 211
1.67801 -0.25408 3.38942 104 138 131
0.629439 -0.262531 3.55592 157 182 178
1.7439 -0.25327 3.41808 83 115 110
0.920193 -0.239427 3.46085 53 81 62
0.80674 -0.234664 3.43221 145 208 182
0.607165 -0.236118 3.55971 71 86 89
0.951664 -0.225146 3.45689 127 168 130
-0.176588 -0.230704 3.68572 86 139 130
0.671941 -0.222794 3.51942 121 193 147
0.867153 -0.219643 3.443 121 172 145
-0.642073 -0.225103 3.73902 76 170 129
0.956831 -0.209339 3.45937 35 62 46
1.40626 -0.1973 3.37325 187 238 204
1.68841 -0.195785 3.39364 80 107 91
0.802545 -0.190858 3.40114 58 89 74
1.10941 -0.19031 3.4176 27 50 36
1.39041 -0.170953 3.39705 119 145 131
0.879576 -0.164516 3.41707 74 138 108
-1.65183 -0.186806 3.87513 107 141 124
0.63439 -0.158986 3.51577 96 152 129
1.357 -0.143776 3.40513 112 149 115
1.02077 -0.14516 3.44328 97 129 105
1.42313 -0.135291 3.36513 37 44 29
0.992747 -0.130292 3.44662 85 128 95
1.42228 -0.121786 3.36497 135 185 161
0.960396 -0.124172 3.40254 237 255 251
0.622158 -0.12238 3.50529 142 196 166
1.38272 -0.116712 3.40274 42 54 42
1.38153 -0.119878 3.39101 46 62 44
0.986445 -0.115026 3.42005 115 171 130
0.995749 -0.104424 3.39793 200 235 215
1.44546 -0.103778 3.39465 160 219 188
1.45167 -0.0950334 3.37141 65 108 99
1.11804 -0.0837324 3.39524 103 148 129
0.987655 -0.0812311 3.43902 86 145 107
1.16753 -0.078343 3.3994 72 108 78
0.900452 -0.0740491 3.40799 41 60 39
0.898565 -0.0771791 3.39659 35 58 36
1.69082 -0.0753678 3.37325 218 243 239
1.21998 -0.0694388 3.40397 138 197 147
1.37233 -0.0679705 3.36907 74 109 99
0.574655 -0.058667 3.55699 124 171 169
1.03277 -0.0590802 3.42655 153 226 180
0.927561 -0.0551968 3.40736 138 224 176
0.545598 -0.0368169 3.55338 109 127 120
0.772067 -0.0329925 3.38556 112 175 136
0.773613 -0.0327079 3.38672 113 177 135
0.547853 -0.0335486 3.5655 116 132 125
0.189777 -0.029271 3.61356 88 137 123
1.10967 -0.0244762 3.38691 84 112 82
0.50452 -0.00731795 3.56366 90 111 102
0.519168 -0.00684698 3.56172 162 183 181
1.07398 0.00304977 3.39316 153 200 161
1.10835 0.00721359 3.38285 47 59 39
1.20065 0.00251367 3.3913 53 104 70
1.51823 0.0073751 3.32389 148 221 189
1.02672 0.0113624 3.41522 82 142 108
1.31634 0.0166968 3.32687 113 163 129
1.05343 0.0272476 3.42672 55 113 88
1.10565 0.0184537 3.36335 64 89 63
1.15868 0.030399 3.36999 211 255 232
-1.08892 0.0463332 3.80684 82 113 104
1.17673 0.0394121 3.32749 58 101 74
1.0502 0.0593295 3.42729 64 112 84
0.954463 0.0618869 3.45841 87 167 136
0.654646 0.0615299 3.49328 145 193 175
0.496176 0.0715589 3.57139 161 210 202
1.01935 0.0684635 3.42564 45 88 55
-0.172683 0.0832954 3.6792 107 167 159
1.44053 0.0762236 3.22772 175 234 214
1.03095 0.0905235 3.40892 122 184 144
1.02413 0.100768 3.42089 41 61 48
0.626588 0.11085 3.51652 63 72 51
1.07894 0.105353 3.41402 141 202 168
0.450658 0.117386 3.56188 119 140 138
0.793977 0.123721 3.41499 156 217 191
1.05676 0.122925 3.41739 35 46 30
1.23764 0.120031 3.31481 95 138 111
0.773065 0.13326 3.43284 37 45 38
0.718295 0.141835 3.43712 51 71 58
0.790621 0.136851 3.42642 45 64 43
1.21311 0.132505 3.33126 48 83 57
0.504897 0.145897 3.55848 91 124 120
0.655056 0.143517 3.48893 130 200 169
0.719024 0.144066 3.44378 34 54 42
0.911943 0.142698 3.4364 62 134 98
1.03264 0.143946 3.42866 183 255 220
0.769568 0.155379 3.41316 112 135 130
1.0265 0.152821 3.44353 53 127 99
0.633051 0.162716 3.50458 152 193 178
0.902158 0.161394 3.40372 59 117 92
1.16338 0.157521 3.34393 91 117 93
0.794953 0.162881 3.40722 55 73 50
1.21225 0.159679 3.32108 77 103 73
1.18588 0.164693 3.32508 174 212 184
1.03274 0.172511 3.41419 120 180 146
1.70831 0.171164 3.35246 107 129 124
1.06289 0.177298 3.39737 155 236 189
1.10365 0.180157 3.39113 175 244 199
0.787941 0.186984 3.44221 124 164 129
1.10781 0.198451 3.38677 140 237 187
1.12575 0.200013 3.38912 47 79 44
0.590071 0.224746 3.52729 105 139 128
0.526623 0.228515 3.54217 117 148 149
0.682163 0.233493 3.49846 124 186 168
0.805999 0.232488 3.43746 54 64 52
0.930829 0.227788 3.40146 48 60 40
-0.946257 0.251813 3.65032 233 247 245
0.78664 0.237697 3.44754 41 47 36
1.65446 0.234883 3.34411 91 112 120
0.527328 0.258496 3.54787 110 129 126
0.62341 0.252667 3.49346 81 115 109
0.640122 0.255216 3.48424 178 236 211
0.832991 0.246976 3.42728 182 255 219
0.784389 0.257023 3.4371 148 191 176
0.981882 0.254013 3.40229 52 93 66
1.10438 0.253219 3.38666 45 55 39
0.492339 0.284664 3.54742 190 230 225
1.33243 0.263623 3.28889 87 113 89
1.25657 0.270794 3.32482 174 225 187
1.29057 0.268748 3.32522 168 218 184
0.699856 0.287444 3.50011 72 104 93
0.594444 0.297158 3.49683 184 221 205
1.10008 0.287201 3.39804 107 179 133
1.29304 0.275092 3.28824 38 49 29
1.31865 0.275471 3.29454 159 217 188
0.470122 0.30646 3.55662 118 163 166
1.39423 0.285262 3.31162 152 193 166
1.64457 0.288524 3.31352 112 148 132
0.53425 0.315551 3.5641 107 123 116
0.605107 0.31125 3.49136 59 87 74
1.21316 0.300492 3.3308 153 217 175
1.37557 0.292701 3.29935 177 244 217
0.716433 0.309937 3.47514 151 203 186
1.3955 0.298995 3.30706 48 67 52
0.674076 0.32095 3.48959 90 129 114
0.806209 0.317404 3.44423 41 66 52
1.22411 0.312856 3.36246 36 61 41
0.396142 0.339492 3.56844 122 162 151
0.557209 0.336194 3.5455 171 198 202
0.714216 0.341123 3.47213 120 175 148
0.953416 0.334608 3.39548 169 244 198
1.78501 0.324508 3.32179 59 79 66
0.912094 0.345476 3.42604 128 198 162
0.447674 0.355222 3.54808 88 127 119
0.677892 0.348266 3.47583 118 191 169
1.08787 0.343702 3.4002 104 143 111
1.21942 0.339701 3.33737 44 66 64
1.24239 0.343083 3.34029 157 222 190
1.11127 0.356042 3.39426 38 77 61
1.27362 0.34479 3.31925 117 163 134
1.30673 0.348751 3.30245 146 199 155
1.34239 0.34422 3.30226 71 107 85
0.92101 0.363682 3.42785 49 62 48
0.968206 0.367941 3.41051 40 45 36
1.03641 0.364589 3.38566 147 228 183
0.726948 0.375114 3.45598 139 195 166
1.19116 0.374798 3.34921 170 243 197
1.27832 0.378307 3.32443 62 107 88
1.29019 0.371127 3.3184 110 181 154
1.29477 0.374709 3.32719 132 192 161
0.901447 0.392784 3.43179 126 222 181
0.608729 0.403457 3.5 57 76 59
0.642347 0.408699 3.4778 129 190 170
0.650482 0.424222 3.50267 140 172 161
0.919514 0.417322 3.42422 155 236 203
0.883102 0.419422 3.43234 179 241 219
0.0424506 0.443461 3.5564 132 197 176
0.601182 0.435947 3.49852 191 239 227
1.07298 0.428703 3.3754 161 232 189
-0.133882 0.477141 3.65558 96 167 151
0.640345 0.464723 3.49589 66 84 67
0.101801 -1.85831 3.68235 73 103 74
0.921548 -1.80415 3.6231 76 100 92
0.0812753 -1.81506 3.67189 105 174 154
1.15216 -1.7832 3.57726 56 73 60
-1.81706 -1.85243 3.74862 121 168 176
1.17218 -1.76282 3.59146 133 169 163
0.918242 -1.77186 3.6199 209 238 235
1.1728 -1.76356 3.59503 137 169 164
0.271723 -1.78178 3.66916 69 98 82
1.15175 -1.75484 3.59985 51 65 61
0.323475 -1.77483 3.66266 108 142 141
1.26313 -1.74698 3.60472 99 141 140
1.43324 -1.7328 3.57703 110 165 150
-1.8345 -1.79781 3.72409 111 139 139
1.41145 -1.72293 3.56963 103 154 140
1.52751 -1.72956 3.58811 73 125 108
1.09481 -1.72573 3.59058 67 92 82
1.52171 -1.72776 3.57956 101 160 140
0.038207 -1.76211 3.67885 82 122 110
0.868979 -1.72672 3.5994 93 112 109
0.311707 -1.75557 3.67784 172 226 219
1.01572 -1.71824 3.60482 53 77 65
0.966596 -1.71502 3.61518 167 235 210
1.68714 -1.6892 3.55423 105 158 149
1.37108 -1.70418 3.60393 78 126 114
1.51546 -1.69181 3.58132 70 110 98
-1.17798 -1.77517 3.77641 93 128 118
-1.10512 -1.76216 3.74544 110 140 121
0.0451277 -1.74172 3.69825 114 180 161
0.237822 -1.73433 3.68341 74 102 89
1.05051 -1.70085 3.61369 176 220 213
