ply
format ascii 1.0
element vertex 746
property float x
property float y
property float z
property uchar blue
property uchar green
property uchar red
end_header
0.716183 -1.32978 2.3839 53 103 85
0.641406 -1.25223 3.08515 154 209 190
0.589017 -1.27806 3.5219 108 164 143
0.617514 -0.81996 3.28211 255 221 178
0.602308 -0.825136 3.34142 109 61 13
0.663151 -0.578116 2.77764 204 249 223
0.690112 -0.47862 2.50567 151 218 197
0.728451 -0.317571 2.08507 232 244 246
0.430362 -0.560072 4.42317 69 129 119
1.98103 -0.338268 3.99694 138 134 129
0.68558 -0.142796 2.24556 121 126 117
0.329124 -0.0565497 4.98349 253 255 255
0.655863 -0.0534268 2.40025 87 119 162
-0.0415024 0.978607 7.89782 74 127 113
2.75194 -2.78632 -13.5552 243 255 255
1.93509 -1.3071 -6.18211 132 212 177
1.66169 -1.49509 -5.31169 166 226 216
1.71632 -1.68603 -5.84707 92 138 132
0 0 0 142 175 171
0.67737 -0.897698 2.19461 107 167 149
0.704765 -0.715623 1.89219 33 104 87
0.668937 -0.827149 2.27303 111 146 120
0.583714 -1.27503 3.52027 117 189 167
0.666543 -0.817585 2.28547 32 42 26
0.7846 -0.510066 1.86976 158 202 225
0.608647 -0.837314 3.33332 196 174 149
0.778954 -0.469977 1.89332 106 160 155
0.564069 -0.718113 3.57316 255 233 175
0.562891 -0.706023 3.57069 193 159 100
0.689505 -0.478428 2.50563 157 222 201
0.527784 -0.616503 3.78749 252 254 254
0.76044 -0.327502 1.89159 111 149 153
0.583653 -0.510021 3.30309 200 225 221
0.736315 -0.265668 1.98708 136 173 165
0.749509 -0.232917 1.84804 200 174 190
0.729968 -0.238192 1.96371 143 97 96
0.702359 -0.186153 2.15144 246 255 255
0.700688 -0.160967 2.16825 216 184 149
0.700231 -0.154702 2.1482 176 134 105
0.242131 -0.271955 5.64585 251 255 255
0.53698 -0.119984 3.465 77 131 124
0.690789 -0.0932055 2.15086 251 255 254
0.669626 -0.0780718 2.37258 250 255 254
0 0 0 234 253 255
2.58909 -5.0105 -15.266 169 205 205
0.720701 -1.33715 2.36904 129 175 146
0.752798 -1.20562 2.15261 71 136 120
0.698699 -1.40639 2.51509 204 189 143
0.746472 -0.854932 1.62096 99 173 145
0.758643 -0.786864 1.54343 23 88 72
0.744086 -0.840555 1.6648 73 118 91
0.761007 -0.775313 1.54592 71 138 111
0.736132 -0.807019 1.7088 62 154 135
0.730254 -0.798565 1.74117 111 174 148
0.719969 -0.826748 1.80655 41 84 69
0.727833 -0.777783 1.73752 75 142 121
0.711067 -0.823201 1.86575 103 185 163
0.710551 -0.817526 1.8746 51 104 90
0.722479 -0.745454 1.73546 21 64 51
0.677813 -0.919114 2.19253 77 146 131
0.673293 -0.921238 2.20925 124 201 173
0.680816 -0.910538 2.18719 116 169 155
0.671638 -0.925023 2.24514 56 69 55
0.677585 -0.89768 2.19501 128 191 171
0.687419 -1.14086 2.79093 138 185 183
0.748335 -0.654739 1.60826 108 187 166
0.74128 -0.671673 1.67242 4 77 67
0.665383 -0.908239 2.27527 118 159 138
0.679371 -1.11792 2.81698 53 76 71
0.678903 -1.10972 2.8036 126 167 159
0.707045 -0.74204 1.90161 110 169 154
0.699687 -0.752483 1.95053 3 42 34
0.704731 -0.732784 1.9042 10 52 35
0.707778 -0.720288 1.88797 100 200 170
0.716857 -0.688405 1.81964 94 134 116
0.701868 -0.72566 1.9388 35 53 40
0.709953 -0.696389 1.86259 103 143 125
0.745707 -0.608878 1.63652 52 96 89
0.685014 -0.739589 2.06971 92 178 154
0.666399 -0.810273 2.27301 115 169 146
0.653624 -0.841492 2.37448 52 72 60
0.834121 -0.4985 1.4951 75 111 95
0.701097 -0.612905 1.90598 131 187 168
0.697906 -0.612228 1.91836 130 199 178
0.813003 -0.494715 1.62613 97 157 133
0.78488 -0.510012 1.86987 158 202 225
0.759546 -0.508567 2.03505 125 161 145
0.729907 -0.566733 2.30661 227 194 144
0.726385 -0.560328 2.29135 125 63 25
0.72776 -0.558394 2.28589 213 167 133
0.742883 -0.524444 2.1798 31 80 60
0.730404 -0.538766 2.27737 42 101 81
0.569691 -0.817356 3.54133 216 207 174
0.725904 -0.53834 2.31261 38 107 92
0.734026 -0.510886 2.2206 99 184 156
0.731801 -0.512724 2.23458 66 119 105
0.403273 -1.07892 4.83932 161 228 201
0.731062 -0.512826 2.25021 160 236 205
0.785742 -0.415537 1.77499 67 129 107
0.700127 -0.567255 2.51443 54 85 82
0.774752 -0.426848 1.85141 237 255 249
0.714414 -0.530754 2.36214 89 141 118
0.791101 -0.394715 1.71838 133 191 167
0.70746 -0.524923 2.40613 152 219 188
0.768414 -0.422725 1.89547 145 145 145
0.666282 -0.599701 2.79527 100 129 114
0.708262 -0.519148 2.40028 12 82 51
0.66628 -0.599081 2.80023 98 133 113
0.784061 -0.38337 1.75409 134 181 159
0.715297 -0.491936 2.34585 86 134 110
0.563205 -0.728299 3.57501 174 138 90
0.564811 -0.727705 3.58268 197 157 108
0.567363 -0.716258 3.54552 149 65 13
0.699269 -0.499908 2.438 61 88 79
0.65732 -0.546345 2.81569 216 246 251
0.686118 -0.481932 2.52179 191 220 229
0.690153 -0.478143 2.50686 150 221 195
0.7086 -0.440721 2.33431 70 132 118
0.539764 -0.665843 3.71471 217 187 146
0.552283 -0.652435 3.6279 142 123 108
0.697833 -0.446081 2.429 160 242 189
0.565896 -0.610398 3.50729 188 175 131
0.690227 -0.433911 2.48113 139 216 179
0.772078 -0.317126 1.75197 106 149 122
0.743028 -0.360138 2.062 179 240 226
0.528764 -0.61603 3.79203 252 254 254
0.6934 -0.402385 2.41222 101 152 144
0.694774 -0.401598 2.4152 97 161 155
0.721566 -0.34796 2.19596 253 253 253
0.753611 -0.301337 1.91482 255 254 255
0.696205 -0.351587 2.36627 79 112 127
0.768343 -0.278389 1.75278 119 158 143
0.725672 -0.317003 2.10943 229 247 248
0.695539 -0.347768 2.38275 105 129 147
0.681569 -0.357838 2.50545 169 229 195
0.688437 -0.332599 2.39878 111 135 155
0.743569 -0.280119 1.96862 253 255 255
0.684295 -0.331984 2.43651 83 109 126
0.76017 -0.262078 1.80879 227 240 232
0.712897 -0.302663 2.1926 252 255 250
0.116123 -0.806461 6.73807 74 129 110
0.734447 -0.27184 1.99763 253 255 255
0.670534 -0.322292 2.51831 156 211 184
0.736439 -0.265459 1.98772 145 182 174
0.755529 -0.243204 1.81995 84 84 68
0.66284 -0.311362 2.56086 42 77 73
0.717006 -0.260693 2.1085 244 255 255
0.713602 -0.261656 2.14935 208 245 249
0.737943 -0.241746 1.93493 251 250 252
-0.0254654 -0.807301 7.76451 255 254 255
0.713564 -0.253341 2.13685 176 172 154
0.739532 -0.230119 1.91463 250 255 255
0.472162 -0.427502 4.1621 82 138 125
0.61431 -0.311108 2.99613 168 230 216
0.673264 -0.258758 2.44906 54 100 101
0.58693 -0.296607 3.16472 95 144 128
0.700379 -0.206313 2.24714 255 254 255
0.706012 -0.200556 2.14899 122 156 192
0.691842 -0.202048 2.27266 117 141 141
0.706967 -0.195573 2.18123 242 253 255
0.444321 -0.320583 4.22121 65 126 98
0.690705 -0.199574 2.26267 255 254 255
0.692533 -0.197983 2.25374 255 254 255
0.312154 -0.380032 5.22173 54 116 110
0.0293549 -0.498807 7.25971 251 253 253
0.690084 -0.166643 2.23513 101 133 139
0.591086 -0.199718 3.04809 239 255 255
0.700624 -0.160987 2.16823 216 184 149
0.692135 -0.153724 2.26896 166 219 216
0.364083 -0.253506 4.7654 70 89 122
0.220441 -0.286514 5.8971 96 156 132
0.364484 -0.233493 4.77768 64 104 116
0.669821 -0.135502 2.36562 251 255 255
0.6951 -0.130184 2.18829 197 168 124
0.250915 -0.161495 5.55014 254 253 255
0.162713 -0.11744 6.2813 56 86 75
0.345413 -0.0639002 4.92612 37 84 82
0.331338 -0.0576461 4.97359 253 255 255
0.0898302 -0.0533291 6.73363 144 204 186
0.0279411 0.0233061 7.16073 141 207 195
-0.0711108 0.0366135 7.89868 164 218 195
0.653161 -0.0313521 2.43644 49 59 113
0.655242 -0.0305216 2.41598 53 79 116
0.103433 0.0626989 6.6867 161 209 210
0.657869 -0.0053315 2.34951 102 126 150
0.118276 0.323717 6.52531 253 255 255
0 0 0 250 255 254
6.04863 -4.54479 -37.3125 253 255 255
-0.331136 1.22233 10.0072 85 134 160
-0.337484 1.26709 10.213 65 124 140
0.347766 0.782127 4.94459 62 121 106
-4.38697 7.2186 42.291 208 255 241
-1.10559 3.00751 16.6058 86 138 128
2.90323 -3.48038 -15.3435 97 110 124
4.47004 -6.6825 -28.2914 48 119 99
0 0 0 251 255 254
1.49985 -0.886338 -3.68922 71 101 90
1.60633 -1.12555 -4.54815 69 92 78
0 0 0 53 94 87
2.4263 -3.2497 -11.9443 94 121 111
1.65214 -1.43177 -5.1837 75 95 83
0 0 0 98 104 117
1.7236 -1.79443 -6.11327 127 190 180
1.69306 -1.75887 -5.81272 145 205 194
1.67765 -1.7554 -5.74393 126 192 163
2.5216 -4.34189 -13.9851 158 173 182
2.34134 -4.05503 -12.5897 168 202 208
1.61763 -1.74244 -5.40365 57 91 84
1.63411 -1.79008 -5.54619 81 98 95
2.57116 -4.97809 -15.1443 168 206 206
1.41828 -1.05085 -3.24556 248 255 255
1.51613 -1.6477 -4.68164 75 108 94
1.65811 -2.52598 -6.7777 76 117 109
1.37524 -1.37827 -3.45392 60 127 96
1.33904 -1.38016 -3.24359 54 124 107
0.695958 -1.40528 2.50337 236 235 209
0.69494 -1.40803 2.52583 58 74 50
0.686045 -1.44645 2.59705 119 185 156
0.746686 -0.844992 1.64264 39 75 63
0.758772 -0.78691 1.54311 23 79 66
0.736675 -0.853361 1.693 106 208 173
0.740318 -0.849248 1.68812 87 193 164
0.715595 -0.881831 1.82701 79 160 135
0.705766 -0.907229 1.88237 74 126 108
0.725765 -0.855179 1.77977 38 79 71
0.70674 -0.903045 1.87861 34 68 51
0.753752 -0.74105 1.56508 106 174 149
0.725292 -0.835138 1.78241 111 188 167
0.732431 -0.78577 1.71353 111 166 149
0.728617 -0.779426 1.72893 86 170 146
0.71766 -0.822782 1.83235 63 122 108
0.73671 -0.732047 1.65085 45 115 98
0.706468 -0.834187 1.90928 41 70 61
0.685876 -0.903533 2.14139 98 137 112
0.683891 -0.882181 2.10509 40 72 55
0.707296 -0.785966 1.88495 38 58 46
0.66977 -0.929079 2.23189 129 191 145
0.704298 -0.801366 1.9325 74 122 104
0.707519 -0.781308 1.89182 114 151 131
0.747963 -0.662769 1.61574 92 160 137
0.638375 -1.26074 3.11224 91 121 102
0.698433 -0.790128 1.96019 91 150 130
0.665383 -0.908239 2.27527 118 159 138
0.678614 -1.11779 2.81384 53 80 70
0.74543 -0.637623 1.61997 114 188 162
0.671336 -1.12108 2.86853 102 119 138
0.662401 -0.894947 2.30479 112 131 104
0.705187 -0.732707 1.90468 10 45 31
0.705498 -0.722044 1.90481 37 81 68
0.651458 -0.871341 2.37238 136 175 154
0.68776 -0.751694 2.04556 89 143 126
0.719599 -0.659718 1.79027 120 170 152
0.803789 -0.556988 1.51417 67 90 75
0.665059 -0.828476 2.28968 38 42 31
0.640312 -0.889072 2.5097 117 161 122
0.805047 -0.544507 1.50988 106 158 128
0.72006 -0.635289 1.81382 83 141 117
0.678511 -0.733792 2.11326 98 145 129
0.680888 -0.728545 2.10504 33 50 37
0.697083 -0.669228 1.94165 121 190 169
0.813668 -0.49425 1.62768 99 157 132
0.62163 -0.865597 3.21034 150 143 123
0.802871 -0.440895 1.64619 145 178 163
0.813857 -0.411121 1.55315 95 133 127
0.759366 -0.50861 2.03493 125 161 145
0.748187 -0.520624 2.13557 104 182 159
0.742264 -0.524862 2.17784 38 79 52
0.754578 -0.49474 2.06616 50 97 75
0.771825 -0.45908 1.92369 81 105 95
0.718044 -0.536681 2.34132 124 199 177
0.731328 -0.513433 2.23409 57 92 78
0.733807 -0.510994 2.22013 122 205 180
0.785911 -0.416158 1.77414 105 163 139
0.740019 -0.496553 2.1712 54 102 78
0.700202 -0.566664 2.51838 63 99 107
0.78899 -0.388039 1.70568 123 183 152
0.766432 -0.426595 1.91136 144 161 148
0.77002 -0.421663 1.8989 121 102 99
0.666035 -0.599333 2.79836 98 133 113
0.792738 -0.372247 1.65275 121 146 126
0.77975 -0.3482 1.72356 67 94 84
0.697396 -0.446518 2.42698 159 243 195
0.765394 -0.346949 1.83916 70 103 112
0.775987 -0.330488 1.7283 72 92 79
0.701957 -0.426159 2.37333 250 255 254
0.747583 -0.363071 2.01865 240 255 250
0.767022 -0.331657 1.81578 216 243 227
0.498291 -0.667363 4.03183 82 126 120
0.503194 -0.660086 3.98755 153 210 219
0.506108 -0.657916 4.01361 164 215 225
0.524499 -0.614417 3.79277 254 253 255
0.454328 -0.688132 4.3416 90 111 102
0.764177 -0.308064 1.83967 96 109 107
0.721259 -0.348123 2.19547 255 255 255
0.760631 -0.301601 1.83435 145 195 185
0.743189 -0.31242 1.97455 232 255 240
0.762059 -0.292482 1.80216 255 254 254
0.412231 -0.655712 4.57026 125 173 167
0.758249 -0.292502 1.86684 255 255 255
0.676247 -0.365211 2.52091 67 105 99
0.537531 -0.505027 3.70001 84 130 141
0.699562 -0.336842 2.32236 227 239 243
0.722933 -0.313743 2.14612 84 127 112
0.688179 -0.332382 2.39893 128 147 168
0.683989 -0.332065 2.43634 83 109 126
0.691934 -0.330291 2.40567 183 201 230
0.702446 -0.320041 2.3268 42 93 79
0.75916 -0.261394 1.80954 229 249 237
0.668749 -0.334005 2.57644 70 86 85
0.673491 -0.322277 2.50751 72 88 77
0.751624 -0.243677 1.83755 104 127 122
0.747768 -0.247386 1.89911 250 255 255
0.733274 -0.245682 1.94496 171 113 107
0.671962 -0.290063 2.50169 37 96 82
0.682442 -0.263667 2.36876 246 253 250
0.596343 -0.32099 3.17754 215 250 240
0.44231 -0.379113 4.27798 250 255 255
0.702527 -0.215234 2.24706 78 77 73
0.631226 -0.245635 2.77682 234 255 255
0.698282 -0.210228 2.25385 252 255 253
0.637532 -0.233882 2.7063 77 115 119
0.682788 -0.205055 2.34042 250 255 253
0.68781 -0.198831 2.29134 88 119 116
0.581074 -0.252731 3.23745 254 253 255
0.0294061 -0.501364 7.26326 253 255 255
0.58993 -0.232675 3.14073 255 255 255
0.692703 -0.187349 2.27024 248 255 255
0.701241 -0.17194 2.14156 103 109 108
0.692404 -0.172345 2.2106 255 255 254
0.698075 -0.156462 2.17075 214 170 123
0.560628 -0.189968 3.31273 73 123 113
0.689199 -0.14943 2.22809 203 180 154
0.562335 -0.185746 3.33123 81 126 117
0.220267 -0.282578 5.9311 79 146 125
0.695255 -0.138695 2.16341 254 204 152
0.686873 -0.12738 2.27156 215 247 230
0.253792 -0.164742 5.53921 255 255 250
0.53613 -0.122845 3.45841 76 135 127
0.672417 -0.0869924 2.29426 227 255 245
0.142488 -0.121944 6.38057 121 196 180
0.662056 -0.0791557 2.3853 71 123 99
0.682586 -0.0772742 2.20991 255 255 254
0.0903272 -0.0495273 6.76125 139 198 178
0.655023 -0.0473623 2.43235 52 74 132
0.0750847 0.023342 6.87305 135 178 167
0.651596 -0.0329191 2.43263 43 60 117
0.108229 0.0346707 6.67213 54 73 70
0.158118 0.0609909 6.27992 238 254 247
0.505928 0.0164797 3.66283 251 255 255
0.651268 -0.00950997 2.41988 73 101 155
0.659819 -0.0117905 2.335 254 254 254
0.65103 0.00530131 2.42686 184 220 238
0.654984 0.00351661 2.40662 143 188 162
-2.45682 1.40615 25.4318 74 97 92
0.0120355 0.73939 7.38052 216 255 252
-0.0202953 0.968466 7.73056 70 115 106
-0.0825568 1.06609 8.349 229 255 255
4.67818 -4.07057 -27.5811 47 116 113
0.310089 1.13505 5.43715 86 136 159
4.54145 -6.39496 -28.7213 255 255 255
0.258925 1.32825 5.99943 66 88 69
0 0 0 255 255 255
1.50614 -0.89306 -3.74146 145 193 187
1.5407 -0.97123 -4.0039 143 207 185
2.18277 -2.69083 -10.0378 178 228 224
2.46099 -3.28262 -12.115 94 120 107
2.26049 -3.05309 -10.8289 172 201 192
1.6756 -1.54361 -5.44482 159 228 218
1.60772 -1.40531 -4.87507 252 254 254
1.7604 -1.83644 -6.28651 54 65 63
4.53211 -9.46632 -31.9642 124 134 141
4.52374 -9.30327 -31.2987 254 254 254
2.46187 -4.03843 -13.2916 190 219 228
2.5074 -4.15168 -13.6168 120 134 140
0 0 0 94 103 123
2.46444 -4.09514 -13.3771 114 146 152
0 0 0 88 93 94
1.71675 -1.87267 -6.02437 92 151 120
1.63889 -1.71124 -5.42757 236 255 255
2.32137 -4.02611 -12.4727 158 196 201
2.7724 -5.59827 -17.0839 85 122 112
2.57229 -4.97974 -15.1504 168 206 206
1.51035 -1.45059 -4.40107 220 254 248
1.38707 -1.00836 -3.00369 255 255 255
1.4647 -1.53743 -4.20769 193 240 232
1.40804 -1.55443 -3.92762 93 118 134
1.35225 -1.45227 -3.42122 106 177 160
0.66873 -1.52949 2.75742 83 135 118
0.695509 -1.38834 2.57066 134 195 181
0.748049 -0.853796 1.61659 95 176 149
0.72777 -0.93931 1.78146 55 107 89
0.688494 -1.40419 2.63577 135 196 182
0.694634 -1.3956 2.61844 99 151 134
0.744754 -0.897084 1.71211 106 205 173
0.723496 -0.996598 1.94084 129 179 155
0.747097 -0.838749 1.64162 102 186 151
0.738879 -0.871059 1.70751 66 163 136
0.737813 -0.861128 1.70269 29 74 65
0.756323 -0.784567 1.55601 48 115 100
0.715929 -0.923957 1.834 38 57 54
0.734958 -0.835015 1.70187 90 171 152
0.714251 -0.882088 1.82309 89 172 150
0.726417 -0.854829 1.78062 30 82 72
0.72855 -0.816578 1.73891 105 191 157
0.725893 -0.835117 1.78335 109 181 159
0.714134 -0.8415 1.8485 84 156 136
0.672655 -1.03773 2.30792 124 168 137
0.730021 -0.749522 1.69831 76 193 162
0.726128 -0.758168 1.72142 107 198 172
0.721156 -0.752372 1.74324 100 200 170
0.724099 -0.747289 1.73687 21 56 42
0.703212 -0.826944 1.93144 43 74 65
0.68688 -0.884007 2.08877 97 135 117
0.726834 -0.732859 1.72729 75 134 114
0.684699 -0.903559 2.14059 108 153 120
0.706678 -0.809334 1.92433 107 178 161
0.67043 -0.940601 2.25561 39 40 30
0.670011 -0.929079 2.23198 128 192 146
0.693447 -0.836793 2.02315 114 134 115
0.671874 -1.1772 2.86101 97 154 139
0.686837 -0.856039 2.0836 39 39 33
0.668198 -0.948257 2.31 41 47 36
0.659406 -1.2183 2.97403 52 72 49
0.676102 -0.903435 2.25449 120 157 125
0.812994 -0.595467 1.46671 106 148 131
0.710835 -0.734598 1.83865 89 160 134
0.675054 -1.13262 2.8467 122 154 149
0.673546 -1.13264 2.84842 95 131 125
0.677419 -1.11802 2.82059 51 75 67
0.745693 -0.647135 1.62908 49 74 60
0.816678 -0.575909 1.45499 73 92 75
0.707963 -0.742244 1.90572 77 135 117
0.667188 -0.886675 2.28686 30 31 22
0.704803 -0.740906 1.91215 57 119 95
0.711234 -0.71561 1.84452 70 135 113
0.712939 -0.705636 1.81669 75 139 120
0.670431 -1.11568 2.88347 103 128 124
0.609214 -1.2892 3.33681 79 122 101
0.699706 -0.747742 1.94349 105 190 162
0.747445 -0.617714 1.61907 111 213 178
0.667417 -1.08611 2.89499 195 210 178
0.656337 -0.873807 2.35152 32 40 29
0.661721 -0.85316 2.31182 93 117 99
0.692933 -0.740064 2.01647 71 94 79
0.672125 -0.822134 2.24797 80 95 68
0.665708 -0.824405 2.26894 102 143 112
0.66639 -0.830682 2.29212 41 47 36
0.650388 -0.842372 2.39028 32 39 24
0.68644 -0.726127 2.06367 103 133 120
0.681289 -0.728449 2.10573 38 55 42
0.70238 -0.647098 1.918 20 47 38
0.655904 -0.946178 2.99494 168 142 112
0.808584 -0.478641 1.63584 60 91 70
0.617733 -0.878697 3.26043 131 112 77
0.805701 -0.452011 1.62439 130 189 158
0.422633 -1.22229 4.73273 91 163 140
0.797935 -0.449732 1.69246 109 141 124
0.803142 -0.431558 1.65128 68 84 73
0.800129 -0.428366 1.65884 150 165 134
0.798276 -0.436478 1.69058 168 187 168
0.74136 -0.521337 2.15799 76 136 105
0.759528 -0.485156 2.01102 70 139 118
0.777209 -0.456757 1.87637 139 138 158
0.737734 -0.521051 2.18128 120 204 162
0.772694 -0.459024 1.9257 85 101 100
0.792814 -0.408694 1.69179 255 255 248
0.732966 -0.525113 2.2486 121 186 160
0.72166 -0.543279 2.34881 50 104 87
0.722425 -0.543265 2.34848 63 118 101
0.732332 -0.519364 2.23529 45 70 56
0.701357 -0.571655 2.49077 74 98 88
0.678396 -0.62319 2.75907 90 150 120
0.713433 -0.53615 2.34094 152 226 196
0.73305 -0.510094 2.22494 105 183 159
0.737235 -0.507336 2.20271 45 93 67
0.777139 -0.432162 1.84675 129 143 137
0.785857 -0.416202 1.77401 105 163 139
0.674454 -0.615175 2.74269 112 167 134
0.791075 -0.399142 1.70125 54 84 59
0.689623 -0.581634 2.63067 227 203 175
0.67544 -0.589339 2.7203 125 174 152
0.678449 -0.581079 2.6701 92 151 130
0.684285 -0.574302 2.63934 34 67 53
0.706343 -0.526486 2.42267 73 128 101
0.696334 -0.534992 2.50688 57 124 109
0.793167 -0.371907 1.65366 131 159 140
0.789814 -0.375531 1.68807 160 218 193
0.790733 -0.371831 1.67296 90 120 109
0.423463 -0.923073 4.57105 68 96 76
0.736892 -0.456512 2.16289 215 246 231
0.650741 -0.568534 2.88417 107 158 138
0.702993 -0.46014 2.38304 70 121 93
0.771799 -0.369185 1.85165 112 151 149
0.687249 -0.467149 2.52027 156 225 188
0.770852 -0.353712 1.83641 198 232 221
0.543881 -0.663357 3.71065 213 170 121
0.404368 -0.841579 4.77957 76 117 89
0.568205 -0.616797 3.52257 91 82 48
0.691975 -0.439487 2.46643 195 228 221
0.634044 -0.510543 2.93643 255 255 255
0.691501 -0.428941 2.43207 144 221 187
0.705136 -0.418884 2.37609 65 119 106
0.753841 -0.356049 1.94937 88 115 149
0.743484 -0.366148 2.055 252 254 254
0.771455 -0.322368 1.78316 96 98 92
0.773287 -0.314428 1.7392 49 64 56
0.475876 -0.681495 4.16013 70 98 75
0.524455 -0.614152 3.79567 250 255 253
0.760243 -0.328554 1.87449 76 130 117
0.544699 -0.590722 3.67699 117 192 164
0.770129 -0.297734 1.75563 66 84 77
0.432693 -0.659853 4.44891 246 255 255
0.698687 -0.374726 2.38535 87 120 123
0.767515 -0.290035 1.74504 76 112 96
0.712731 -0.339676 2.21387 251 253 253
0.702194 -0.351853 2.35231 173 214 209
0.758706 -0.292257 1.86738 255 255 255
0.508897 -0.541499 3.90306 254 251 253
0.676715 -0.364956 2.52183 69 108 100
0.677689 -0.361944 2.48546 253 255 255
0.699783 -0.333248 2.32736 245 254 255
0.752451 -0.280797 1.86544 253 255 254
0.67103 -0.357928 2.56281 53 67 56
0.680033 -0.345188 2.48246 61 99 77
0.749837 -0.268015 1.91367 250 255 255
0.747124 -0.265805 1.90008 237 254 245
0.669716 -0.33424 2.57479 65 81 80
0.732751 -0.26399 1.99288 136 188 171
0.745396 -0.241318 1.87835 80 96 89
0.676439 -0.292136 2.46412 53 90 80
0.689424 -0.28216 2.36107 61 93 112
0.739847 -0.242475 1.93836 239 241 242
0.681009 -0.27844 2.45437 250 252 253
0.732066 -0.234229 1.95772 255 255 233
0.739869 -0.229449 1.90681 253 254 252
0.705509 -0.249208 2.19949 255 211 157
0.127173 -0.57717 6.62227 234 255 248
0.702938 -0.226221 2.22322 214 184 137
0.642548 -0.235613 2.68046 73 109 109
0.698173 -0.210474 2.25306 251 255 254
0.692687 -0.200236 2.26866 172 172 178
0.310975 -0.382289 5.20351 57 117 106
0.686909 -0.197059 2.31759 255 255 255
0.692756 -0.171932 2.21174 255 255 254
0.68494 -0.161258 2.27563 240 255 254
0.700916 -0.157132 2.17312 205 166 121
0.21936 -0.285322 5.90793 67 126 105
0.27979 -0.240586 5.41454 48 91 80
0.553448 -0.159862 3.34976 58 96 96
0.544402 -0.155255 3.41597 247 255 254
0.554013 -0.144701 3.34727 190 241 237
0.381428 -0.167765 4.62485 255 255 254
0.680695 -0.110712 2.25994 255 255 255
0.683252 -0.104284 2.23146 254 253 255
-0.057731 -0.212035 7.9678 98 149 129
0.679833 -0.0912287 2.27514 251 255 255
0.20573 -0.123085 5.86939 75 111 81
0.338906 -0.0959845 4.9693 68 116 118
0.666915 -0.0776291 2.36967 253 255 254
0.663602 -0.0601203 2.41631 86 95 129
0.0459505 0.0213734 7.07449 134 195 185
0.145848 0.0195435 6.34604 81 106 96
0.654718 -0.0331883 2.43758 68 53 115
0.0931354 0.0533331 6.65335 122 166 189
0.630346 -0.00652239 2.63535 255 255 255
0.645957 -0.0132777 2.48392 255 255 255
0.651374 0.00386326 2.42241 205 240 243
0.217937 0.213969 5.84529 251 255 255
0 0 0 68 103 89
0.364985 0.445456 4.75032 226 255 255
0.496434 0.374702 3.61136 74 121 143
4.05481 -2.86801 -22.5358 65 107 84
0.464022 0.492798 3.92392 117 153 177
0 0 0 255 255 254
0 0 0 228 248 249
0.421819 0.765058 4.37971 138 162 208
1.844 -1.26965 -5.81523 93 170 132
2.89172 -3.4734 -15.302 92 103 111
1.5515 -0.917536 -4.02886 115 194 161
1.47629 -0.791657 -3.47209 163 220 217
-1.08417 3.99183 17.353 253 255 255
1.49189 -0.817795 -3.53702 178 224 241
1.56163 -1.01895 -4.21362 74 98 86
1.51412 -0.962224 -3.86897 89 128 107
2.7185 -3.60505 -14.1527 98 164 152
-3.11942 9.40972 36.1514 255 254 254
1.75529 -1.83351 -6.26489 65 74 77
0 0 0 209 243 255
1.70813 -1.74083 -5.93768 179 226 234
4.80118 -9.97571 -33.8714 104 118 130
2.45888 -4.0391 -13.2953 115 134 142
3.92501 -8.11581 -26.673 132 137 136
2.91208 -5.42525 -17.6228 151 148 157
1.6932 -1.93231 -6.05199 36 92 71
1.71165 -2.06652 -6.31914 255 254 254
2.40921 -4.7452 -13.981 223 251 252
1.37398 -1.41735 -3.4987 78 111 97
1.35822 -1.35084 -3.3216 251 255 255
0.693625 -1.38811 2.57597 113 177 158
0.698063 -1.37048 2.55438 60 108 90
0.746199 -0.829146 1.6222 81 148 127
0.737752 -0.861159 1.70233 34 68 61
0.745996 -0.825394 1.63254 74 157 135
0.730529 -0.87405 1.73773 49 95 82
0.729066 -0.852229 1.74002 56 103 87
0.732471 -0.83377 1.70745 111 183 163
0.738499 -0.820567 1.68265 87 145 127
0.76102 -0.751831 1.53101 66 160 136
0.740971 -0.819967 1.68828 74 141 120
0.713593 -0.887739 1.8332 70 131 111
0.710752 -0.893166 1.85157 54 100 87
0.7301 -0.801942 1.73246 66 135 115
0.730867 -0.765695 1.7041 46 148 123
0.722536 -0.80996 1.82302 24 34 28
0.675696 -1.02531 2.31529 57 87 76
0.707576 -0.832178 1.882 120 197 176
0.727333 -0.750497 1.69991 98 199 174
0.712415 -0.800286 1.83884 92 144 126
0.70911 -0.822368 1.90317 53 79 66
0.696835 -0.851274 2.00086 76 91 77
0.686005 -0.883266 2.08871 93 135 112
0.673244 -0.916083 2.19061 92 166 148
0.708657 -0.785825 1.88408 36 50 39
0.679434 -0.910028 2.18593 113 167 154
0.682386 -1.15181 2.79792 75 89 77
0.703064 -0.781278 1.90059 90 149 128
0.685538 -0.854804 2.09138 40 45 30
0.746018 -0.669999 1.64226 76 152 134
0.758789 -0.630797 1.55955 61 117 106
0.668674 -0.900421 2.24749 89 108 87
0.736261 -0.66615 1.6729 61 137 119
0.746539 -0.644793 1.61721 71 146 130
0.747057 -0.635934 1.60778 57 95 77
0.708565 -0.70534 1.84626 119 205 181
0.729043 -0.651141 1.70455 51 93 75
0.686114 -0.770046 2.06307 82 109 89
0.699427 -0.718069 1.93743 39 47 37
0.801731 -0.569543 1.52179 95 158 126
0.713594 -0.669342 1.81081 35 42 35
0.726071 -0.63675 1.74504 96 158 142
0.663319 -0.804508 2.27888 121 159 129
0.71624 -0.621734 1.81514 26 83 62
0.721677 -0.603626 1.80137 44 69 55
0.805518 -0.480479 1.63932 57 89 70
0.787538 -0.51017 1.82822 49 63 57
0.798548 -0.454476 1.68097 79 101 83
0.777487 -0.490177 1.89566 115 171 158
0.798343 -0.430222 1.6478 68 81 67
0.7713 -0.481151 1.9119 78 136 125
0.798088 -0.422963 1.68344 57 86 53
0.773944 -0.465414 1.89331 230 254 252
0.740421 -0.521275 2.15882 49 108 77
0.754089 -0.499609 2.07472 46 72 58
0.767866 -0.466392 1.92416 146 224 207
0.770628 -0.465617 1.92611 198 232 225
0.773393 -0.460284 1.89395 253 255 255
0.774916 -0.449666 1.8574 255 254 255
0.728245 -0.528979 2.26776 97 168 141
0.764766 -0.456568 1.92551 65 94 79
0.701805 -0.558832 2.44284 49 68 53
0.676157 -0.62258 2.7618 55 107 77
0.705406 -0.569532 2.51599 131 169 157
0.772739 -0.428375 1.85924 227 228 226
0.43403 -0.98513 4.5635 131 200 180
0.68182 -0.57522 2.63412 45 59 47
0.788887 -0.383202 1.68974 46 59 45
0.648019 -0.636164 2.94922 98 134 128
0.767765 -0.430774 1.92518 127 127 121
0.788629 -0.378004 1.68074 123 171 153
0.770053 -0.42219 1.93228 77 125 101
0.441636 -0.933045 4.50581 108 166 148
0.561199 -0.722999 3.54387 255 213 159
0.784469 -0.367697 1.69889 50 61 41
0.716597 -0.47241 2.30202 146 202 189
0.772393 -0.389799 1.86475 101 149 137
0.416679 -0.880194 4.62939 129 213 178
0.691499 -0.474918 2.43809 64 83 68
0.701234 -0.45829 2.39724 67 112 85
0.693304 -0.47396 2.49314 55 93 71
0.405594 -0.841485 4.78141 85 134 106
0.76501 -0.346045 1.85127 126 150 162
0.503724 -0.689424 4.04276 121 158 148
0.774844 -0.325024 1.72931 34 58 40
0.445044 -0.7298 4.43862 120 188 165
0.683717 -0.425775 2.49227 73 111 99
0.76679 -0.325682 1.81426 74 102 96
0.533141 -0.602046 3.73126 92 132 121
0.76495 -0.318779 1.83776 125 162 158
0.449761 -0.690848 4.33473 82 115 101
0.548475 -0.581746 3.63094 67 91 83
0.696806 -0.368079 2.36975 252 253 255
0.504211 -0.540835 3.90828 210 229 226
0.677746 -0.361564 2.48718 255 254 255
0.669415 -0.349578 2.58101 67 91 81
0.738207 -0.275838 2.03166 235 232 255
0.736368 -0.265157 1.95686 118 150 149
0.68287 -0.300344 2.43552 104 141 137
0.676438 -0.285896 2.4507 255 255 255
0.711721 -0.2574 2.12673 86 79 76
0.721921 -0.24552 2.04341 200 187 195
0.72728 -0.239275 1.96093 161 104 103
0.732984 -0.233966 1.97466 190 166 160
0.673456 -0.260184 2.44175 81 115 114
0.714645 -0.209781 2.09085 90 76 82
0.631643 -0.24452 2.75456 253 255 255
0.70241 -0.168063 2.1523 68 68 54
0.687658 -0.15806 2.24122 92 80 86
0.67355 -0.146154 2.35647 255 255 255
0.250157 -0.12533 5.53415 255 255 254
0.140908 -0.0946204 6.35587 97 123 105
0.0696919 0.0168558 6.85997 113 148 138
0.140448 0.020088 6.36628 67 80 72
0.103458 0.0330999 6.66957 64 81 77
0.65056 -0.0167209 2.42045 93 114 166
4.95167 -5.5271 -30.4196 255 254 255
2.8572 -2.63201 -13.1718 98 97 106
1.91642 -1.27767 -6.20248 151 220 209
1.55186 -0.917475 -4.03059 109 191 156
1.53921 -0.93875 -4.00453 70 85 64
1.50578 -0.859416 -3.69355 123 189 184
1.51269 -0.909815 -3.79621 74 87 71
2.51729 -2.95669 -12.1832 56 91 81
1.51083 -0.910458 -3.783 83 94 78
2.42085 -2.87373 -11.6761 142 190 196
1.55542 -1.03601 -4.18298 188 230 235
4.24684 -6.56506 -26.2749 60 63 61
2.94633 -3.94627 -15.7378 147 216 205
1.48326 -0.90465 -3.62518 92 125 118
3.48426 -5.59305 -20.4354 212 217 218
2.09157 -2.77166 -9.56095 69 87 70
2.49178 -4.03182 -13.5325 104 104 104
0 0 0 252 254 254
3.85651 -8.04932 -26.2119 119 127 120
5.04263 -11.4982 -37.3237 253 255 255
0 0 0 82 103 104
0 0 0 148 205 220
1.63921 -1.71302 -5.44978 188 215 219
0 0 0 253 255 255
1.62507 -1.73648 -5.41572 96 125 116
1.61978 -1.76904 -5.43117 152 219 210
2.73743 -5.52395 -16.8109 112 141 138
1.71294 -2.06153 -6.30259 241 244 242
1.69999 -2.05263 -6.18701 255 254 255
1.52438 -1.65899 -4.7125 85 99 93
1.41788 -1.54627 -3.9289 91 124 120
1.39205 -1.66443 -4.01793 253 255 255
