ply
format ascii 1.0
element vertex 1303
property float x
property float y
property float z
property uchar blue
property uchar green
property uchar red
end_header
-5.31269 -4.40532 13.1923 133 207 183
-1.51825 -2.02612 6.11988 99 163 144
-0.930396 -1.66071 5.01886 99 175 141
-0.348889 -1.29164 3.94852 124 211 173
0.647762 -0.63916 1.99039 63 91 68
-1.57816 -2.04287 6.25256 104 170 151
-0.444922 -1.34322 4.12892 83 154 128
-1.08123 -1.73252 5.32847 114 181 144
-0.357572 -1.28769 3.97273 70 113 92
-1.17768 -1.78248 5.50129 176 221 225
0.287665 -0.871406 2.71572 77 113 96
0.315343 -0.852805 2.65383 72 108 91
-0.533409 -1.39091 4.31173 73 127 110
-1.05605 -1.70136 5.28077 91 171 140
-0.514718 -1.3713 4.26844 71 120 100
-0.353239 -1.27552 3.96858 160 225 204
0.115516 -0.986239 3.08882 106 172 143
-0.486165 -1.34998 4.228 87 133 111
-0.517956 -1.37336 4.29183 79 137 113
-0.358102 -1.27139 3.98578 91 146 129
0.643156 -0.632772 2.0073 132 197 158
0.0204129 -1.03181 3.27606 107 177 160
0.459378 -0.767192 2.45337 110 174 162
0.594303 -0.684898 2.19376 191 196 194
-6.00182 -4.59179 14.5769 63 143 114
-0.543264 -1.35562 4.33321 77 128 94
0.198673 -0.908994 2.92226 159 231 211
0.301095 -0.834986 2.69092 87 123 109
0.613771 -0.665841 2.15542 150 142 129
0.692715 -0.54674 1.77914 139 201 171
-7.11746 -5.18388 16.7337 128 201 155
-2.78981 -2.66208 8.59377 67 103 79
0.192719 -0.898683 2.94558 58 91 76
-7.28011 -5.24237 16.9976 73 110 70
-1.97186 -2.17278 7.05933 121 180 160
0.643561 -0.605487 2.00124 96 129 108
-2.68334 -2.58102 8.40682 146 219 187
-2.35198 -2.37614 7.7688 92 141 113
0.689959 -0.533819 1.78683 116 178 148
0.706874 -0.520158 1.73897 152 238 204
-0.737192 -1.43481 4.72357 115 186 169
0.190562 -0.888534 2.95098 165 217 207
-0.595997 -1.34995 4.45708 107 173 148
-0.696248 -1.39872 4.65365 118 172 179
0.17714 -0.889361 2.97633 74 101 91
0.69789 -0.517743 1.75233 123 205 183
-7.71578 -5.37689 17.9513 63 89 73
0.0899281 -0.932398 3.15189 107 132 104
0.6377 -0.587719 2.01073 36 85 57
-6.891 -4.85314 16.4261 158 224 205
0.00662239 -0.977405 3.33138 118 184 165
0 0 0 180 208 178
-3.38861 -2.87856 9.782 76 118 100
-0.498439 -1.2574 4.28398 100 147 138
0.21717 -0.83446 2.88209 73 95 77
-14.461 -8.79285 30.0793 86 141 114
-0.325879 -1.15049 3.95432 86 156 126
0.13438 -0.881562 3.05713 150 214 192
0.160763 -0.868739 3.00944 69 99 88
0.656392 -0.544868 1.90764 138 203 158
0.219745 -0.820891 2.86591 171 214 199
0.0545394 -0.919564 3.22505 69 107 85
-3.44702 -2.84064 9.92636 94 144 120
0.0443972 -0.925271 3.24944 139 202 176
0.626393 -0.575456 2.04333 61 83 64
-2.45056 -2.27097 7.99095 60 87 67
0.0484057 -0.917768 3.24528 95 140 124
-12.7879 -7.70307 27.1177 154 210 181
-2.94219 -2.53831 8.94293 94 123 107
-2.39656 -2.24844 7.92866 129 205 171
0.589336 -0.598398 2.14983 153 196 169
0.622483 -0.574507 2.05227 157 227 187
-14.0327 -8.26718 29.4123 81 123 100
-0.0634881 -0.96921 3.46626 97 155 127
-7.79538 -5.12631 18.2648 81 125 119
-2.47282 -2.26265 8.06651 129 168 147
0.588085 -0.58865 2.13949 152 216 187
-3.22545 -2.65279 9.51861 154 239 194
-3.09179 -2.56458 9.23077 69 96 63
0.128849 -0.849056 3.07191 91 137 115
0.0155785 -0.915273 3.31777 120 187 160
-3.48061 -2.7563 10.0012 42 96 61
-2.99475 -2.49356 9.081 156 234 210
-0.738368 -1.30588 4.77014 91 155 126
0.0679201 -0.868268 3.19021 156 207 179
-7.59563 -4.91837 17.961 95 126 149
0.660542 -0.496185 1.85704 154 234 205
-0.0250534 -0.920408 3.40729 76 124 100
-5.56715 -3.79879 14.0987 60 116 97
0.104125 -0.832898 3.12437 143 213 173
0.132265 -0.817488 3.07682 158 221 182
0.148485 -0.805134 3.02764 142 195 186
0.691758 -0.470213 1.79218 159 220 186
-0.933383 -1.37278 5.16152 97 144 118
-8.84844 -5.43135 20.4365 89 111 109
0.706295 -0.459689 1.76929 111 173 149
0.686749 -0.466717 1.80076 152 228 194
-6.42588 -4.13648 15.7786 93 129 113
0.0965595 -0.812258 3.1283 59 106 80
-0.969993 -1.36933 5.23894 76 133 112
0.0369229 -0.846246 3.26183 148 193 177
0.699064 -0.45634 1.77293 88 183 146
-3.03212 -2.39176 9.16351 163 232 187
-0.0440241 -0.893901 3.44451 175 237 215
-3.55065 -2.63889 10.1685 88 145 107
-3.24883 -2.49686 9.60456 157 230 192
0.69683 -0.453876 1.786 47 99 69
-7.39142 -4.54638 17.68 110 158 140
-3.3539 -2.52324 9.78597 161 233 191
-4.51114 -3.10271 12.0747 65 102 82
0.0955849 -0.795976 3.13473 62 73 57
-1.36482 -1.5357 6.03783 101 139 127
-3.5002 -2.57648 10.1006 176 248 206
-1.11591 -1.40585 5.54598 98 110 114
-3.28205 -2.46281 9.71616 78 132 102
-1.3448 -1.50313 5.98517 151 206 189
-2.91334 -2.25116 8.98606 43 91 73
-0.904753 -1.27472 5.11087 91 144 117
-1.12792 -1.38665 5.56739 92 123 102
-9.09174 -5.20223 21.0538 107 143 167
-3.49201 -2.50158 10.1124 69 131 109
0.104696 -0.763587 3.11192 169 226 225
-7.6096 -4.45706 18.0984 43 94 67
0.0753076 -0.773829 3.17426 55 130 102
-4.32684 -2.86954 11.7212 107 188 139
-3.90414 -2.67489 10.9217 86 141 126
-1.07432 -1.34058 5.46791 147 222 208
-5.39384 -3.35364 13.752 47 59 39
0.0169281 -0.80398 3.31667 72 97 93
0.304465 -0.678639 2.80017 155 205 217
0.69468 -0.427365 1.77929 141 198 159
-4.4857 -2.93109 12.0541 89 121 104
-0.0981724 -0.864553 3.57562 146 215 188
0.632794 -0.451573 1.89481 60 85 71
-7.61717 -4.40388 18.1901 121 211 165
-1.86122 -1.70742 7.04378 149 206 191
-0.923055 -1.25243 5.17699 124 169 150
-3.20279 -2.31863 9.62635 136 203 171
-1.74906 -1.63635 6.80881 90 131 123
-1.37952 -1.45814 6.07374 86 112 96
0.623592 -0.455561 1.92692 116 153 143
-1.4703 -1.4986 6.26705 82 106 94
-5.31342 -3.27219 13.726 84 143 112
-3.53058 -2.44279 10.2634 78 121 94
0.641006 -0.437514 1.87127 74 105 98
-0.922248 -1.22509 5.18435 93 138 122
-0.0659197 -0.825093 3.50228 139 191 174
0.0008058 -0.778838 3.34383 148 192 163
0.704109 -0.4051 1.75668 110 153 126
-3.90094 -2.56081 10.9479 90 139 117
-0.0444987 -0.800335 3.43901 108 132 114
-2.73006 -2.02996 8.73085 52 110 75
-1.61266 -1.52525 6.5572 113 143 130
-1.41519 -1.42442 6.15674 94 99 114
-0.160184 -0.854358 3.7064 137 215 198
-3.89356 -2.53189 10.9516 157 240 202
-0.981228 -1.22207 5.31518 101 123 118
0.693983 -0.402225 1.77044 60 83 69
-2.91508 -2.08685 9.10362 152 238 196
-0.144948 -0.835414 3.67809 105 180 142
0.607287 -0.44667 1.96937 53 71 64
-1.19042 -1.30877 5.73951 117 184 155
0.612622 -0.437588 1.95737 95 133 121
-1.27451 -1.33209 5.90465 131 183 160
-3.16048 -2.16974 9.60226 112 162 144
-2.67779 -1.95243 8.65111 93 144 116
-0.939453 -1.18388 5.25863 123 165 154
0.643336 -0.417288 1.87579 92 137 128
-2.93154 -2.04981 9.13328 173 240 208
-4.28491 -2.62282 11.7502 155 213 178
-1.29182 -1.32598 5.94701 79 124 97
-1.17787 -1.27475 5.7246 154 226 196
-3.82496 -2.41303 10.849 42 77 57
-1.54066 -1.43079 6.44869 101 105 106
-0.0101807 -0.740634 3.36824 68 85 76
-2.991 -2.05236 9.27735 58 119 85
-11.9437 -5.86828 26.6293 152 212 172
0.609981 -0.422853 1.94807 66 107 99
0.613984 -0.420336 1.93606 146 196 184
0.706793 -0.375289 1.73434 109 146 130
-1.54533 -1.41303 6.44994 146 173 187
-0.132122 -0.79379 3.63542 118 206 170
-0.900344 -1.12659 5.17378 151 208 193
-0.147176 -0.797024 3.6691 58 94 72
0.674435 -0.39124 1.81564 155 201 189
-3.04085 -2.01979 9.3926 61 98 72
-2.00465 -1.59163 7.39275 117 156 171
-1.75357 -1.47806 6.87009 165 222 219
-1.2976 -1.26838 5.96363 134 186 163
-0.156489 -0.77464 3.67858 144 214 184
-5.59479 -3.03446 14.4251 98 126 113
-1.28418 -1.25033 5.94679 62 112 88
-0.84753 -1.07251 5.08254 150 214 195
-3.07348 -1.99593 9.48765 124 192 157
-1.69136 -1.41568 6.75969 163 200 234
0.671024 -0.373883 1.81084 159 214 197
-6.75804 -3.49054 16.6767 51 85 68
-11.6384 -5.44497 26.1546 66 109 72
-0.132933 -0.750541 3.62749 140 236 200
0.665526 -0.374128 1.82908 133 186 173
-13.5133 -6.22711 30.0651 89 120 91
-6.83713 -3.46095 16.7445 171 233 215
-1.68611 -1.40157 6.77634 92 113 115
-0.883371 -1.06483 5.16486 141 209 184
-4.82272 -2.64815 12.8351 117 188 148
-12.6993 -5.8131 28.3702 45 55 42
-1.66647 -1.37349 6.7185 142 187 190
-6.35974 -3.21263 15.9047 108 184 126
-1.84626 -1.43617 7.07395 208 242 255
-1.09558 -1.12743 5.5669 147 212 191
-11.8731 -5.39855 26.748 155 248 217
-3.58261 -2.10484 10.4639 133 213 176
-1.72086 -1.37096 6.83361 76 102 88
-0.101536 -0.704666 3.54697 155 195 183
-6.53926 -3.22244 16.2693 125 180 141
-1.48459 -1.2639 6.37498 79 115 99
-1.54295 -1.28042 6.48337 85 98 76
-1.20758 -1.15198 5.82639 117 139 127
-0.892279 -1.02356 5.19232 63 113 89
-2.01904 -1.46002 7.46069 102 123 145
-0.704446 -0.939348 4.80263 88 137 109
-7.34065 -3.49097 17.7882 81 126 100
-3.17263 -1.9054 9.71055 53 114 86
-2.7268 -1.73367 8.82014 95 147 130
-16.614 -7.0594 36.2916 100 115 84
-1.79069 -1.35878 6.98512 131 177 171
-13.955 -5.99905 30.9946 113 175 129
-1.31499 -1.16776 6.02718 131 165 155
-0.483602 -0.843288 4.37722 141 234 205
0.695853 -0.335209 1.75318 101 166 151
-0.301251 -0.77194 4.02803 110 173 141
-1.9988 -1.42589 7.41255 163 208 252
-0.706177 -0.909363 4.81617 92 149 128
-3.29356 -1.8751 9.98743 64 112 83
-2.68966 -1.65221 8.77205 73 114 87
-1.98916 -1.39653 7.39821 172 202 229
0.68998 -0.326646 1.7633 56 87 80
-13.5863 -5.7052 30.4023 83 99 92
-0.481291 -0.815462 4.36748 140 214 186
-0.959537 -0.983014 5.33173 118 179 151
-2.21111 -1.44158 7.85563 138 176 208
-2.02043 -1.37112 7.45237 75 82 79
-1.16295 -1.05177 5.73691 67 97 72
-0.16652 -0.67171 3.68819 155 211 192
-2.28938 -1.45948 8.03352 66 99 114
-0.869734 -0.938654 5.16571 105 175 139
-3.41354 -1.85422 10.2054 74 133 105
-2.20283 -1.42832 7.8714 97 100 128
-0.336768 -0.740173 4.10665 141 212 186
-3.66355 -1.93455 10.708 148 232 184
-0.641954 -0.847123 4.69538 88 140 116
-2.85566 -1.61423 9.14482 156 223 202
-0.904785 -0.909365 5.24221 86 135 107
-4.19449 -2.01768 11.7531 52 93 66
-4.06452 -1.98431 11.5024 105 193 147
-2.33265 -1.40808 8.13018 105 107 118
-1.1578 -0.990051 5.7441 59 105 83
-1.05366 -0.945291 5.53866 95 124 101
-0.225513 -0.65065 3.81822 133 179 157
-2.3244 -1.36827 8.09918 161 210 224
-1.84171 -1.20507 7.13237 129 147 154
-7.37233 -2.98969 17.7621 52 96 73
-3.82256 -1.8589 11.0511 139 221 186
-2.59415 -1.4546 8.65551 96 142 136
-1.21288 -0.986984 5.87198 92 123 96
-0.703383 -0.80993 4.82123 134 203 158
-2.18277 -1.30959 7.83727 138 180 173
-0.913934 -0.879917 5.27968 83 114 83
0.497845 -0.360144 2.17407 45 57 35
-3.04848 -1.57847 9.53962 166 228 210
-7.77243 -3.08246 18.615 136 209 177
-0.659254 -0.771789 4.73476 125 202 164
-4.58777 -2.0414 12.5849 125 192 160
-1.0867 -0.905532 5.61611 156 215 194
-0.987154 -0.873668 5.40287 133 188 155
-2.52965 -1.37316 8.5176 80 91 105
-0.845361 -0.825329 5.12203 138 198 158
-2.86991 -1.47786 9.21105 145 207 193
-0.507618 -0.714017 4.45767 74 84 71
-2.28844 -1.281 8.05563 139 209 192
-1.71117 -1.09769 6.88866 109 131 107
-1.36588 -0.982805 6.19584 139 197 172
0.506336 -0.338606 2.15137 52 59 44
-1.14988 -0.908971 5.75999 80 105 77
-1.07247 -0.882608 5.60483 152 217 191
-0.335769 -0.640323 4.06013 147 180 166
-2.87668 -1.45246 9.24288 84 103 94
-2.24873 -1.2483 7.98256 89 95 84
-1.0879 -0.884756 5.64148 120 184 155
-2.95163 -1.46096 9.38128 143 188 179
-2.78447 -1.41713 9.07497 127 155 149
-3.86285 -1.74342 11.204 76 124 96
-0.744166 -0.759652 4.92075 104 126 107
-0.816399 -0.777602 5.0856 80 129 107
-12.4896 -4.27121 28.0639 151 199 175
0.502733 -0.325633 2.15502 42 82 47
-12.7965 -4.36232 28.5261 63 76 68
-2.61268 -1.3225 8.7303 127 161 154
-1.51777 -0.983824 6.5019 109 160 126
-2.74037 -1.35197 9.00879 92 101 115
-2.83654 -1.37249 9.17252 168 215 247
-1.60674 -0.999789 6.68278 121 174 131
-0.0856201 -0.541381 3.6281 220 250 245
-4.00747 -1.71214 11.4912 133 206 160
-3.82993 -1.65607 11.1315 80 119 103
-12.0651 -4.01598 27.1933 57 86 70
-2.77885 -1.33857 9.05426 184 222 252
-1.54438 -0.970213 6.5521 50 79 53
-0.971026 -0.79403 5.3833 65 104 66
-0.818924 -0.750291 5.08191 79 126 100
0.517631 -0.31005 2.13607 87 146 118
-0.47143 -0.634557 4.39157 72 94 76
-0.094424 -0.530258 3.65227 120 173 159
-10.9506 -3.61923 24.955 139 209 178
-1.64298 -0.978897 6.75664 96 140 111
-0.355822 -0.590914 4.09117 137 195 171
-1.08004 -0.809703 5.62709 145 210 184
-16.2602 -5.05993 35.4115 151 210 172
-12.7302 -4.05947 28.4622 63 105 80
-4.66369 -1.83223 12.8354 53 121 86
-4.48336 -1.78027 12.4547 145 228 189
-4.28102 -1.71996 12.0256 75 130 105
-1.31686 -0.876235 6.12301 116 183 146
-0.497103 -0.630268 4.42887 173 221 185
-15.1093 -4.70573 33.185 147 170 148
-1.72922 -0.976875 6.94627 86 124 88
-1.35953 -0.870168 6.1885 165 225 194
-0.522196 -0.626831 4.4849 85 103 86
0.486882 -0.302892 2.17373 77 131 96
0 0 0 106 136 123
-0.0702927 -0.498542 3.60003 85 131 119
0.0914925 -0.455493 3.2687 201 209 209
-4.91274 -1.84755 13.309 70 133 93
-3.07816 -1.34773 9.69271 159 195 225
-2.94515 -1.30269 9.45076 129 170 163
-2.56869 -1.20403 8.64667 115 177 165
0 0 0 114 164 124
0.454246 -0.309382 2.25739 114 210 169
-9.92123 -3.15846 23.0892 43 48 47
-3.1814 -1.35001 9.91171 101 104 119
-1.41834 -0.863287 6.32249 134 185 148
-0.406552 -0.568601 4.17072 117 168 154
-1.34035 -0.83723 6.15915 174 184 172
-0.489401 -0.599748 4.425 141 195 178
-4.44898 -1.67771 12.4388 79 139 109
0.434284 -0.307992 2.29919 54 69 48
-6.67002 -2.2282 16.6625 47 69 50
-1.42565 -0.849721 6.3279 52 82 47
-0.0974165 -0.485078 3.67508 119 182 180
0.426396 -0.306276 2.30254 112 211 163
0.442208 -0.303195 2.28227 99 137 107
0.452815 -0.300418 2.25943 156 245 205
-8.03288 -2.58176 19.3328 97 117 98
-7.08467 -2.32886 17.4901 106 150 127
-0.991146 -0.713542 5.46647 99 138 122
-0.455383 -0.562356 4.29393 75 144 123
0.527102 -0.27521 2.11188 117 183 142
-1.46563 -0.835085 6.42108 61 83 55
0.10474 -0.420617 3.2433 141 125 119
0.463481 -0.286993 2.22637 107 151 120
0 0 0 135 177 152
-1.4173 -0.813006 6.31403 121 187 152
0.46284 -0.281824 2.21957 57 101 64
0.540606 -0.262892 2.07061 115 187 151
0.549808 -0.260149 2.0539 93 154 116
-1.32673 -0.776029 6.16049 62 111 83
-1.14861 -0.733641 5.78358 93 144 124
-0.993321 -0.690592 5.45161 96 154 143
-7.41252 -2.28007 18.1777 78 111 90
-4.65907 -1.61133 12.9193 93 169 151
0.517396 -0.263121 2.13208 146 208 178
-4.12721 -1.44073 11.8371 158 218 224
-3.88 -1.37888 11.3327 130 211 196
-3.36627 -1.24679 10.2967 114 165 175
-9.42119 -2.65705 21.9766 186 232 219
0.430914 -0.268835 2.27992 111 186 134
-1.31216 -0.719245 6.12071 72 101 78
-0.534958 -0.517093 4.46083 61 82 67
-5.45895 -1.68551 14.513 160 228 187
0.535192 -0.236375 2.06927 130 216 176
-5.25372 -1.60979 14.1381 85 153 128
-1.16939 -0.661016 5.84118 209 233 223
0.417457 -0.260815 2.30625 102 160 119
0.427007 -0.256649 2.29179 98 184 136
0.521748 -0.238416 2.10255 87 125 95
0.435481 -0.246138 2.2637 93 163 126
0.343802 -0.272694 2.52605 167 232 193
0.408536 -0.250917 2.32221 90 165 119
0.446445 -0.243877 2.24855 132 220 180
0.213897 -0.317526 2.989 60 83 61
0.33389 -0.270044 2.55731 38 69 42
0.40838 -0.246832 2.31515 90 199 151
0.45368 -0.237912 2.23444 143 210 173
0.312831 -0.277251 2.63867 49 88 63
0.481519 -0.216769 2.18098 170 241 201
0.514502 -0.210098 2.11052 138 218 183
0.356911 -0.238638 2.43547 131 210 166
0.557369 -0.199288 2.03893 95 153 124
-11.2414 -2.5385 25.9633 167 224 186
0.558378 -0.198022 2.04215 91 149 120
0.357075 -0.229137 2.42177 48 71 49
0.519867 -0.197034 2.10394 58 84 66
0.560797 -0.191499 2.03819 52 74 55
0.516294 -0.193583 2.10862 168 229 185
0.488806 -0.198512 2.16992 159 229 192
0.511619 -0.190937 2.1113 45 72 52
0.532786 -0.188669 2.07822 92 131 105
0.152438 -0.277662 3.1251 53 82 66
0.521661 -0.18403 2.09815 100 135 109
-1.02059 -0.472023 5.47916 63 91 85
-0.4617 -0.380381 4.42063 125 166 168
0.453283 -0.191207 2.23023 151 239 199
0.125312 -0.267739 3.20309 213 237 243
-1.03599 -0.460066 5.52362 146 226 195
0.113929 -0.25549 3.22015 81 98 84
-1.30911 -0.484852 6.10207 154 204 164
0.177899 -0.242888 3.06562 68 148 135
-12.7977 -2.21936 29.3696 63 102 80
0.573311 -0.152994 2.00816 119 194 162
0.520772 -0.158789 2.08488 161 214 181
-1.32538 -0.451969 6.07226 104 174 138
0.51679 -0.157126 2.09188 60 105 72
0.124488 -0.232557 3.18058 79 96 87
-14.1323 -2.32727 31.9712 58 82 72
-12.6515 -2.10071 28.9578 134 193 173
0.519139 -0.146419 2.09066 141 214 174
-1.31239 -0.419265 6.09273 144 215 175
0.132325 -0.211329 3.14618 88 135 119
-1.20926 -0.387066 5.85437 30 73 52
0.498994 -0.136758 2.13057 37 97 63
0.472799 -0.128175 2.212 36 64 41
0.189214 -0.166563 3.04654 96 104 104
0.314526 -0.133725 2.57059 82 131 99
0.466876 -0.114559 2.22852 68 133 107
-0.690164 -0.247054 4.94548 128 168 173
0.227357 -0.14175 2.86601 124 178 155
0.0833562 -0.157076 3.25168 106 160 147
0.473083 -0.0908015 2.21711 61 120 92
-0.741539 -0.197946 5.03743 81 138 129
0 0 0 62 86 78
0.447067 -0.0789696 2.29297 178 241 197
0.463218 -0.07529 2.24735 48 72 48
0.458862 -0.0660954 2.2561 121 186 154
0.437993 -0.0614192 2.31804 48 70 45
-0.704282 -0.124474 4.96202 139 188 196
-0.920225 -0.120185 5.42333 101 162 148
-1.10128 -0.0702531 5.80472 236 253 255
-1.13855 -0.0606466 5.87267 181 215 221
-0.140247 -0.0174129 3.73214 124 217 188
0 0 0 104 138 127
0 0 0 85 114 105
0.277936 0.0148602 2.53627 121 198 171
0 0 0 117 166 158
-1.37362 0.100268 6.40298 117 173 150
0 0 0 104 145 138
-10.1745 0.598158 24.4681 173 234 208
-7.55328 0.478831 19.0504 176 229 220
-1.35942 0.15978 6.34549 244 249 248
-1.30648 0.161574 6.24024 255 255 255
-0.264249 0.0982469 3.99044 55 77 59
-0.307086 0.10852 4.08217 149 228 189
-11.5771 0.796111 27.3163 58 85 69
10.3436 -0.534761 -18.0825 91 125 118
-10.2495 0.76368 24.5178 149 215 186
-0.0582636 0.108327 3.56332 100 169 149
0.114363 0.0932018 3.19053 135 177 214
-9.48346 0.731203 23.0653 191 243 226
-11.8261 0.941401 27.8264 156 225 182
-9.4816 0.837149 22.9401 189 239 235
-11.8394 1.11148 27.8366 149 209 198
-11.1252 1.09258 26.4406 67 107 96
-0.458316 0.201906 4.42201 94 152 124
0.0318836 0.150625 3.36189 93 97 121
-1.55561 0.315719 6.76132 79 139 128
-0.417757 0.205478 4.32405 116 170 141
-0.0755234 0.182026 3.60015 116 173 170
0.110953 0.159218 3.17838 84 89 104
16.7382 -1.6949 -31.5762 215 244 241
-0.0336534 0.18357 3.49938 236 252 255
-9.79336 1.30596 23.7136 50 78 58
-2.18026 0.435957 8.08924 108 157 143
16.6362 -1.73117 -31.3653 94 136 129
-13.7104 1.76964 31.7506 99 140 125
0 0 0 191 242 214
0.0869966 0.184518 3.22857 235 247 255
-7.57613 1.1397 19.0711 19 40 25
-0.529722 0.272293 4.58192 105 137 120
0.16556 0.178551 3.0457 146 199 202
0 0 0 96 141 138
0.0512612 0.198149 3.31129 109 138 153
8.47508 -0.876331 -14.2178 86 158 122
17.6729 -2.09103 -33.5128 86 143 128
-0.491646 0.279814 4.49634 103 145 128
-0.116265 0.235884 3.67419 119 176 167
7.92343 -0.873087 -13.0234 148 218 177
8.34674 -0.932266 -13.9598 102 148 119
0.165976 0.198027 3.04896 114 159 163
7.70711 -0.851186 -12.5431 163 228 189
0 0 0 104 147 132
0 0 0 56 77 68
-15.4238 2.36778 35.5281 96 132 118
0.0751805 0.221103 3.24569 211 243 248
0.115749 0.215757 3.16141 115 147 153
0 0 0 80 122 105
-0.434313 0.305677 4.37468 156 189 204
-2.3569 0.607024 8.45479 69 121 97
0 0 0 113 165 147
-0.353979 0.299423 4.18589 74 145 128
0 0 0 114 165 138
-16.9527 2.84186 38.5981 134 213 172
-0.00421529 0.251581 3.41972 127 186 172
0.042734 0.249276 3.30091 90 136 137
0.0955127 0.242604 3.19386 99 145 152
0.134834 0.23589 3.1004 208 238 255
0.126954 0.240484 3.11145 140 172 225
0 0 0 124 180 157
0 0 0 84 120 106
-11.0364 2.1299 26.2498 54 78 68
-0.016675 0.277246 3.44267 113 158 149
9.4601 -1.33951 -16.3437 102 153 139
-0.373503 0.346649 4.21067 110 172 150
-0.623141 0.391096 4.76152 81 134 114
0.0383803 0.272318 3.31553 151 205 198
-2.30746 0.704049 8.36101 169 234 208
0 0 0 92 111 86
-0.714212 0.421124 4.9594 91 134 121
0.112718 0.270096 3.15724 93 94 122
10.4217 -1.62219 -18.3712 222 236 235
-0.68033 0.43015 4.88031 88 133 117
-0.711917 0.441094 4.94751 143 223 192
-0.23076 0.350433 3.91719 250 255 251
0 0 0 58 94 78
-0.0209704 0.318091 3.43465 87 99 99
-0.982977 0.524716 5.55008 233 235 236
-0.744781 0.469598 5.01215 71 127 104
-14.1791 3.14293 32.8584 67 115 97
-0.27188 0.379925 4.01358 255 254 255
-0.73239 0.478563 4.98799 126 203 176
-0.258377 0.378894 3.9697 141 125 126
-0.46056 0.427295 4.4161 88 124 107
-0.860878 0.521898 5.27787 86 108 90
-0.219197 0.375623 3.88383 255 255 255
-0.157307 0.367357 3.74267 100 135 131
0.0951738 0.313385 3.18219 229 253 255
0.164679 0.296441 3.02872 218 252 245
-0.890661 0.537353 5.33438 228 217 187
-0.450578 0.443191 4.39473 208 246 240
-0.837418 0.526452 5.20721 100 167 136
0.115052 0.315224 3.13351 92 144 134
17.1596 -3.38174 -32.3967 148 213 181
-0.00239179 0.349976 3.37707 92 141 127
-0.309972 0.431864 4.0937 166 175 189
10.6889 -2.03514 -19.0069 87 123 117
-0.216083 0.415246 3.88309 92 121 136
0.0438002 0.347868 3.28344 52 80 81
0 0 0 149 215 180
-0.447497 0.470107 4.3909 253 254 255
-0.122967 0.392243 3.65346 170 220 226
-0.171333 0.407367 3.75401 178 203 219
0 0 0 147 196 176
-0.661646 0.530973 4.83897 94 152 123
-0.0881632 0.392629 3.56992 98 118 119
-0.271756 0.443404 3.99161 255 254 255
-0.231647 0.436546 3.90158 85 91 104
-0.0739091 0.406148 3.54481 255 254 255
-0.376025 0.494375 4.23353 128 171 158
-0.0992739 0.416518 3.5952 102 135 151
0.0702586 0.369651 3.20694 86 96 113
-1.26648 0.727498 6.15061 139 127 121
-0.148555 0.434379 3.68692 160 183 205
0 0 0 69 81 61
-0.389012 0.509677 4.25414 254 254 254
-0.354298 0.498137 4.17162 234 243 247
-0.333736 0.494156 4.11251 178 170 180
-3.64624 1.39504 11.212 206 240 229
-0.423947 0.534869 4.32155 146 122 146
0.00786855 0.414393 3.34309 201 250 230
-0.350618 0.52435 4.15823 130 169 184
0.0264004 0.412026 3.30906 86 153 132
-0.555701 0.583631 4.61236 195 214 211
-0.460458 0.557608 4.41418 159 165 194
-0.421127 0.543855 4.3103 231 249 255
-0.139442 0.464201 3.68633 105 133 164
-0.480395 0.574835 4.44124 120 111 137
-0.36246 0.541342 4.18069 228 235 244
0.00922183 0.429073 3.34328 75 128 115
-0.597207 0.611273 4.69825 235 251 255
-0.173105 0.481175 3.73117 175 215 234
-0.467452 0.577581 4.39957 111 109 138
-0.116847 0.471014 3.60718 90 126 134
-5.28995 1.94645 14.7248 255 254 255
-0.257387 0.521214 3.94334 245 255 255
-0.561764 0.621518 4.62866 102 100 90
13.0349 -3.23223 -23.9264 141 192 178
-0.536634 0.618688 4.56691 231 237 242
-0.498256 0.608664 4.48592 136 143 163
-5.96051 2.23799 16.2201 110 162 152
-5.51016 2.11042 15.1905 99 145 132
-0.331227 0.567532 4.11375 114 95 90
-0.433503 0.593761 4.30381 136 122 150
-0.353107 0.574163 4.14345 253 251 251
-0.278808 0.555499 3.98718 114 130 147
-6.68174 2.53828 17.7544 164 161 186
-0.621291 0.680208 4.74723 194 205 209
-0.549492 0.650104 4.56516 231 214 205
-0.222112 0.552131 3.85728 123 135 153
14.3783 -3.87358 -26.8053 66 100 89
-0.287445 0.572154 3.99692 253 255 255
-0.807254 0.74816 5.15744 147 205 181
-0.212416 0.555494 3.83319 99 120 135
-0.661116 0.71248 4.82845 239 217 199
-0.207796 0.560669 3.81097 143 190 194
-0.205133 0.559352 3.80732 165 210 224
-0.315594 0.599483 4.06433 73 86 78
-0.200765 0.564336 3.79048 99 143 150
-0.798658 0.770113 5.11637 173 220 198
-0.611551 0.72104 4.72036 251 253 253
-0.589446 0.713085 4.67435 81 72 62
-0.64094 0.736639 4.77709 121 115 110
-1.92812 1.17877 7.57101 153 137 125
-0.229167 0.592105 3.85059 141 195 166
-0.147272 0.577657 3.67572 147 222 206
-0.728489 0.792922 4.97359 163 183 178
-0.193873 0.595783 3.77622 249 249 243
-0.636777 0.758498 4.76226 209 223 187
-0.207501 0.604311 3.80214 73 103 92
18.3044 -5.66974 -35.193 139 193 180
-0.699325 0.787883 4.91831 103 110 103
-0.631383 0.770813 4.75485 57 70 54
-0.418007 0.685473 4.2498 157 157 187
-0.261542 0.631853 3.9131 88 136 124
-0.505798 0.728539 4.47279 228 236 249
-0.193629 0.613486 3.77556 70 130 106
-0.18262 0.608597 3.74583 154 224 201
0 0 0 156 231 210
-0.348483 0.676091 4.11959 206 220 218
-0.359828 0.692095 4.14362 173 195 201
-0.290183 0.6694 3.97751 241 255 253
-0.327956 0.687552 4.0624 255 255 254
-0.571858 0.797914 4.53908 148 176 153
0 0 0 233 254 255
-0.597623 0.832308 4.6041 97 130 95
-14.2202 6.21887 33.9829 175 185 209
0 0 0 175 228 219
-8.1387 3.83449 20.8459 114 140 126
-0.689621 0.896759 4.8177 116 160 123
-0.451427 0.808229 4.30149 165 232 193
8.42038 -2.72896 -14.3688 84 104 99
-13.5935 6.29571 32.6704 77 93 92
-0.485561 0.850376 4.35722 125 181 138
-10.5406 5.20852 26.0625 115 163 165
-0.650043 0.950157 4.71894 153 203 171
-3.74661 2.42739 11.4886 182 180 179
-1.01263 1.26734 5.5332 104 137 102
-0.977611 1.34313 5.47055 102 146 123
-1.13414 1.48882 5.81651 140 202 190
-7.04399 4.82012 18.5655 161 149 137
-8.74351 6.06451 22.253 170 165 162
0.650164 -1.01547 1.9267 131 210 166
-1.26516 -2.71603 5.05186 91 142 122
0.853647 -0.834636 1.60318 196 191 192
0.608082 -1.05904 2.01931 91 150 119
0.615917 -1.04876 2.00527 75 125 93
0.639522 -1.02393 1.9654 81 101 78
-1.20514 -2.64244 4.95966 87 122 102
-4.06059 -5.13679 9.70698 97 146 132
0.600922 -1.04667 2.03339 82 134 104
0.622087 -1.02837 2.00383 107 166 135
0.64623 -0.979816 1.93239 86 131 105
0.628639 -0.996719 1.96923 59 71 53
0.623338 -1.00514 1.99387 148 222 188
0.306586 -1.2901 2.53575 93 126 111
0.604388 -1.016 2.02825 79 129 105
-0.631645 -2.07567 4.08897 65 134 113
0.577248 -1.03561 2.07828 96 146 116
-1.11781 -2.47955 4.89363 113 182 167
-0.156563 -1.66409 3.30986 94 158 122
-0.077135 -1.59046 3.18269 148 240 199
-5.31674 -6.00363 11.985 130 207 179
-4.2848 -5.15652 10.3013 127 192 177
-5.95674 -6.50958 13.0419 139 213 183
0.566429 -1.02946 2.11077 64 98 68
0.591043 -1.00406 2.05831 90 144 127
0.556482 -1.03684 2.12192 98 144 108
0.60774 -0.985887 2.02744 69 79 73
-2.463 -3.56791 7.23064 236 255 255
0.503146 -1.07587 2.23057 108 180 137
0.534768 -1.05156 2.17659 138 223 185
-0.890541 -2.24128 4.55713 76 118 95
0.528463 -1.05494 2.18937 98 144 108
0.502451 -1.07579 2.23191 114 175 137
-0.0184824 -1.50699 3.11284 84 143 128
-0.797381 -2.15075 4.42642 104 158 145
0.588267 -0.992469 2.07643 105 151 139
0.596393 -0.97456 2.04588 112 161 133
-1.84946 -3.01783 6.21329 90 161 141
0.560681 -1.00347 2.11183 119 165 129
-3.48433 -4.35346 9.00344 136 190 197
0.23951 -1.27544 2.70108 116 187 167
0.428848 -1.11215 2.37056 126 182 171
0.536382 -1.01316 2.16427 141 209 162
0.765896 -0.832151 1.79457 158 133 123
-6.90108 -7.01538 14.7547 97 133 97
-0.993593 -2.26895 4.7859 100 157 119
0.49812 -1.04587 2.23845 63 101 65
-5.12069 -5.62514 11.9559 138 184 178
-0.870701 -2.1538 4.58775 148 223 202
-4.51623 -5.11478 10.8997 169 210 233
-3.83027 -4.52187 9.68678 92 137 121
-0.826793 -2.10457 4.52257 103 178 164
-1.20811 -2.40979 5.20159 90 125 105
-0.173897 -1.57747 3.4164 118 185 158
0.525293 -0.9904 2.18153 59 72 48
-0.887811 -2.13452 4.6235 94 150 121
-3.86734 -4.50042 9.76824 143 205 189
-3.70496 -4.37129 9.55085 99 153 136
-1.2463 -2.40674 5.2931 96 154 136
-0.979421 -2.1863 4.80706 85 134 118
-0.508397 -1.81338 4.02305 237 255 252
-4.18419 -4.69574 10.4168 120 168 150
-2.85755 -3.65772 8.10319 109 141 140
0.492171 -0.990057 2.27051 108 147 126
-1.20577 -2.3143 5.25996 115 170 153
0.80261 -0.691898 1.61482 101 146 107
-3.4997 -4.07709 9.29358 122 169 166
-0.751183 -1.95544 4.46689 96 159 150
-1.06749 -2.19294 5.01758 124 185 147
0.211935 -1.20483 2.80162 100 170 140
0.763514 -0.736082 1.74049 128 205 171
-3.3987 -3.95538 9.16247 119 146 142
-0.107126 -1.43611 3.35642 113 179 174
-0.944298 -2.05889 4.8232 125 179 172
0.397018 -1.03347 2.46806 102 148 119
0.808865 -0.65465 1.58594 66 89 81
0.417205 -1.0165 2.43347 83 124 97
0.79847 -0.659206 1.60469 67 83 65
-1.04507 -2.12187 5.01874 86 160 130
0.1617 -1.20271 2.88259 83 146 107
0.346813 -1.06571 2.56017 90 150 119
0.776802 -0.685654 1.66691 130 200 160
0.501321 -0.931905 2.25347 167 224 199
0.502511 -0.932102 2.25229 147 203 180
0.407341 -1.0168 2.46085 90 152 128
0.780067 -0.67673 1.65845 128 210 167
-6.04202 -5.74606 13.7329 135 173 151
0.465426 -0.961208 2.34279 86 124 102
-3.26073 -3.7426 8.97294 106 162 149
-1.80834 -2.66009 6.38719 104 147 126
0.484339 -0.937269 2.29006 137 225 171
0.508029 -0.921839 2.24701 119 166 140
0.702059 -0.791506 1.94013 147 125 114
0.704907 -0.785253 1.9354 182 178 177
0.775724 -0.67519 1.66488 132 231 181
-0.0613908 -1.36174 3.30553 89 175 135
0.451696 -0.96569 2.3621 171 247 215
0.112481 -1.22538 2.987 123 184 156
0.352242 -1.04335 2.5674 133 222 179
0.782681 -0.662797 1.64531 58 65 50
0.394439 -1.00741 2.49005 84 118 88
-0.0809487 -1.36039 3.33937 77 124 102
0.478262 -0.925414 2.30285 157 229 193
0.767735 -0.687576 1.72784 76 90 62
0.334876 -1.04618 2.60613 149 230 211
0.765419 -0.677916 1.71122 75 83 66
0.789823 -0.634864 1.60751 89 104 100
-1.7294 -2.53556 6.3227 106 166 142
-1.33464 -2.23877 5.58885 103 159 136
-1.24655 -2.16761 5.43764 86 148 134
0.386318 -0.98663 2.50903 122 160 130
0.793396 -0.624544 1.60655 87 132 115
0.418552 -0.951504 2.44021 64 96 85
0.457447 -0.916066 2.35153 157 240 202
0.135021 -1.16616 2.98496 112 181 148
-1.66075 -2.42202 6.19416 98 145 113
-1.55554 -2.35632 6.01755 95 153 125
0.44649 -0.918472 2.37916 152 235 190
-10.2293 -7.93489 20.6968 76 108 91
0.185986 -1.09115 2.90107 92 154 118
-4.06567 -4.03133 10.6071 77 112 98
-0.209832 -1.35747 3.63436 89 148 120
0.772272 -0.619059 1.68647 54 76 57
-5.87675 -5.10882 13.7384 51 54 45
-1.86001 -2.46758 6.66249 106 178 156
-0.0252805 -1.19787 3.29887 119 175 156
0.366123 -0.923256 2.55644 78 120 103
-0.180624 -1.30067 3.58868 91 166 144
-0.0148044 -1.19089 3.28691 85 127 116
-5.99701 -5.07671 13.9571 84 112 92
0.395558 -0.892803 2.49526 100 114 96
-1.0273 -1.84608 5.13813 85 126 111
-0.276268 -1.35238 3.78188 101 159 134
0.361637 -0.90922 2.55658 83 106 92
-0.351954 -1.39408 3.91233 102 149 141
0.279184 -0.972823 2.74533 165 240 212
0.351532 -0.918606 2.58992 87 132 116
-6.46579 -5.27878 14.7874 160 221 187
0.381449 -0.886712 2.52772 40 62 44
0.229315 -0.997487 2.84363 86 149 110
0.326711 -0.922612 2.64557 154 215 201
0.335305 -0.917942 2.63466 93 131 109
-1.59262 -2.18114 6.21763 109 176 147
0.370562 -0.881407 2.54072 136 187 173
0.385938 -0.867453 2.51959 81 110 95
0.356694 -0.873732 2.57182 155 217 187
0.300914 -0.917221 2.70665 61 75 64
-12.6035 -8.67655 25.3518 163 235 192
0.339782 -0.881984 2.61049 58 63 54
-0.0742094 -1.1518 3.44461 97 176 155
0.193026 -0.976951 2.9336 94 162 131
0.233869 -0.945768 2.84695 69 98 83
-2.19283 -2.46795 7.37044 90 148 130
0.171894 -0.979927 2.96235 210 255 239
0.264972 -0.918216 2.77725 148 207 186
-1.12991 -1.79216 5.4088 66 126 95
-0.334457 -1.28778 3.93479 89 163 129
0.276554 -0.897958 2.75184 169 234 213
0.153257 -0.977458 3.01534 86 133 107
-1.18753 -1.78537 5.52181 233 253 254
-0.379859 -1.28599 4.00908 82 137 104
0.703438 -0.553888 1.75847 60 90 71
0.643714 -0.632822 2.00724 137 201 165
0.00902301 -1.03579 3.28316 105 165 147
0.243792 -0.895072 2.83583 68 97 88
0.593359 -0.685372 2.19042 197 205 198
0.589147 -0.688881 2.2057 132 117 115
0.705564 -0.542946 1.74612 127 204 183
0.710455 -0.536659 1.74334 40 72 53
0.151308 -0.93615 3.04068 79 120 99
0.272143 -0.847424 2.75707 82 116 99
0.85536 -0.447098 1.46662 88 91 95
-9.2827 -6.27805 20.349 52 65 51
-0.468704 -1.29726 4.21511 89 152 126
0.270127 -0.850111 2.76974 79 108 92
-12.8374 -8.22321 26.7165 69 111 94
0.192893 -0.898594 2.93835 87 122 102
0.0901124 -0.952329 3.15164 92 143 109
0.18489 -0.889399 2.95062 158 208 196
0.621406 -0.615267 2.05946 80 110 85
0.707114 -0.520156 1.73901 152 238 204
-2.29434 -2.31927 7.65399 138 217 196
0.624853 -0.613359 2.05161 84 146 124
-1.48912 -1.85881 6.16129 84 130 107
0.246799 -0.834998 2.80034 158 210 186
-3.88426 -3.21231 10.7282 111 180 153
-1.19691 -1.67312 5.6016 102 175 149
0.695659 -0.513141 1.76608 93 145 128
0 0 0 161 183 159
-10.302 -6.61052 22.4641 50 66 49
-0.498434 -1.25719 4.28098 89 135 123
0.0571096 -0.944677 3.2207 121 174 131
0.116735 -0.911799 3.11895 62 86 78
0.669821 -0.530704 1.82715 76 121 102
-0.381292 -1.18403 4.05918 111 189 165
0.551622 -0.658562 2.28699 131 112 104
-3.18362 -2.74146 9.36932 84 123 101
0.135204 -0.881647 3.04495 144 209 188
0.225788 -0.828251 2.85432 133 207 171
0.598334 -0.613043 2.13173 77 90 74
-0.376554 -1.17284 4.04704 114 186 156
-0.0110553 -0.970612 3.36034 101 159 134
0.0250572 -0.950461 3.29205 104 158 135
-3.11213 -2.68524 9.24611 58 98 70
0.187596 -0.847588 2.95565 56 88 69
-2.89796 -2.55141 8.838 57 105 79
0.646726 -0.547419 1.93728 53 69 51
-8.2361 -5.45655 19.0424 140 221 188
-3.42012 -2.82152 9.85665 81 128 102
-2.45103 -2.27251 8 62 88 70
0.0844113 -0.888898 3.16149 54 92 70
0.229363 -0.801408 2.85442 194 235 230
-8.45045 -5.52477 19.5588 178 224 218
-0.0771689 -0.980244 3.48858 60 138 107
0.00472175 -0.933684 3.34927 86 128 103
0.181552 -0.827116 2.97568 47 62 54
0.206217 -0.810213 2.90141 174 228 221
0.191578 -0.807929 2.93606 187 234 232
-3.07688 -2.56371 9.2315 54 83 57
0.0925848 -0.863334 3.155 44 55 47
-8.90879 -5.66244 20.4403 129 170 172
-7.69081 -4.96781 18.1866 110 147 181
-2.6207 -2.28412 8.33486 146 219 181
-0.91731 -1.39082 5.11945 105 159 142
0.128035 -0.834677 3.0827 60 86 63
0.147794 -0.821566 3.04731 58 73 65
0.165503 -0.810904 2.99419 140 200 192
-0.760372 -1.30309 4.8249 88 161 135
0.175845 -0.800723 2.96521 59 90 87
0.669386 -0.490722 1.84015 86 149 123
-3.87729 -2.92141 10.8214 52 85 64
-2.95192 -2.41437 8.98728 81 127 91
0.692894 -0.470212 1.79231 135 180 154
-5.10344 -3.48705 13.1317 123 193 157
-3.37951 -2.60507 9.81142 67 115 87
-0.0448013 -0.91041 3.43286 82 129 97
0.686087 -0.471514 1.8016 131 215 191
-8.88473 -5.4319 20.5069 81 101 102
0.684207 -0.47304 1.81962 58 96 84
-5.1867 -3.52636 13.3563 89 159 122
0.705349 -0.457725 1.77262 86 173 153
-1.05947 -1.41922 5.43669 205 232 255
-3.54278 -2.63427 10.1503 89 148 110
-8.63705 -5.18879 20.1337 109 153 206
-1.2066 -1.46558 5.69378 85 126 99
0.10683 -0.791867 3.11845 137 191 184
-7.19947 -4.42058 17.2428 94 138 121
-1.00691 -1.35962 5.31523 75 129 100
0.683622 -0.455797 1.81 73 129 106
-1.1154 -1.4061 5.54868 94 112 113
0.709179 -0.442964 1.76572 90 168 137
-6.80687 -4.20472 16.5907 90 134 117
-2.86453 -2.25101 8.8771 158 237 193
-1.16063 -1.41808 5.64374 166 209 242
0.0633141 -0.797259 3.20506 60 102 91
0.695746 -0.442343 1.78494 61 82 67
-1.42289 -1.51769 6.13956 111 138 122
-0.138453 -0.899172 3.65352 72 141 130
-1.07205 -1.34099 5.46126 156 231 217
-0.918613 -1.26848 5.16606 138 201 181
-0.078176 -0.859149 3.52976 97 141 128
0.303917 -0.67849 2.80118 151 203 216
0.695373 -0.427154 1.77998 135 189 152
-3.90727 -2.67166 10.9334 87 148 128
-3.28008 -2.36404 9.73522 76 112 82
-1.45738 -1.50888 6.21996 142 201 193
-18.4494 -9.28679 38.677 63 90 80
-3.59815 -2.48744 10.3403 205 255 240
-1.46615 -1.49879 6.26738 83 109 91
-0.140032 -0.871753 3.66494 84 126 108
-3.48301 -2.41948 10.1562 66 106 78
0.0097414 -0.785896 3.32696 62 79 68
0.702359 -0.413281 1.76304 100 145 119
-1.31514 -1.41278 5.9509 157 187 222
0.701105 -0.41024 1.76867 125 182 157
0.0239731 -0.76819 3.2942 147 199 181
0 0 0 74 85 75
-1.37702 -1.41478 6.09857 178 216 246
-3.62586 -2.40875 10.4337 43 77 53
0.448563 -0.571594 2.5046 136 124 120
-7.67421 -4.20678 18.2817 151 240 200
-3.63976 -2.40491 10.4736 54 98 69
0.625765 -0.433441 1.92097 80 109 94
-11.2522 -5.74933 25.2875 43 71 48
-2.67275 -1.95239 8.64061 93 144 116
-4.43409 -2.70063 12.0508 57 80 65
-0.103807 -0.795925 3.55073 64 78 67
0.673164 -0.403599 1.82115 154 220 195
-1.53358 -1.42913 6.42367 94 100 105
-8.42606 -4.39523 19.7716 54 86 67
-1.75523 -1.51714 6.85564 139 198 190
-1.26898 -1.30685 5.91302 144 214 178
-0.0106159 -0.740392 3.37116 67 84 75
-10.0874 -5.04862 23.044 170 231 195
-0.898288 -1.1362 5.16635 160 220 210
0.681244 -0.391425 1.80122 57 65 58
-1.58872 -1.43013 6.53268 157 202 223
0.631399 -0.408403 1.89472 85 138 124
0.426882 -0.549062 2.55708 184 175 172
-3.24469 -2.09918 9.75686 65 111 82
-2.01084 -1.59401 7.42139 112 157 171
-1.00495 -1.15659 5.37481 85 112 86
0.704573 -0.371616 1.74046 78 99 90
-4.96304 -2.832 13.1066 56 82 64
-1.1794 -1.22789 5.74178 138 197 183
-1.05441 -1.16708 5.46785 140 195 192
-0.956456 -1.12807 5.27589 139 218 191
-3.29071 -2.10153 9.88727 61 114 87
-0.173495 -0.788922 3.73854 50 75 61
-10.6947 -5.09612 24.2214 134 216 174
-1.38417 -1.29177 6.13988 65 79 55
0.698981 -0.361675 1.74452 87 110 102
-3.13971 -1.99761 9.5966 58 99 71
-0.845959 -1.05254 5.08016 103 160 139
0.652222 -0.377496 1.84623 142 185 172
-7.28906 -3.62514 17.6605 82 108 92
-6.32019 -3.23771 15.782 53 72 57
-0.929372 -1.07681 5.25652 81 126 109
-3.04767 -1.9279 9.45105 97 146 126
-1.41826 -1.2617 6.21614 151 223 200
-1.09769 -1.13445 5.58781 145 207 189
-2.67537 -1.76195 8.74366 88 157 130
-1.68311 -1.37671 6.77751 143 188 179
-3.68671 -2.16099 10.689 85 131 108
-0.165946 -0.741505 3.71929 42 89 73
-1.20922 -1.15209 5.83129 129 153 141
-1.03783 -1.08672 5.46695 77 117 82
-0.921077 -1.02729 5.2454 107 192 160
-0.891317 -1.0237 5.20078 79 130 103
-2.73783 -1.73675 8.85675 96 148 131
-1.85009 -1.38208 7.08189 93 113 108
-1.79655 -1.35964 7.00235 123 165 158
-0.137038 -0.705509 3.65601 51 74 60
0.672488 -0.345584 1.79232 85 122 102
-2.67298 -1.69822 8.72797 85 127 102
-0.984682 -1.03743 5.36962 156 225 205
0.586496 -0.392167 2.04556 143 201 190
-3.25808 -1.89369 9.86546 152 241 198
-1.04299 -1.05709 5.49292 134 215 196
-0.812077 -0.960895 5.03283 111 171 137
-0.970849 -1.01439 5.34575 79 124 98
-0.52554 -0.841065 4.46947 107 176 155
-0.280985 -0.744737 3.98214 85 129 112
-1.14259 -1.06482 5.70358 128 180 157
-2.03836 -1.39136 7.50964 94 97 101
-1.37011 -1.13898 6.15153 144 205 179
-0.282956 -0.743786 3.99657 83 127 110
0.628781 -0.346858 1.8804 153 214 200
-2.05073 -1.39448 7.56698 77 84 81
-1.04123 -1.00709 5.49165 78 109 82
0.366854 -0.49491 2.70279 145 139 132
-1.57293 -1.19991 6.57103 112 141 146
-0.638647 -0.851782 4.67429 85 127 102
-10.4356 -4.37555 23.9914 150 230 193
-0.929095 -0.96207 5.27507 107 143 121
-1.94188 -1.32057 7.32319 151 198 176
-0.520472 -0.803522 4.44852 121 181 157
-3.9596 -2.02039 11.2931 54 94 69
-2.22133 -1.40633 7.88452 166 213 245
0.515769 -0.382021 2.15513 109 176 144
0.665237 -0.319365 1.80132 98 129 120
-1.48812 -1.1381 6.41811 121 147 124
-2.31147 -1.41481 8.04122 96 96 110
-1.24805 -1.03981 5.94041 121 147 133
-0.852494 -0.895875 5.14099 101 147 125
-0.214207 -0.661599 3.78854 164 209 182
-2.47625 -1.46025 8.41048 91 130 122
-2.35337 -1.42269 8.19131 101 102 112
0.495869 -0.374889 2.18057 140 219 180
0.635579 -0.322608 1.87854 148 203 186
-0.799309 -0.8621 5.03586 76 117 85
-4.20516 -2.0205 11.7835 52 93 66
-1.21573 -1.0038 5.87408 156 217 197
-0.466564 -0.738545 4.35235 71 109 97
-0.239634 -0.654786 3.86067 110 140 121
-1.3119 -1.02876 6.0687 129 177 153
0.495795 -0.364408 2.16755 55 60 39
-3.82321 -1.85973 11.0611 149 235 193
0.489526 -0.364076 2.19681 131 214 175
0 0 0 96 129 108
0.59109 -0.33085 2.00871 65 82 78
-11.1494 -4.1777 25.2608 117 173 138
-1.16097 -0.950504 5.75636 134 192 167
-0.56827 -0.749015 4.55114 137 190 163
-7.77065 -3.07894 18.6138 140 210 180
0.598189 -0.322691 1.98481 61 85 77
-2.46494 -1.37666 8.40923 165 207 220
-0.254423 -0.625808 3.85981 139 187 169
0.495876 -0.349285 2.16922 121 170 132
-3.27183 -1.61183 9.99612 66 122 93
-2.54504 -1.37609 8.58168 85 97 109
0.533382 -0.33763 2.12753 98 152 123
0 0 0 65 91 78
-1.71927 -1.10788 6.90997 100 128 105
-0.983775 -0.869469 5.4031 112 172 138
-0.473463 -0.69429 4.34209 77 113 101
-0.451034 -0.692932 4.34171 154 228 204
0.477877 -0.351819 2.22156 44 49 34
0.439292 -0.363619 2.31763 121 203 154
-1.15055 -0.908835 5.77194 80 104 74
0.495713 -0.336453 2.17518 58 97 72
-2.24863 -1.2488 7.99581 68 77 64
-2.48429 -1.31146 8.44101 80 106 92
-1.58274 -1.01985 6.63377 88 115 89
0.329128 -0.426169 2.76951 122 103 106
-11.9228 -4.08282 26.848 166 213 187
-3.37467 -1.56317 10.2406 155 213 188
-2.45692 -1.27579 8.40843 135 194 186
-2.12084 -1.17194 7.722 110 150 132
-1.0833 -0.83883 5.62804 88 172 138
-0.871587 -0.781674 5.18433 100 135 109
0.10629 -0.488847 3.24991 136 122 116
0 0 0 42 56 45
-13.8544 -4.58511 30.7362 109 153 130
-9.16554 -3.17163 21.3114 53 73 54
-2.66345 -1.3084 8.81858 86 89 87
-1.3883 -0.938295 6.25434 168 202 192
-0.489497 -0.658183 4.43253 142 195 185
-0.320959 -0.596123 4.00411 162 240 209
0.464408 -0.328172 2.22744 73 104 71
0.530776 -0.313576 2.12622 114 175 141
0 0 0 180 234 217
-1.09002 -0.837972 5.65756 123 211 175
-0.940189 -0.786063 5.32223 142 212 175
-5.50181 -2.09105 14.3482 122 179 140
-3.41885 -1.51759 10.352 58 100 77
0.0844594 -0.480527 3.28368 206 206 206
-5.11444 -1.9848 13.7111 52 70 57
-0.515 -0.649453 4.45061 101 134 120
0.517976 -0.310437 2.13486 83 142 114
0.589422 -0.287952 2.0011 57 113 102
0 0 0 88 131 110
-4.3121 -1.7435 12.1205 96 157 123
-3.0659 -1.39665 9.65338 83 101 94
-4.06088 -1.65719 11.648 82 131 109
-2.46562 -1.2071 8.44743 167 207 212
-1.16014 -0.827773 5.79057 136 213 179
-0.475806 -0.626816 4.39444 59 62 60
-2.76981 -1.28876 9.07952 131 185 186
-3.04207 -1.34408 9.59046 149 185 221
-2.71808 -1.25405 8.94966 86 99 97
-0.578232 -0.631789 4.57518 149 194 161
0.278813 -0.400825 2.89395 137 127 127
-1.80084 -0.976933 7.10537 112 147 120
-1.58353 -0.923038 6.65029 111 187 153
-0.391739 -0.573316 4.16182 50 77 68
0 0 0 78 119 81
-3.15228 -1.34123 9.83078 105 108 123
-2.94564 -1.27982 9.43854 95 129 129
0.453709 -0.301665 2.25928 147 238 199
-1.43767 -0.848917 6.35687 60 83 51
-0.971763 -0.71914 5.40933 156 219 193
-2.98055 -1.25026 9.50215 153 209 226
-1.17905 -0.766528 5.83023 144 202 173
-0.453825 -0.562822 4.28958 99 169 146
0.104814 -0.42079 3.24234 143 125 118
0.527555 -0.274815 2.11302 114 179 140
0 0 0 55 57 38
-5.91538 -1.96258 15.2671 38 73 46
-1.2777 -0.773839 6.05018 66 117 80
-0.923962 -0.684057 5.32302 113 175 159
0.564133 -0.261279 2.03683 112 156 143
-7.0932 -2.23601 17.4923 147 187 169
0.522584 -0.270304 2.12265 51 58 43
-10.0718 -2.97181 23.3836 96 153 132
0.445743 -0.282645 2.26374 41 55 43
-1.21711 -0.732087 5.91955 74 132 104
0.530934 -0.25475 2.07933 106 173 144
-9.99447 -2.8314 23.1693 163 225 209
-1.04293 -0.667433 5.58152 82 112 101
-0.548102 -0.537365 4.49365 157 215 187
0.420062 -0.275205 2.29802 153 241 195
0.389592 -0.278994 2.39145 35 43 33
-1.10558 -0.657956 5.72621 153 196 183
-1.24423 -0.674656 5.97665 231 255 251
0.371378 -0.274931 2.43011 102 168 126
-1.29751 -0.682452 6.09665 128 187 166
-0.5529 -0.499824 4.49775 107 168 130
0.455948 -0.248258 2.23475 48 74 60
0.501564 -0.238369 2.15198 174 241 202
0.25521 -0.320593 2.9222 104 155 147
0.415018 -0.25146 2.31357 56 114 85
0.435823 -0.245865 2.26451 93 163 126
0.402037 -0.246332 2.33105 83 142 111
0.302561 -0.27647 2.66965 161 235 199
-5.84363 -1.58203 15.409 87 148 128
0.191339 -0.314191 3.0676 195 213 220
0.428577 -0.225866 2.27574 109 208 168
0.507935 -0.210061 2.13077 51 83 59
0.557976 -0.198147 2.04186 93 147 118
0.481777 -0.209912 2.18253 71 87 64
0.489787 -0.20984 2.1644 154 224 184
-11.0258 -2.38225 25.5979 162 230 205
-0.949823 -0.492426 5.33642 74 128 105
-0.434138 -0.398643 4.38021 119 165 153
0.384003 -0.216119 2.36496 160 246 204
-1.05146 -0.501377 5.56236 145 192 170
0.479433 -0.198982 2.19025 50 79 54
0.453052 -0.200418 2.2439 34 110 69
-11.2912 -2.27939 26.1629 49 85 69
0.574568 -0.174135 2.00932 133 222 183
-1.14157 -0.479706 5.78173 46 75 66
-0.468449 -0.369108 4.44326 95 127 126
0.502801 -0.174988 2.13251 30 37 22
-1.11885 -0.461128 5.72146 48 65 51
-1.37999 -0.49404 6.22745 176 232 203
0.113328 -0.25538 3.22064 80 99 84
0.51117 -0.167638 2.10928 69 95 72
0.559885 -0.163331 2.03771 160 227 188
-1.2249 -0.443432 5.88282 152 220 179
-0.99531 -0.411015 5.44302 53 79 66
-14.2057 -2.33394 32.1318 52 76 66
-1.02243 -0.390357 5.50596 116 189 163
0.33426 -0.177317 2.49378 53 108 81
0.342635 -0.177474 2.49062 66 118 94
0.527622 -0.144195 2.06775 99 137 119
-11.2378 -1.83859 26.3622 44 55 45
-1.31072 -0.419522 6.09014 157 221 185
0.146481 -0.21435 3.11468 162 234 212
-1.07308 -0.351733 5.62689 66 82 64
0.063228 -0.212743 3.32142 88 131 118
0.317735 -0.163868 2.55719 46 94 76
-0.581068 -0.293922 4.72009 112 174 160
0.0765736 -0.200925 3.28114 61 98 82
0.491985 -0.129279 2.15708 54 112 83
0 0 0 130 208 171
-0.471391 -0.262192 4.46373 255 255 255
0.325095 -0.150006 2.52936 50 106 85
0.376013 -0.127165 2.40745 94 131 99
0.173329 -0.149365 3.08146 101 113 115
0 0 0 143 225 183
0.452341 -0.103011 2.2706 81 153 117
0 0 0 83 123 111
-0.603573 -0.200306 4.7506 106 154 160
0 0 0 151 202 174
20.7229 1.35543 -38.9593 56 80 68
0 0 0 60 115 96
-0.0511442 -0.108856 3.55689 62 109 83
0.45176 -0.0762709 2.27308 53 87 56
-0.00309635 -0.101788 3.43659 58 144 120
0.440823 -0.067962 2.31045 143 232 182
15.0463 0.359819 -27.7152 134 193 173
0.0705422 -0.0475798 3.30325 110 126 138
-1.10186 -0.0693616 5.81028 236 253 255
-0.15939 -0.0434103 3.77563 157 208 204
-1.14074 -0.0586491 5.88515 152 187 191
-0.121806 -0.0371288 3.70954 48 93 74
-0.160752 -0.0383039 3.79584 164 221 212
17.4976 0.263945 -32.7764 169 232 222
-0.167182 -0.0172922 3.80441 61 84 69
-0.139907 -0.0173523 3.73234 133 225 196
-0.0506461 0.0230023 3.52962 59 128 101
0 0 0 165 220 203
-1.35797 0.10682 6.34607 93 143 125
-12.0201 0.616296 28.0491 152 234 192
-1.28327 0.138638 6.18517 75 97 85
-0.302078 0.0927736 4.07306 62 110 82
-7.54887 0.477726 19.0361 176 229 220
-1.34943 0.152239 6.30416 255 255 254
-0.0520709 0.0809045 3.5432 110 161 157
0.180018 0.0735558 3.04684 103 125 143
-1.29312 0.169182 6.20763 177 184 187
0 0 0 149 206 197
0 0 0 86 133 117
-11.6085 0.800213 27.3786 57 86 70
-1.39263 0.19621 6.40609 107 165 147
-10.4168 0.811255 24.9189 142 201 187
-8.58779 0.733946 21.1618 52 88 66
-2.68931 0.328914 8.93054 48 88 63
-0.0820691 0.137038 3.61599 77 134 119
-1.49567 0.290961 6.63645 94 138 131
0.0319087 0.151134 3.36338 93 97 121
-0.10172 0.194168 3.64692 195 226 235
0.138182 0.165038 3.11356 235 253 255
-13.7358 1.77726 31.838 95 135 123
-1.74968 0.401431 7.18244 70 113 102
-0.454687 0.243239 4.41251 90 170 135
-9.21006 1.30385 22.4886 76 126 102
0.0178581 0.190017 3.37737 109 150 152
0.120302 0.178787 3.15137 83 94 126
-0.530411 0.276685 4.5846 114 143 127
18.1801 -2.11954 -34.5782 83 135 118
-7.60062 1.14792 19.1444 34 60 44
-0.11603 0.236624 3.67636 115 172 163
0 0 0 69 86 73
0.0749481 0.2217 3.24733 208 238 243
0.054674 0.22522 3.28809 104 150 144
0.0302163 0.235138 3.34782 91 145 140
0 0 0 144 220 189
0 0 0 163 221 193
0 0 0 156 212 191
-0.528314 0.342588 4.56176 58 122 87
0 0 0 114 163 143
0 0 0 158 221 189
-0.132629 0.299219 3.6978 161 182 190
-0.0167078 0.27746 3.44326 113 158 149
0 0 0 255 205 144
0.0395522 0.270572 3.31077 155 209 202
10.1828 -1.53764 -17.8251 83 127 114
11.4894 -1.78077 -20.6657 106 139 132
-0.405767 0.379496 4.30366 97 128 113
0 0 0 131 203 167
-13.7517 2.92478 31.8664 153 233 196
-0.771301 0.474839 5.08913 130 219 193
-1.0412 0.534764 5.65412 134 103 80
-0.983201 0.523836 5.54696 229 231 231
-0.943262 0.519804 5.44886 184 176 176
-0.495128 0.441455 4.49078 137 229 200
-0.339123 0.400644 4.14442 116 196 167
-0.213781 0.377844 3.87595 255 255 255
-0.156548 0.370038 3.74987 82 114 109
-0.863308 0.53043 5.27525 66 83 62
-0.138756 0.379412 3.70378 78 87 84
-0.0253558 0.355689 3.44477 64 88 78
-0.824801 0.538442 5.16811 45 68 46
0 0 0 126 184 156
-1.16126 0.633766 5.89814 157 136 128
-0.393968 0.468268 4.25826 80 126 114
-0.250361 0.43463 3.94781 140 171 168
0.000984664 0.369251 3.37848 243 255 252
-0.143046 0.40462 3.68571 79 98 111
0.0684446 0.357309 3.2293 108 163 148
-1.18664 0.674802 5.9738 218 225 228
7.76508 -1.47031 -12.8555 89 163 135
-0.885393 0.621042 5.29322 67 166 120
0.0708908 0.369203 3.20577 83 92 106
9.99833 -2.09143 -17.5504 118 135 154
0 0 0 81 127 108
-0.403978 0.503372 4.27506 73 128 113
-0.148747 0.435619 3.69013 174 198 218
0 0 0 73 85 67
-0.340502 0.495872 4.14892 153 149 161
-0.269829 0.47355 3.98551 251 251 251
-0.644987 0.585256 4.78831 57 124 93
-0.117772 0.439129 3.62489 102 117 136
15.9689 -3.74435 -30.0993 78 107 92
-4.19903 1.53565 12.3878 77 132 115
-0.386131 0.531275 4.22309 107 101 90
14.3313 -3.37129 -26.5251 150 227 206
-1.30638 0.785701 6.22287 141 133 133
-0.641562 0.604745 4.7799 103 202 162
8.80748 -1.9406 -15.1261 118 166 172
11.5581 -2.67268 -20.8204 86 124 118
0 0 0 64 88 64
13.5847 -3.24821 -25.1484 158 226 209
