ply
format ascii 1.0
element vertex 345
property float x
property float y
property float z
property uchar blue
property uchar green
property uchar red
end_header
-0.196355 -1.22942 3.93772 112 146 139
0.76355 -0.612863 3.78044 123 168 195
-0.385481 -0.551036 4.02457 118 162 161
0.590681 -0.302759 3.84158 104 136 131
0.551097 -0.0710933 3.87341 90 120 107
1.6815 0.590443 3.77303 130 188 200
1.76715 0.996463 3.72803 104 150 127
1.1751 -0.973835 3.63032 107 143 131
-0.170745 -0.981845 3.93023 101 142 134
0.778929 -0.827211 3.75832 135 180 171
1.14126 -0.663313 3.67459 154 196 185
0.779604 -0.502996 3.77109 90 117 107
0.766882 -0.236504 3.79315 174 220 208
0.700631 -0.172023 3.83885 122 158 158
0.456212 -0.148258 3.88632 116 139 141
0.795341 0.0465493 3.84648 171 219 220
0.0312334 0.141184 3.99845 104 138 137
1.29478 0.431643 3.81642 119 156 146
1.22165 0.449671 3.81195 148 198 194
1.64433 0.535608 3.7746 83 119 105
-0.417445 0.598762 4.15408 105 138 134
1.079 0.719951 3.89581 105 134 131
-0.707202 0.833759 4.23509 93 132 124
-1.72096 1.01358 4.47349 108 117 107
0.731109 1.05528 3.99489 104 112 101
0.078989 1.13493 4.13412 138 172 172
0.853378 1.14772 4.00701 154 213 182
0.64835 1.23891 4.06104 157 184 188
1.04663 1.22975 3.9936 63 80 71
-0.2776 -1.20935 3.94586 113 137 129
-0.197693 -1.15324 3.93751 95 143 117
1.17211 -0.973258 3.62066 96 134 122
1.43613 -0.925899 3.55428 88 131 118
0.898052 -0.908891 3.71052 81 108 104
1.51494 -0.834964 3.53011 60 89 73
0.781844 -0.815845 3.73519 101 139 127
1.10759 -0.779843 3.67199 57 102 83
0.788887 -0.736537 3.73561 89 131 113
0.215138 -0.745372 3.87525 113 160 158
0.971826 -0.709166 3.69352 106 142 128
1.53003 -0.592725 3.58315 79 110 101
1.41142 -0.578971 3.63107 89 141 131
0.774479 -0.589782 3.77353 140 190 220
0.0341078 -0.607693 3.9273 91 153 123
0.793586 -0.563336 3.7686 162 204 239
-0.13011 -0.572634 3.94251 96 161 136
0.963687 -0.514214 3.73734 97 126 117
0.212585 -0.520683 3.91237 128 181 178
0.778448 -0.505087 3.77747 80 110 99
1.44092 -0.43754 3.5518 164 229 190
1.2535 -0.446611 3.68128 90 126 114
0.484402 -0.431554 3.84007 108 158 156
0.28156 -0.418743 3.89983 110 154 148
-0.62582 -0.412875 4.07486 133 183 179
0.726125 -0.375014 3.77709 96 122 122
0.251274 -0.34458 3.89866 151 189 194
0.590214 -0.314084 3.84825 121 163 156
0.257303 -0.309194 3.90649 157 193 193
1.31411 -0.281735 3.66991 75 99 89
1.06849 -0.266973 3.73955 103 144 136
0.277193 -0.252436 3.89157 81 98 87
0.43529 -0.252087 3.86394 107 130 132
1.21579 -0.200938 3.69048 99 127 114
0.709988 -0.194712 3.83551 103 139 139
0.702803 -0.172873 3.83479 124 164 163
1.3674 -0.163586 3.6956 156 197 192
1.31147 -0.154673 3.70822 199 232 228
0.402714 -0.16036 3.88018 132 163 164
-0.607454 -0.100744 4.08706 129 171 164
0.832767 -0.0880796 3.81767 114 169 160
-0.242878 -0.0824072 4.0281 127 183 172
0.557736 -0.0709884 3.87803 72 88 87
-0.985762 -0.0120467 4.20454 124 168 162
-0.367253 0.0814429 4.04329 78 112 95
0.150972 0.12823 3.9637 113 157 158
0.251382 0.139907 3.97077 133 175 174
0.896035 0.171159 3.83369 104 116 110
1.29999 0.180609 3.77857 88 109 110
0.882313 0.233524 3.83092 133 173 162
1.2452 0.236077 3.7924 91 114 116
0.283338 0.264825 3.9749 127 157 158
-0.36261 0.297269 4.10376 110 159 151
0.936436 0.301314 3.84076 71 79 69
-0.245972 0.388015 4.08711 102 143 135
0.624899 0.388132 3.91047 114 156 155
1.14937 0.379205 3.81773 150 184 178
-0.5927 0.416025 4.16615 122 151 158
1.47642 0.396624 3.79523 93 105 105
-0.0760633 0.429694 4.07327 119 151 146
1.74608 0.408964 3.7192 105 146 141
1.39082 0.424343 3.79915 137 178 203
1.29661 0.432531 3.81876 117 154 144
2.1405 0.422462 3.67373 111 129 128
-0.446924 0.476309 4.13557 91 117 117
1.22277 0.45189 3.81781 147 197 193
1.41082 0.45736 3.80712 122 177 168
1.43934 0.476454 3.79591 121 146 172
-1.0409 0.6297 4.25643 123 166 155
1.2182 0.593614 3.81456 94 140 111
1.67508 0.591058 3.77151 153 210 219
0.506474 0.636884 4.00139 118 149 146
1.01135 0.614822 3.87655 116 159 150
1.07753 0.617789 3.87891 92 135 126
1.71932 0.619035 3.7791 127 172 183
1.19708 0.647664 3.87706 107 148 140
0.382368 0.703348 4.02733 117 154 146
-0.720012 0.746017 4.22752 115 173 162
0.890563 0.714803 3.93531 164 211 209
2.27211 0.666895 3.69048 151 181 176
-0.337234 0.764779 4.13393 127 159 158
0.0814183 0.869587 4.10352 103 140 136
2.14555 0.791775 3.73319 106 162 139
-1.24609 0.893773 4.16555 59 88 72
2.25508 0.825362 3.73106 102 123 101
1.04189 0.905397 3.92896 165 223 195
0.768044 0.925048 3.9774 64 71 56
1.032 0.915579 3.91872 66 118 95
-0.141049 0.990988 4.17685 129 164 174
0.673568 0.970672 4.0034 118 132 138
0.805136 0.978607 3.92157 51 60 47
-1.82013 1.13196 4.44439 109 120 117
0.678385 1.08807 4.03677 158 199 201
1.46095 1.00399 3.70116 117 155 133
1.54498 1.01592 3.71423 80 128 100
0.0792098 1.13346 4.13127 133 171 171
0.728841 1.14721 4.01032 61 123 87
1.90886 1.11726 3.75335 78 119 98
0.335635 1.23318 4.10682 94 173 152
0.644608 1.22512 4.08293 100 122 110
1.05038 1.19651 3.98151 144 176 171
0.635542 1.2305 4.057 108 123 119
1.09766 1.20327 3.88819 98 117 92
0.652855 1.27028 4.08056 89 86 101
0.890224 1.27203 4.02854 215 241 235
0.992302 1.30272 4.01588 110 133 128
0.853805 -1.31072 3.69588 99 133 123
0.162412 -1.34936 3.84829 111 140 131
1.30623 -1.20198 3.56493 103 143 131
1.20037 -1.09716 3.61724 111 161 151
-0.258391 -1.1576 3.95494 112 143 128
-0.198694 -1.15309 3.93355 90 141 114
1.16511 -1.0607 3.6269 175 215 204
0.145866 -1.11417 3.85363 75 112 104
0.135487 -1.0622 3.88855 92 121 118
0.596662 -1.01031 3.77957 107 157 145
0.909873 -0.971424 3.68619 93 127 110
0.919705 -0.975817 3.69732 93 129 112
1.54247 -0.920132 3.54865 114 167 147
0.950338 -0.938966 3.66797 104 131 127
1.03667 -0.916274 3.64769 73 109 97
-0.176633 -0.983132 3.94357 111 150 142
1.38222 -0.878823 3.5786 88 125 117
0.761065 -0.893068 3.75462 102 139 131
1.52005 -0.841789 3.55966 47 79 62
1.415 -0.836332 3.56391 126 187 159
1.41322 -0.836506 3.56017 118 182 153
1.4448 -0.83286 3.59228 52 94 69
0.463934 -0.848745 3.79733 101 143 132
1.12384 -0.809117 3.64051 72 90 73
1.38963 -0.798776 3.59682 101 156 139
0.78168 -0.820895 3.7435 100 131 122
1.13156 -0.807761 3.66643 63 83 64
1.07312 -0.790813 3.66894 185 219 213
1.18638 -0.7768 3.64283 50 63 47
1.65113 -0.759274 3.54935 98 164 135
1.1948 -0.757397 3.58936 112 135 121
1.53418 -0.758501 3.57147 87 119 108
1.14631 -0.761303 3.61508 127 186 155
0.781369 -0.775817 3.73868 113 162 146
0.531253 -0.772004 3.79381 106 153 137
1.58724 -0.717594 3.56121 65 130 104
1.03913 -0.727625 3.67832 87 119 108
0.10029 -0.76325 3.90163 118 153 149
0.816886 -0.721857 3.6788 137 202 163
1.17351 -0.706445 3.64558 68 107 86
1.46429 -0.687735 3.58477 155 204 176
1.11335 -0.69836 3.68208 143 196 187
0.268252 -0.724846 3.85202 124 137 139
0.785168 -0.702207 3.74462 102 154 131
0.148486 -0.698366 3.87141 100 144 143
0.732445 -0.674805 3.76078 174 217 250
1.12903 -0.66133 3.66815 180 217 215
1.12546 -0.638085 3.67981 101 123 118
1.36733 -0.626102 3.61166 69 120 100
1.30821 -0.619357 3.61524 68 111 90
0.725575 -0.64125 3.7817 92 122 111
1.27692 -0.594408 3.66706 153 192 167
0.722789 -0.613041 3.78549 83 113 102
0.753516 -0.609628 3.77075 125 188 202
-0.541263 -0.639629 4.04651 119 152 145
1.16273 -0.582916 3.67961 162 215 202
-0.200644 -0.615152 3.94787 186 217 214
-0.0958895 -0.592615 3.94202 105 161 140
0.222868 -0.580883 3.88975 78 135 114
0.789157 -0.563764 3.77885 149 192 231
-0.223902 -0.578428 3.9651 82 109 89
-0.138138 -0.574353 3.95395 97 167 137
0.922188 -0.528501 3.71515 157 187 176
0.957936 -0.51527 3.72947 90 116 103
1.62279 -0.498353 3.59271 69 120 106
0.777535 -0.513653 3.78562 97 132 122
1.02105 -0.504877 3.72314 112 148 136
1.42704 -0.454932 3.55292 164 224 183
-0.223969 -0.50294 3.95808 104 124 112
1.32068 -0.461458 3.64547 105 147 122
1.4135 -0.429112 3.53853 136 199 159
1.38037 -0.426857 3.61781 52 63 55
1.45777 -0.406113 3.55219 78 123 96
-0.0577143 -0.452786 3.99308 104 140 134
1.24074 -0.412124 3.67148 104 123 120
0.283227 -0.417929 3.90523 117 157 152
-0.241549 -0.405926 4.00607 99 135 129
1.0181 -0.383567 3.73296 87 120 105
-0.525525 -0.407679 4.04841 72 90 83
0.938724 -0.378466 3.75715 111 170 162
0.298169 -0.368877 3.91526 59 66 53
0.332148 -0.364672 3.8467 132 188 177
0.597725 -0.346337 3.83435 81 111 100
0.273823 -0.327365 3.92036 79 83 78
1.13181 -0.310008 3.73528 169 213 212
1.0393 -0.281805 3.75438 109 153 147
1.35044 -0.258322 3.65452 68 83 75
0.755498 -0.239981 3.81321 169 214 211
0.291805 -0.216697 3.91563 88 100 100
0.355608 -0.223043 3.88846 102 118 124
0.759044 -0.20999 3.79773 120 166 153
0.396743 -0.154744 3.914 110 144 144
0.775089 -0.150323 3.80316 129 166 156
0.554385 -0.137388 3.84378 106 145 130
0.710837 -0.138207 3.81845 119 150 147
0.739064 -0.127555 3.81862 96 128 123
0.259002 -0.122784 3.91772 111 148 146
0.557932 -0.074721 3.87921 79 100 92
-0.946258 -0.064144 4.15928 94 150 131
-1.27026 -0.050029 4.23783 123 165 158
1.43764 -0.0250177 3.33991 50 107 69
0.822547 -0.0197291 3.81254 73 110 102
2.1476 -0.0150444 3.57368 150 202 195
1.22485 -0.0072348 3.75222 105 145 133
0.637925 0.0294041 3.87353 79 116 112
0.639265 0.0329009 3.88672 61 97 91
-1.40379 0.0775298 4.29454 127 148 146
1.13085 0.0736553 3.78584 88 105 96
0.762976 0.10709 3.86153 55 94 79
1.16446 0.119494 3.7866 92 130 118
-1.28631 0.141567 4.25119 110 144 133
1.30137 0.180311 3.77755 84 105 106
0.871642 0.224789 3.85519 88 102 98
-0.361764 0.252711 4.09608 125 159 158
-1.16363 0.281295 4.22091 116 143 134
0.876994 0.253112 3.84615 130 173 162
0.100813 0.264825 3.98389 112 154 143
1.27615 0.273438 3.78958 104 135 128
0.402953 0.323953 3.96795 104 149 146
0.957087 0.316689 3.82663 78 81 79
1.64663 0.320139 3.73351 69 83 81
-0.264747 0.343589 4.07556 112 156 143
1.64055 0.316276 3.72264 78 92 86
1.63354 0.360231 3.71321 160 201 196
1.09561 0.391413 3.82218 166 222 211
1.15263 0.393332 3.79163 82 105 91
1.36878 0.399052 3.79126 113 147 171
0.635847 0.422226 3.9283 112 137 133
1.22688 0.425079 3.81595 109 144 134
-0.346751 0.465878 4.1055 124 161 165
1.33405 0.433395 3.80358 84 110 97
2.10242 0.414655 3.65198 183 222 220
0.761946 0.45469 3.91718 147 202 193
1.2788 0.450106 3.82291 79 111 100
1.13509 0.46172 3.86864 68 115 99
1.21707 0.447457 3.80832 125 176 172
1.35356 0.458598 3.81416 137 196 192
1.39504 0.456998 3.79967 120 176 165
1.65526 0.483626 3.74702 208 232 232
1.49312 0.505937 3.80996 98 141 138
1.19931 0.528911 3.84911 81 124 109
-0.414475 0.571191 4.12454 103 130 126
1.62228 0.532555 3.75609 69 96 92
1.83191 0.526955 3.72931 119 184 162
-0.417816 0.59705 4.16056 110 140 135
1.73903 0.55127 3.72715 92 136 119
1.74838 0.564421 3.75088 98 137 115
1.79563 0.572058 3.7531 114 150 144
1.74597 0.590362 3.75893 126 182 161
0.507498 0.635217 3.99727 106 137 134
1.69871 0.601548 3.78621 81 108 104
-1.11939 0.69466 4.28846 129 158 149
1.74437 0.624386 3.75713 73 104 89
1.19501 0.645494 3.87196 103 145 134
1.63605 0.652474 3.79912 91 151 141
0.541487 0.692948 3.96699 104 135 128
1.12666 0.67791 3.86503 79 128 106
1.42174 0.681021 3.82062 154 208 201
1.7999 0.678263 3.77455 104 158 141
1.2034 0.706095 3.86861 124 163 161
1.45089 0.694729 3.81461 66 97 88
-0.687152 0.81231 4.22577 85 114 99
1.19813 0.767091 3.89327 157 216 202
1.76715 0.759353 3.82423 116 167 163
-0.262909 0.832322 4.1559 113 147 153
-1.25554 0.842235 4.16633 101 142 127
2.14197 0.764328 3.73156 113 162 146
-0.580814 0.872741 4.19528 143 175 181
2.15324 0.771723 3.73292 82 134 117
-0.987161 0.917981 4.27454 115 174 159
2.21286 0.807271 3.70924 158 207 179
1.59094 0.825285 3.74176 146 197 169
-0.0648707 0.918532 4.13233 113 142 139
0.744292 0.898376 3.99885 126 171 168
1.5485 0.839313 3.73462 43 59 42
2.18171 0.8495 3.73278 156 200 187
1.71501 0.860499 3.75854 102 160 149
2.1819 0.849675 3.73313 156 200 187
2.25493 0.852432 3.71652 161 199 177
1.66494 0.888522 3.7547 47 75 56
2.09594 0.89546 3.77554 97 135 129
2.09424 0.893924 3.77248 97 137 132
0.690401 0.955197 4.00765 152 177 179
1.25108 0.902185 3.78959 142 187 161
0.673592 0.975206 4.01265 130 149 154
-1.97452 1.11041 4.52886 179 216 214
1.24964 0.938763 3.83833 47 72 58
1.10206 0.967909 3.91914 55 76 61
-0.299213 1.04986 4.19198 128 169 171
0.762317 1.00315 4.00302 80 100 87
-1.96804 1.14713 4.50827 119 130 127
-1.8361 1.14325 4.47831 99 106 103
1.10665 1.00052 3.93662 104 156 146
1.02511 1.02681 3.9169 159 206 203
0.667411 1.06624 4.04896 97 112 114
0.871258 1.05182 3.95472 151 202 194
1.09768 1.04647 3.93942 137 182 163
0.777584 1.09385 3.98778 149 193 186
0.757322 1.10883 4.02032 65 113 84
0.752752 1.16396 4.01468 193 230 220
1.10597 1.15191 3.97584 59 73 67
0.798234 1.17764 4.01472 167 211 218
0.832889 1.18254 4.01444 82 142 124
1.01855 1.19333 4.00277 174 214 212
0.688513 1.23641 4.06778 119 158 143
1.01088 1.21402 4.00568 115 140 136
-1.27299 1.36654 4.43696 131 181 171
0.276605 1.27483 4.14368 125 169 168
0.852293 1.25066 4.02932 199 236 228
0.0505849 1.33409 4.2089 108 141 144
