ply
format ascii 1.0
element vertex 1281
property float x
property float y
property float z
property uchar blue
property uchar green
property uchar red
end_header
-0.352913 -1.08198 3.92875 154 187 183
-0.269098 -1.08176 3.94928 134 172 166
0.671418 -1.09027 4.11691 179 215 215
-1.44214 -0.972229 3.73466 83 108 112
-0.241805 -0.977595 3.9695 147 178 171
-1.94737 -0.8558 3.49484 148 196 255
-0.113178 -0.957711 4.00094 145 179 173
-0.228853 -0.932265 3.98289 174 198 196
-0.224629 -0.933688 3.98644 164 191 188
0.0811967 -0.907673 4.04575 152 205 195
-0.016845 -0.801814 4.05082 118 146 140
-0.00836443 -0.78286 4.04592 143 194 187
0.100119 -0.786021 4.07609 184 225 217
0.0980867 -0.754455 4.07609 202 242 240
-1.19585 -0.627678 3.85448 125 183 165
-1.20004 -0.6271 3.86014 117 152 138
-0.0859198 -0.641615 4.07276 143 193 189
-1.25331 -0.522661 3.87789 156 194 198
-1.28169 -0.491466 3.87933 137 212 190
-1.03002 -0.298753 2.42054 227 243 255
-0.153741 -0.495641 4.08624 86 141 132
-1.40253 -0.404707 3.88904 63 125 107
1.67376 -0.335989 4.43375 131 184 175
0.474176 -0.187013 4.24766 164 222 193
-1.63281 -0.152518 3.94208 97 142 116
-1.64436 -0.0732318 3.97303 91 140 124
-0.193395 -0.0436086 4.17552 143 202 181
-0.199211 -0.00902337 4.18968 177 216 208
-0.214493 0.0104168 4.18338 179 242 202
-0.13091 0.0156649 4.20313 171 205 195
0.77746 0.108096 4.35857 152 217 195
-0.913606 0.103208 4.12537 66 95 80
0.733538 0.110298 4.35195 81 139 121
-1.29516 0.142728 4.08464 143 201 173
-0.252114 0.174272 4.22826 231 243 255
-0.169025 0.227353 4.23678 58 114 85
-1.39496 0.224073 4.09778 150 219 182
-0.777528 0.275406 4.19344 62 101 93
0.780952 0.289454 4.39099 153 220 175
-0.86135 0.276349 4.18204 181 202 203
-1.22323 0.275226 4.13818 108 136 116
-0.87133 0.279863 4.18376 179 202 204
-1.0154 0.279272 4.16055 159 208 192
-1.2386 0.299618 4.14311 146 189 178
-0.904407 0.302517 4.18439 185 225 220
-1.24248 0.304931 4.14627 85 133 127
-0.865988 0.309754 4.19249 131 152 149
-0.82141 0.329015 4.20242 130 169 167
-0.824127 0.336247 4.19758 157 193 187
-1.29195 0.36077 4.14788 176 185 188
-0.656243 0.395258 4.24813 88 124 118
-1.28693 0.403481 4.17185 153 190 182
-1.25801 0.407294 4.17262 125 157 146
-0.841211 0.435122 4.23572 76 93 90
-0.923284 0.477775 4.23463 114 153 132
1.23224 0.505485 4.48869 71 126 111
-0.957717 0.538449 4.24732 68 100 105
1.08252 0.650768 4.52318 166 233 212
0.705962 0.69649 4.48321 83 129 117
-0.0419106 0.72256 4.40685 187 236 222
-0.380188 0.933486 4.43275 171 220 222
-0.627387 0.929893 4.26235 7 24 10
-0.652394 0.94371 4.25733 28 41 27
-0.54054 0.951205 4.28644 46 53 32
-0.4041 1.02728 4.46135 83 120 112
-0.485491 1.09238 4.47146 134 163 167
1.24388 1.3472 4.72133 93 147 130
-0.650298 1.3145 4.52621 171 226 211
-0.710104 1.34329 4.53062 143 176 162
-0.682041 1.38298 4.55209 153 206 179
0.793938 1.60684 4.74801 147 196 176
1.28846 1.65397 4.80113 169 193 193
1.49507 1.80181 4.84633 130 161 132
0.852665 1.74388 4.65054 136 162 144
0.322808 1.8524 4.78119 89 145 124
0.868032 1.8275 4.66982 50 78 65
1.26533 1.89854 4.83651 144 218 188
0.724007 -1.33918 4.09811 122 151 148
-0.313988 -1.1669 3.92301 210 240 241
-0.214003 -1.14021 3.93831 164 189 179
-1.75197 -1.03081 3.6612 242 255 253
-0.271617 -1.08125 3.94551 142 184 177
-0.0490413 -1.05788 3.99907 192 227 217
-0.0752521 -1.01807 3.9997 131 167 150
-0.122642 -1.00047 3.9962 201 221 222
-0.0957366 -0.995723 3.99894 157 205 187
0.0459984 -0.983995 4.02607 161 208 200
-0.0862541 -0.946879 4.0111 139 190 162
-0.125391 -0.926451 4.00654 151 193 182
-0.0327442 -0.928439 4.02552 125 178 151
-0.062998 -0.919407 4.02292 131 149 142
-0.104672 -0.881412 4.01774 137 167 162
-0.0750884 -0.876949 4.01109 161 208 206
-0.0856017 -0.870518 4.01741 181 207 214
-0.0176433 -0.840816 4.04436 163 206 195
1.75041 -0.904939 4.35752 160 201 186
1.43781 -0.868376 4.27621 147 176 173
0.0233619 -0.813909 4.05349 151 161 161
-0.0475144 -0.779274 4.04588 70 81 73
0.0931972 -0.785188 4.06936 190 224 224
1.42102 -0.825304 4.29473 120 133 125
0.0219915 -0.773477 4.0542 106 125 122
-0.0314541 -0.725509 4.06117 134 182 176
0.244806 -0.6968 4.12211 88 150 144
-1.25331 -0.522661 3.87789 156 194 198
-1.2788 -0.491362 3.87903 147 225 202
-1.62111 -0.368081 3.86725 71 126 107
-1.208 -0.222188 3.9857 93 146 137
-1.50141 -0.179869 3.95185 77 133 110
-0.154588 -0.139907 4.16433 97 149 132
-0.19431 -0.0309736 4.18233 144 199 196
-0.216745 -0.0266808 4.17231 55 91 69
1.19442 -0.0188973 4.39416 112 140 141
0.985247 -0.0150489 4.37389 122 164 147
-0.199234 -0.00934708 4.1883 162 201 193
-0.167757 -0.00494494 4.19781 72 131 103
-0.14594 0.00534519 4.2049 83 117 116
-0.238183 0.0172056 4.17732 162 232 192
1.54813 0.0583747 4.47991 118 168 158
-1.34741 0.0773918 4.04985 134 207 181
-0.195388 0.0947744 4.20758 140 144 149
0.733685 0.100564 4.35359 65 110 93
1.1381 0.121576 4.42244 98 140 139
-0.955103 0.217992 4.15495 160 218 194
0.730673 0.266324 4.38145 48 90 67
-0.189875 0.269195 4.25599 62 126 96
0.0178551 0.283082 4.2953 92 144 137
-0.870803 0.279197 4.18159 186 214 215
-0.896716 0.287385 4.18099 197 238 231
1.09392 0.30575 4.4231 51 68 55
1.26387 0.324938 4.45814 202 236 230
-0.700372 0.321407 4.22317 99 119 114
1.15512 0.355851 4.46711 79 123 106
-1.08591 0.33796 4.1773 57 99 82
-1.22949 0.363717 4.16296 62 118 113
0.797967 0.397996 4.42778 66 113 104
-0.84533 0.39229 4.23621 174 207 222
-0.284202 0.408217 4.28722 63 117 104
-0.550705 0.410929 4.25327 183 211 211
-0.925065 0.432565 4.21623 111 136 140
-0.841211 0.4354 4.23655 76 93 90
1.26479 0.476733 4.50539 176 199 201
-0.876442 0.48044 4.23932 160 197 201
0.796965 0.614001 4.47708 77 145 122
-0.116215 0.628976 4.36882 78 157 124
-0.562196 0.606938 4.16154 36 63 54
-0.487598 0.661344 4.182 130 186 165
-0.0293333 0.712924 4.40822 178 231 217
0.236773 0.727334 4.44215 108 143 146
0.784241 0.739009 4.51404 87 130 119
-0.0428515 0.724224 4.41314 168 206 200
-1.75008 0.700113 4.21691 158 232 202
-0.519827 0.713712 4.17307 140 182 171
-1.75257 0.778237 4.25188 77 123 101
1.09312 0.842488 4.56604 108 161 151
-0.410529 0.816554 4.39796 131 180 166
-1.81993 0.795398 4.24451 73 139 110
-0.380126 0.869179 4.41265 45 88 77
0.822322 0.93685 4.55583 100 151 143
-0.386142 0.944732 4.42786 157 213 202
-0.627254 0.929665 4.26185 7 24 10
-0.404504 1.02641 4.45941 96 129 122
-0.656651 0.980395 4.21979 137 163 150
0.403071 1.0839 4.56439 92 164 141
0.18553 1.15932 4.56828 107 158 150
-2.09397 1.13547 4.35326 86 141 124
0.0324291 1.19284 4.55398 153 202 180
0.1208 1.27121 4.58695 100 139 124
0.185146 1.33565 4.61478 70 93 78
0.87933 1.43073 4.71296 176 232 221
-1.3058 1.38655 4.51293 56 105 83
-0.464408 1.52167 4.61907 104 129 139
-2.58796 -3.6698 -10.6902 119 162 159
-0.629243 1.58983 4.62166 113 136 132
0.827621 1.74763 4.64821 64 101 81
-0.406055 -1.09528 -2.29272 39 58 39
1.77053 -1.45812 4.16991 86 131 104
-1.31562 -1.27077 3.67294 104 138 151
1.77613 -1.43351 4.1698 64 101 97
0.693237 -1.39531 4.09184 114 160 171
-1.60277 -1.18945 3.64506 103 149 143
0.754775 -1.3223 4.11693 116 161 172
-1.87468 -1.15294 3.59732 211 245 244
0.70366 -1.30186 4.07648 121 154 147
-1.88796 -1.14465 3.58377 96 115 118
0.792902 -1.30493 4.11771 97 134 142
0.795607 -1.28894 4.12785 101 135 148
-1.86313 -1.10874 3.61079 133 144 152
0.605507 -1.2375 4.08534 99 154 137
1.28222 -1.27856 4.23224 109 153 147
-0.314037 -1.16672 3.919 207 247 246
0.255243 -1.19573 4.03011 128 144 151
-1.99622 -1.05894 3.59378 79 88 92
0.252939 -1.18567 4.03118 208 241 237
0.822291 -1.20597 4.12114 92 128 116
-0.321657 -1.13183 3.93343 91 107 114
-0.306158 -1.12598 3.92697 173 218 221
0.759655 -1.17649 4.10963 121 152 153
-1.99627 -1.03319 3.6197 145 203 168
-1.91443 -1.02044 3.61973 173 207 200
-0.198332 -1.11323 3.95528 169 219 215
-1.79427 -1.02214 3.64977 200 244 231
-1.67557 -1.02544 3.67175 220 255 251
-0.0268735 -1.10729 3.99034 132 184 167
-0.280915 -1.0926 3.9399 165 209 202
-0.107471 -1.0962 3.9733 148 181 174
-0.0396235 -1.09826 3.98681 78 86 79
-0.193341 -1.09045 3.96861 151 187 181
-0.0473789 -1.08892 3.98571 148 194 181
-0.0954595 -1.08586 3.98926 174 208 214
-1.77404 -0.996425 3.66131 124 200 169
0.638359 -1.11486 4.10544 84 121 117
-0.148899 -1.06822 3.96819 74 79 64
0.545666 -1.09717 4.0974 100 156 145
-1.64879 -0.963377 3.68549 109 137 114
-0.151221 -1.01216 3.98325 149 158 148
-0.074841 -1.01808 3.99977 131 167 150
-1.48191 -0.948143 3.73522 194 233 225
0.0394128 -1.00179 4.01891 103 123 118
-0.108126 -0.985832 3.99529 153 188 178
0.0967178 -0.973319 4.03488 193 237 224
-1.26781 -0.903407 3.78392 130 161 130
-0.0416744 -0.944517 4.00888 135 180 164
-0.0615347 -0.942142 4.01197 148 208 198
-0.0160571 -0.944841 4.0229 153 191 179
0.0481122 -0.936265 4.03832 128 162 152
-0.113003 -0.921884 4.01286 159 205 183
-0.861457 -0.883543 3.86465 79 120 122
1.48132 -0.95899 4.29108 123 155 168
-0.0755529 -0.87663 4.02143 195 233 233
-0.887167 -0.841373 3.86915 91 136 127
0.075669 -0.880803 4.05282 142 188 166
1.09664 -0.921625 4.23831 111 135 117
0.0969788 -0.874136 4.05008 159 212 202
-0.146293 -0.861512 4.01165 137 179 168
-0.0730822 -0.850601 4.03083 85 101 94
-0.0706161 -0.851408 4.03061 86 100 94
-1.35279 -0.76485 3.62399 188 233 255
-0.0584208 -0.847464 4.03266 159 203 196
0.848361 -0.797139 3.81227 169 245 221
1.75185 -0.904849 4.36162 160 201 186
1.43896 -0.877372 4.28554 75 100 96
-0.92621 -0.758704 3.88462 90 109 124
-0.0522156 -0.790731 4.04256 139 182 155
1.42209 -0.82519 4.29755 143 159 152
-0.036249 -0.767239 4.05185 176 216 204
0.0256485 -0.766002 4.06066 193 215 226
0.0898537 -0.770752 4.07755 107 124 120
0.0253675 -0.765551 4.06844 191 207 219
-0.926562 -0.718364 3.89411 120 159 161
0.115512 -0.732084 4.08137 130 182 172
0.0533376 -0.705136 4.08412 188 235 233
0.27884 -0.702716 4.11723 82 142 136
1.28502 -0.691907 4.309 123 168 151
-1.20071 -0.585034 3.86452 97 137 132
-1.23781 -0.545619 3.86455 78 99 101
1.2682 -0.606467 4.32414 115 147 123
-0.10021 -0.567957 4.08361 172 221 213
-0.0293952 -0.561259 4.08746 115 174 166
-1.25288 -0.522153 3.87689 156 194 198
-1.28058 -0.503364 3.88361 155 221 196
-1.26799 -0.447503 3.88477 125 139 151
-1.43555 -0.432148 3.86336 82 76 53
-1.35354 -0.432591 3.89094 95 143 131
-1.2427 -0.412345 3.90745 72 98 92
-1.40494 -0.405296 3.89 44 99 82
-1.24459 -0.405114 3.93098 77 107 96
0.389269 -0.406402 4.19561 86 146 135
1.67691 -0.382349 4.42547 142 192 188
1.48988 -0.375945 4.38365 142 174 173
-1.8123 -0.323756 3.86366 164 219 228
-1.53354 -0.324707 3.89544 79 111 106
-1.4005 -0.321821 3.92082 105 159 160
0.41918 -0.325641 4.21327 103 175 153
-1.23451 -0.298973 3.95331 77 120 99
-1.40634 -0.292823 3.92605 83 141 116
-0.0481882 -0.276775 4.15557 114 158 157
-0.0440182 -0.27541 4.15828 89 134 131
1.5362 -0.287463 4.41029 120 177 168
-1.46097 -0.210337 3.95526 128 162 152
-1.43679 -0.182565 3.97017 246 255 252
-1.49994 -0.179624 3.95476 83 133 115
-1.19696 -0.172453 4.0049 87 151 145
0.467816 -0.181005 4.25014 75 135 117
1.0272 -0.149863 4.34514 113 142 139
2.12403 -0.156169 4.5393 123 166 175
2.03898 -0.153407 4.52668 144 166 177
-1.52337 -0.133092 3.96681 90 142 119
-0.154581 -0.139533 4.16337 99 154 137
1.51761 -0.138111 4.44557 85 116 125
2.1742 -0.139444 4.55254 130 173 176
0.988557 -0.129613 4.33302 50 57 54
1.00254 -0.128086 4.33679 105 132 128
1.07415 -0.125385 4.35812 97 112 108
1.099 -0.116343 4.36145 115 168 159
1.52249 -0.117028 4.44354 86 140 133
1.2874 -0.109181 4.39782 113 166 157
1.33262 -0.104139 4.40349 99 142 131
-1.98338 -0.0907472 3.92136 80 150 119
0.938339 -0.0914674 4.3408 55 100 91
1.4159 -0.0922508 4.42339 80 144 132
-1.47399 -0.0730124 3.99526 54 104 80
-0.202734 -0.0473763 4.17501 96 133 117
1.24344 -0.0501399 4.39367 91 139 133
-0.104584 -0.0382092 4.2018 107 148 133
-0.106784 -0.0377883 4.20355 102 157 130
0.71822 -0.0301643 4.33527 102 156 139
-0.21437 -0.0265291 4.17507 57 85 66
0.495958 -0.0279636 4.28827 104 163 143
0.993788 -0.0142087 4.36717 93 139 120
-1.47659 -0.0076681 3.99734 82 114 103
-0.196619 -0.0104168 4.18824 133 184 177
0.647906 -0.00724153 4.31679 76 122 116
-0.309464 -0.00085636 4.17276 224 252 252
1.3011 -0.000816532 4.42927 107 151 138
-0.236822 0.0176885 4.17936 184 255 210
-1.78833 0.019454 3.96956 29 57 21
0.75624 0.0315806 4.35872 101 142 135
1.10807 0.0509935 4.38718 108 148 143
1.37743 0.0573454 4.43622 74 93 90
1.55037 0.0592277 4.48355 109 161 151
-0.171188 0.0651662 4.19123 195 242 216
-1.28093 0.0648192 4.06139 61 97 80
0.784442 0.0702174 4.35558 105 161 150
1.38751 0.0723403 4.43663 95 129 122
-1.49397 0.0649192 4.03335 170 227 212
-1.3492 0.0697598 4.0774 74 105 78
-1.06365 0.0682566 4.09789 152 194 177
-0.983828 0.0744578 4.11148 60 107 91
-0.110531 0.079511 4.20093 76 96 97
-0.292582 0.0879074 4.19489 157 187 204
-1.2608 0.0921926 4.0621 87 120 105
-0.527349 0.100214 4.17579 106 155 147
0.78331 0.109757 4.368 142 201 181
-1.26054 0.105362 4.07078 146 215 195
0.0101913 0.110016 4.25858 174 227 207
-1.48062 0.109838 4.04059 101 166 141
-1.48393 0.109685 4.03984 148 205 172
-1.44163 0.11191 4.04814 71 121 103
-0.917898 0.11819 4.14581 121 176 151
0.655517 0.120559 4.35409 62 118 105
1.13762 0.120871 4.41967 98 140 139
-0.917547 0.116814 4.14068 135 193 169
-0.02267 0.120871 4.24399 81 132 112
-1.4829 0.118746 4.04753 150 211 185
-0.909464 0.121273 4.13568 76 117 96
-0.000561587 0.126071 4.25558 85 110 114
0.730052 0.132156 4.3564 79 115 103
-0.259701 0.132089 4.21434 151 163 187
0.470779 0.134603 4.32041 116 168 161
0.544088 0.135428 4.33187 89 161 141
-1.44295 0.135943 4.05509 53 83 70
-0.965539 0.141291 4.12982 117 150 129
-1.20644 0.151958 4.10914 151 163 151
-0.0188537 0.168813 4.26485 87 116 107
-1.83143 0.158027 4.02521 129 202 162
-0.225862 0.186257 4.23849 83 99 105
1.62485 0.209186 4.51362 117 144 134
-1.28114 0.199078 4.10225 44 66 47
1.21063 -0.184656 -3.6414 75 99 75
-1.37338 0.204217 4.08625 31 67 37
-1.35601 0.207014 4.09077 131 198 161
-0.871493 0.211739 4.18505 101 163 139
-1.27764 0.215198 4.11599 125 153 140
-0.820025 0.21971 4.16769 222 240 241
-0.952198 0.225922 4.1559 83 141 117
-0.825068 0.231279 4.17507 110 125 128
0.546589 0.243109 4.35877 97 158 144
1.2007 0.24769 4.45995 106 160 147
0.929015 0.247758 4.36373 142 206 177
0.77418 0.261139 4.39319 70 117 91
1.26155 0.268773 4.46015 178 236 212
-0.259213 0.263231 4.25381 91 150 135
-0.863316 0.260021 4.18027 124 169 160
-0.709502 0.268504 4.21075 191 227 233
1.12568 0.286464 4.4191 70 113 102
-0.209012 0.280516 4.26383 152 229 191
1.2371 0.291287 4.43695 179 241 217
-0.950665 0.287402 4.18309 68 118 106
-0.896391 0.287096 4.18005 192 233 226
1.26568 0.326163 4.46227 187 224 216
-0.918638 0.319781 4.18572 149 186 176
-0.702774 0.323494 4.22979 85 94 91
0.783291 0.339357 4.39631 52 91 83
-1.00389 0.330233 4.17682 164 223 209
-0.679039 0.332066 4.22512 154 197 194
1.15519 0.355627 4.46478 79 123 106
-1.19688 0.33659 4.1642 160 163 161
0.779634 0.356135 4.39944 68 117 101
-1.1524 0.343496 4.16926 110 142 125
-0.275202 0.358847 4.27608 104 157 147
-0.654801 0.36022 4.23397 86 115 112
-0.752061 0.36272 4.21942 68 75 62
-0.811083 0.365781 4.21055 169 207 201
-0.18414 0.381473 4.29062 81 139 121
-1.06662 0.377212 4.19516 61 85 73
-0.975151 0.380061 4.20043 138 202 173
-0.748391 0.381401 4.23169 106 141 121
1.15296 0.403149 4.47052 50 112 96
-0.659369 0.394328 4.24515 77 104 95
-0.640217 0.400488 4.23719 91 108 104
-0.259499 0.407045 4.2991 95 132 116
-0.878405 0.411251 4.22102 142 197 182
-1.47465 0.369599 3.78145 165 247 225
-0.821804 0.419951 4.23339 108 145 137
-0.5136 0.434148 4.27573 145 202 194
-0.926929 0.4344 4.2216 150 179 183
0.500214 0.45715 4.39287 71 129 111
1.26798 0.472461 4.49922 194 220 226
-0.398309 0.458214 4.28788 73 116 103
0.476981 0.472478 4.40688 82 137 120
-0.918946 0.462428 4.23483 158 203 184
-0.408514 0.473968 4.29698 149 210 196
1.15808 0.50106 4.48969 99 138 130
-1.33547 0.469139 4.18697 170 211 213
-0.5386 0.477625 4.28407 137 152 144
1.11126 0.503776 4.50257 75 127 110
1.19513 0.502332 4.4961 46 88 77
-0.780701 0.492181 4.26165 71 85 81
-0.624765 0.493821 4.27331 106 132 109
-0.62305 0.491773 4.26748 110 131 116
1.25025 0.519631 4.49878 53 90 88
-0.83212 0.500364 4.25014 115 161 155
-0.802227 0.500339 4.24399 51 72 63
0.552413 0.551877 4.43283 81 123 116
0.68258 0.563785 4.44852 83 128 112
0.0125479 0.553767 4.38038 93 158 137
-0.36738 0.561387 4.32435 103 133 108
0.980651 0.583702 4.49924 153 207 190
-0.0424551 0.578861 4.36629 88 144 131
1.17919 0.599256 4.51636 111 130 133
1.194 0.603428 4.52011 80 112 111
1.05597 0.625814 4.50761 63 95 90
-0.598924 0.590523 4.12921 42 53 43
-0.635737 0.60178 4.11777 64 99 89
0.618727 0.662348 4.47239 75 128 118
0.950291 0.672577 4.50708 70 123 113
1.19854 0.677154 4.53359 103 146 135
-0.0662542 0.653706 4.3821 42 78 56
1.14167 0.682056 4.53335 175 240 215
1.20055 0.680536 4.54273 95 140 131
-0.747423 0.622757 4.09765 133 166 145
-0.90884 0.611653 4.0068 98 128 133
-0.0676682 0.671604 4.38276 81 130 110
-0.104767 0.67276 4.36814 74 114 103
-0.0625653 0.678058 4.37138 168 244 212
-0.0620964 0.68099 4.37903 172 253 214
-0.0407717 0.690907 4.40837 178 231 221
0.00815358 0.717771 4.40976 93 156 140
0.777644 0.741479 4.5015 157 216 202
0.779572 0.740522 4.49907 136 189 179
0.552316 0.751963 4.49118 104 168 156
-0.113504 0.739156 4.3908 106 124 131
-0.497441 0.713415 4.18144 30 49 40
0.464486 0.764862 4.47671 72 131 103
-1.63976 0.725893 4.22789 41 90 58
-0.38337 0.755053 4.38098 97 147 129
-0.514439 0.728323 4.1885 146 193 184
0.837975 0.793309 4.52458 97 152 143
2.22682 0.846198 4.73322 132 168 174
-0.868149 0.733362 4.0632 137 183 160
-1.8607 0.77386 4.23495 191 241 217
0.600051 0.822195 4.50229 80 123 114
-1.8174 0.782332 4.25982 72 116 99
-0.405334 0.815542 4.39561 169 227 216
-0.409828 0.815989 4.39661 131 180 166
-1.84766 0.789948 4.24335 69 128 107
-0.432128 0.830121 4.41739 131 157 151
0.405958 0.875186 4.50653 121 170 162
-0.404781 0.869554 4.40575 115 153 135
-0.380289 0.870093 4.41481 45 88 77
-0.364145 0.900992 4.4314 87 128 123
0.61397 0.923287 4.51106 75 119 112
-0.696183 0.881776 4.27082 52 86 76
0.553048 0.933538 4.52382 178 231 228
-0.665809 0.889571 4.26058 140 173 158
0.218799 0.944126 4.50997 118 174 161
-0.553648 0.897511 4.27691 98 124 108
-0.281181 0.940786 4.44771 76 117 126
-1.65943 0.93097 4.31837 99 148 120
-1.65579 0.927886 4.3115 73 115 92
-1.19489 0.942863 4.36812 52 116 97
-0.668377 0.919629 4.25504 162 189 173
0.709194 0.983247 4.54492 104 165 151
1.38691 1.00678 4.65712 104 147 136
0.497268 0.985702 4.52898 97 128 121
-1.73789 0.944646 4.30479 137 201 166
-0.568572 0.946131 4.28987 77 83 72
2.10844 1.07255 4.76141 184 224 219
-1.53383 0.980886 4.34825 58 117 89
0.614608 1.02793 4.55467 81 125 126
0.134063 1.02911 4.52362 63 132 117
-0.410764 1.01698 4.46226 146 208 202
0.856975 1.05181 4.59174 169 235 216
0.496369 1.06915 4.53144 64 100 88
0.827929 1.08463 4.59991 102 164 150
-1.65355 1.02549 4.34601 56 126 96
0.404851 1.08079 4.55684 87 156 135
-0.485347 1.09762 4.48924 164 210 204
2.07773 1.17216 4.77094 97 118 120
-1.64312 1.08329 4.37307 43 97 68
0.532933 1.15411 4.58762 92 129 125
0.502869 1.15208 4.56432 176 229 220
0.672027 1.1825 4.5965 82 125 116
-0.0476827 1.17589 4.5393 75 111 99
0.708431 1.19841 4.61046 164 226 208
0.648193 1.19532 4.59778 145 210 188
1.52235 1.23983 4.70645 163 228 202
-0.49204 1.18852 4.50251 156 204 192
0.717523 1.22066 4.62185 171 225 218
-0.453888 1.21132 4.51209 145 203 192
-0.0293233 1.24401 4.56106 131 166 146
0.120972 1.27197 4.58848 103 146 131
0.119954 1.28479 4.61435 103 141 129
0.846646 1.30143 4.64238 151 200 180
0.182546 1.29574 4.60533 165 196 189
0.487196 1.32758 4.62926 109 169 151
-1.50704 1.28618 4.4646 94 146 128
1.08169 1.36785 4.71082 103 165 151
1.49245 1.39417 4.77063 94 150 139
1.53452 1.40096 4.77742 57 90 83
1.57139 1.41975 4.78646 102 135 128
-1.60797 1.32383 4.45139 74 130 109
-0.6641 1.35819 4.54294 164 209 200
-1.45607 1.34096 4.48167 89 131 114
0.642551 1.41837 4.68696 97 163 144
0.879248 1.42992 4.71139 179 234 225
0.62284 1.42876 4.68307 68 146 123
0.15801 1.42026 4.63129 85 100 96
-1.29558 1.40511 4.51637 83 129 100
0.481172 1.49567 4.70004 77 136 116
-0.739091 1.46843 4.57159 66 111 94
0.596976 1.51857 4.71292 62 127 112
1.37268 1.56967 4.78978 101 136 132
1.34986 1.58449 4.79326 129 163 156
-0.643365 1.52755 4.61338 81 124 111
1.45863 1.60591 4.80131 80 112 101
1.46818 1.62125 4.83765 76 109 94
1.39766 1.62499 4.81611 131 169 157
1.31756 1.62751 4.79841 98 135 125
1.49378 1.65676 4.83627 152 224 202
1.21205 1.6612 4.8095 88 109 110
0.93039 1.64261 4.75145 128 153 139
1.20019 1.66376 4.80093 158 205 196
1.32035 1.6637 4.80674 94 138 131
1.53272 1.67839 4.83528 109 166 128
0.958253 1.67227 4.75738 83 100 87
1.28712 1.71083 4.82873 151 192 185
0.818449 1.70489 4.7754 160 200 189
0.353216 1.7045 4.74701 73 128 113
-0.647549 1.66936 4.64628 97 138 130
-0.644731 1.67522 4.65627 93 136 125
-0.985101 1.66887 4.62773 90 153 133
0.257311 1.71205 4.73173 69 145 127
0.817865 1.72537 4.76736 113 143 132
-0.678461 1.6851 4.64804 84 139 120
-0.688014 1.68805 4.65326 83 137 120
1.39054 1.77147 4.82366 70 118 100
-1.15785 1.70805 4.64033 57 116 78
1.46528 1.78177 4.82753 46 68 56
1.51086 1.797 4.8583 151 221 190
1.45032 1.80256 4.85126 114 157 144
1.35159 1.82425 4.81835 79 122 111
0.819998 1.77148 4.64997 34 46 34
1.41111 1.85719 4.82374 130 217 191
0.905677 1.81855 4.67429 154 186 169
1.24133 1.8835 4.83428 130 195 169
0.114621 1.86077 4.76882 70 121 113
1.07339 1.88252 4.80727 158 216 192
1.26954 1.93882 4.84317 118 160 143
1.3975 1.96055 4.87801 83 136 123
2.2568 1.99859 4.96817 98 151 138
2.24372 2.02451 4.97563 85 125 114
0.693315 -1.39549 4.09367 109 153 166
-1.2674 -1.25489 3.70244 180 218 222
-1.99595 -1.20507 3.54315 114 138 126
-2.01865 -1.19492 3.54707 86 115 100
1.99713 -1.44103 4.35296 158 181 197
-2.0766 -1.14589 3.55361 81 92 89
-1.24174 -1.19385 3.71556 100 141 144
-1.98417 -1.13243 3.57273 180 224 195
-2.01147 -1.11793 3.55579 92 137 118
-2.13065 -1.11182 3.55423 78 70 70
-2.08743 -1.10452 3.55801 65 64 60
1.15926 -1.298 4.20165 110 150 148
-1.92207 -1.10148 3.60148 163 204 183
-0.405246 -1.14833 3.90555 216 250 250
0.827703 -1.20613 4.10069 88 125 121
-0.450253 -1.13902 3.89575 128 181 168
-0.269931 -1.13786 3.93597 169 201 200
-0.0410061 -1.15156 3.98324 166 221 212
0.800421 -1.18986 4.12492 93 124 123
-1.65331 -1.05492 3.6674 248 255 255
-0.304895 -1.1261 3.9304 167 207 212
1.37267 -1.19536 4.24718 170 239 226
-1.92078 -1.02092 3.63511 150 170 165
-1.92081 -1.01167 3.62748 82 77 79
-1.7038 -1.01996 3.66927 168 228 218
-1.58042 -1.02782 3.6896 97 147 135
0.828126 -1.14523 4.11934 145 176 179
-0.106371 -1.09635 3.97868 149 183 176
-0.0118275 -1.09235 3.99803 198 238 237
-1.77119 -0.996447 3.65795 106 180 150
-1.78153 -0.990784 3.66148 78 85 70
-0.220239 -1.07262 3.96672 138 183 174
0.652732 -1.10191 4.11534 196 231 227
-2.0229 -0.908433 3.47913 88 119 174
-1.44205 -0.971043 3.73359 89 120 119
-0.224636 -1.02091 3.97007 138 180 169
-0.179393 -1.01235 3.98523 109 136 116
-1.51514 -0.944489 3.72406 74 79 70
-0.120261 -1.01167 3.9903 137 168 161
-1.48296 -0.948066 3.74282 171 219 201
-1.37718 -0.924058 3.7401 110 124 112
-0.245131 -0.979821 3.97221 94 128 121
-0.189422 -0.982522 3.98417 126 171 154
-1.35446 -0.919631 3.74924 169 214 188
-1.91133 -0.858905 3.5165 175 212 250
0.0462517 -0.983982 4.02978 175 222 214
1.15839 -1.03178 4.21433 97 137 125
0.0762096 -0.980913 4.02011 89 105 104
-1.8908 -0.835597 3.49919 163 219 238
-0.120585 -0.943011 4.0021 142 194 184
-0.101079 -0.922707 4.01051 139 181 163
-0.0828223 -0.870044 4.02051 197 222 232
0.0968766 -0.874244 4.0466 159 212 202
-2.02354 -0.730238 3.45843 175 183 223
0.816752 -0.798224 3.80552 176 244 219
0.0319433 -0.84038 4.04143 186 209 217
-0.0578709 -0.832987 4.03977 145 196 182
-0.833975 -0.799986 3.89882 99 135 145
-0.0209033 -0.819356 4.0415 144 186 168
-1.11094 -0.764645 3.84806 76 76 70
-0.013556 -0.778709 4.04845 164 220 207
0.0245349 -0.77665 4.05339 86 109 101
-0.00229595 -0.756364 4.06325 91 109 108
0.0802706 -0.754022 4.07168 114 140 134
-1.16506 -0.664055 3.83452 63 100 84
-0.082812 -0.695395 4.06548 130 170 158
-0.0656523 -0.693196 4.04907 75 105 92
-1.17067 -0.645288 3.86606 85 131 118
-1.1632 -0.643089 3.864 102 148 142
1.29684 -0.66308 4.31115 185 236 228
-1.19697 -0.585752 3.85804 162 199 197
-0.0780793 -0.601165 4.08663 178 229 221
-0.990083 -0.557527 3.91955 92 156 161
1.32521 -0.618077 4.31209 117 164 148
-1.25095 -0.540539 3.90787 135 195 184
1.7893 -0.56815 4.41962 93 137 136
-1.97104 -0.458068 3.79438 119 172 175
-1.29084 -0.461889 3.8868 71 105 105
-1.4324 -0.433674 3.8529 98 85 53
-1.40275 -0.413507 3.88942 147 198 200
-1.24369 -0.405626 3.92758 77 107 96
-1.62218 -0.367528 3.87067 56 107 93
-1.34404 -0.32721 3.91384 67 100 79
-0.425633 -0.322725 4.08045 79 112 121
0.416842 -0.327466 4.20181 113 184 151
-1.21533 -0.270321 3.96733 93 147 142
1.6605 -0.29417 4.44047 137 162 158
1.01053 -0.279271 4.30827 54 68 64
0.962847 -0.236926 4.29387 137 195 167
1.71272 -0.232003 4.45632 75 109 109
2.01528 -0.226851 4.50196 113 147 160
-1.5 -0.179674 3.95451 83 133 115
-1.47441 -0.183045 3.95527 161 170 174
-1.4716 -0.175389 3.9549 225 239 238
-0.219572 -0.154783 4.15036 117 173 162
-1.67048 -0.143755 3.94754 62 99 79
1.78075 -0.165218 4.47461 98 125 121
-1.63383 -0.141251 3.96337 154 205 191
2.12398 -0.156108 4.53963 123 166 175
1.07303 -0.125903 4.35552 108 125 122
-0.128429 -0.0999279 4.18868 82 140 111
-0.199252 -0.086797 4.16391 219 248 245
-1.46853 -0.0732217 3.99145 48 88 63
-1.64824 -0.0738963 3.96416 106 164 140
-0.213371 -0.0406986 4.16858 162 241 202
-0.218387 -0.0151785 4.16254 170 251 202
0.699703 -0.0114521 4.3279 100 140 139
-0.226659 0.00083975 4.1807 64 90 72
1.4545 0.00269694 4.45084 127 163 151
-1.43792 0.00963351 4.02528 112 151 136
-0.248075 0.0118658 4.18602 119 135 128
0.607239 0.0314936 4.32302 57 117 99
1.73327 0.0391611 4.49159 126 150 156
-1.72015 0.0375117 3.98863 131 199 158
-0.218294 0.0421169 4.19556 82 101 108
-1.05036 0.0483736 4.10408 162 220 202
-0.998064 0.0502539 4.10056 135 185 167
-0.977848 0.0569399 4.11183 84 124 106
1.42501 0.0578609 4.45393 121 155 149
-1.30004 0.0644739 4.05502 88 112 94
-1.06419 0.0677409 4.09586 159 203 190
-1.27317 0.0734833 4.06549 70 117 109
-1.10523 0.0791406 4.115 65 80 66
-0.921186 0.0764097 4.11612 84 134 110
0.881493 0.0827892 4.3614 165 226 206
-1.51237 0.0807208 4.03499 119 172 162
-1.3686 0.0824662 4.05814 58 80 61
-1.1064 0.0868176 4.12431 130 164 140
-0.962427 0.0954905 4.1241 148 195 173
0.782863 0.109493 4.36696 142 201 181
-1.26324 0.10688 4.07633 155 228 206
-1.16541 0.108342 4.10717 58 88 77
-0.996679 0.106299 4.12292 133 161 138
-1.20107 0.11112 4.09708 68 100 89
1.13495 0.12157 4.42325 108 147 145
-0.958308 0.116199 4.14089 127 154 134
-0.100394 0.118754 4.21838 169 213 207
-0.00834899 0.123354 4.24153 205 241 241
-1.41305 0.118761 4.07228 68 110 92
-1.04562 0.123385 4.11494 141 181 156
-0.92573 0.132244 4.1305 97 166 153
0.489795 0.13633 4.31821 98 155 146
-1.41577 0.130303 4.07559 140 201 181
-0.292381 0.135289 4.21779 115 140 172
1.16414 0.144574 4.43288 192 229 227
1.27399 0.138994 4.41203 108 132 130
-1.20775 0.136479 4.10134 51 65 47
-0.928111 0.137356 4.14924 164 229 208
0.490065 0.143486 4.32877 90 146 135
-1.51176 0.142434 4.0519 93 119 101
1.16548 0.155193 4.42888 117 136 139
-0.314964 0.150135 4.2275 254 254 254
1.50124 0.185553 4.44322 158 213 194
-2.35458 0.168603 3.96238 134 190 177
-1.26439 0.175971 4.11348 141 197 176
-0.0480106 0.186869 4.26605 62 96 79
-1.3607 0.184955 4.07529 45 67 43
0.53391 0.198504 4.33076 78 129 101
0.983834 0.202013 4.38608 183 230 222
0.985124 0.205844 4.40001 210 243 239
-1.32736 0.202309 4.0975 49 69 57
-0.960097 0.207138 4.15849 100 135 109
0.590812 0.217312 4.3503 65 126 100
-1.35255 0.203872 4.08012 110 169 138
1.01229 0.230063 4.39662 74 106 95
1.10967 0.228257 4.42061 64 100 86
-0.953715 0.226591 4.15858 83 141 117
1.03064 0.247336 4.39304 69 111 86
1.61173 0.254677 4.53066 87 106 97
1.58617 0.257434 4.52194 133 171 189
1.08273 0.266338 4.43714 71 105 95
-1.01428 0.255794 4.14244 114 164 154
-0.868722 0.256491 4.16884 131 188 180
-0.8255 0.253517 4.16605 149 161 161
-0.67672 0.26492 4.20822 137 180 171
-1.02559 0.264965 4.16185 168 215 207
-0.722626 0.268235 4.20578 170 224 219
0.748999 0.279685 4.37454 64 91 75
1.09696 0.281634 4.40847 131 205 177
-1.04201 0.271685 4.16135 151 182 173
-0.684451 0.279604 4.25708 79 110 101
1.12574 0.28635 4.41871 70 113 102
-0.863526 0.28267 4.19306 232 235 220
0.779794 0.298483 4.40463 35 52 38
1.16439 0.297392 4.44708 61 93 76
-0.948425 0.285062 4.17551 87 130 121
-1.21265 0.293549 4.15308 158 220 202
-1.11259 0.298769 4.15903 114 128 122
-0.868172 0.308645 4.18419 170 200 195
-0.704019 0.315213 4.22383 170 215 212
0.972418 0.323174 4.32735 173 227 204
-0.917477 0.318571 4.18189 149 186 176
-0.683172 0.325003 4.23069 83 101 94
0.786329 0.337972 4.39912 53 85 74
0.963526 0.333695 4.33506 77 111 101
-0.978943 0.324959 4.18799 63 81 64
-1.0355 0.326866 4.17691 136 188 181
-0.678659 0.332803 4.22748 158 210 203
-1.00532 0.332002 4.18238 163 220 205
-1.01633 0.340981 4.18602 159 218 197
1.3615 0.363898 4.47771 181 229 203
-1.08952 0.342233 4.16915 102 147 128
-0.938168 0.350524 4.2027 105 136 127
-0.275684 0.358495 4.27495 104 157 147
0.770834 0.372523 4.39576 153 243 214
1.15023 0.383053 4.46968 66 115 93
-1.04211 0.367105 4.19313 120 180 170
-1.04269 0.368191 4.19647 151 208 199
0.797988 0.392889 4.43008 113 144 137
-0.774446 0.378527 4.227 101 118 114
-1.28343 0.378203 4.16634 230 250 255
-0.726383 0.388154 4.23261 156 208 201
-0.660343 0.393666 4.24309 89 104 96
1.25706 0.418402 4.47754 182 245 219
-0.798311 0.394955 4.22054 159 194 180
-0.734493 0.395631 4.23566 161 202 194
-0.640053 0.399657 4.23467 91 108 104
-0.509773 0.403423 4.26129 85 131 119
-0.885014 0.419096 4.21398 59 78 59
-0.825594 0.420605 4.23463 136 173 165
-1.19104 0.424966 4.1895 60 76 65
-0.833588 0.431129 4.23247 48 73 63
1.5202 0.462568 4.54592 94 114 109
0.717374 0.460566 4.41226 102 151 137
0.476041 0.472696 4.40751 72 127 110
1.24198 0.482203 4.50226 75 89 87
-0.940074 0.471812 4.23546 131 182 154
-0.926998 0.467911 4.23546 47 75 55
-1.87389 0.463991 4.12737 138 227 183
-0.801401 0.477313 4.24935 50 61 53
-0.381824 0.4883 4.30776 101 132 117
1.15651 0.500843 4.48901 131 172 165
0.505351 0.501434 4.41264 92 145 136
1.36757 0.516928 4.53411 95 121 115
-0.374251 0.498556 4.29638 68 110 99
0.494267 0.515768 4.41682 180 234 217
-1.46054 0.449196 3.79898 183 255 237
-0.821199 0.504311 4.26945 132 173 168
-0.803146 0.502054 4.24885 59 80 71
0.468252 0.529656 4.41097 51 109 84
-1.03663 0.486414 3.97106 68 116 87
1.14586 0.566998 4.49797 113 150 148
1.37097 0.585815 4.5563 173 234 214
0.981444 0.585427 4.50414 159 211 194
0.89252 0.59796 4.48913 91 143 133
-0.0697984 0.59746 4.35783 105 151 128
1.05231 0.623822 4.51064 89 128 120
-0.600738 0.61106 4.14783 123 166 151
-0.264931 0.642377 4.34331 71 110 102
0.446319 0.655194 4.44865 91 146 129
-1.86507 0.62805 4.18704 73 119 97
-0.589046 0.617232 4.14251 63 81 68
-0.0661645 0.652703 4.37944 42 78 56
0.947803 0.671721 4.50474 109 158 150
0.979672 0.673785 4.52094 105 160 151
-0.611888 0.619598 4.14325 58 75 66
0.800441 0.68331 4.49485 99 142 131
-0.745869 0.631919 4.10068 45 66 44
-0.104469 0.673603 4.37035 75 117 106
-0.070602 0.689696 4.36563 56 104 80
-0.0397908 0.696773 4.40439 61 93 82
-0.503753 0.666928 4.18791 145 182 166
-0.588498 0.662886 4.15515 107 131 121
-0.0214662 0.720292 4.42242 169 224 209
-0.0558145 0.717085 4.40362 62 79 68
-0.56192 0.687837 4.1734 141 188 172
0.418894 0.736852 4.46875 75 137 123
-0.0128378 0.729211 4.40083 114 153 132
0.860967 0.762143 4.5391 195 242 233
0.657809 0.76142 4.50406 94 140 127
-0.547036 0.716174 4.16915 131 183 165
-0.516846 0.716086 4.18616 161 204 193
-1.84827 0.735624 4.23388 104 148 131
-0.36002 0.756724 4.38104 136 196 185
2.05948 0.807806 4.68375 107 162 159
-0.364775 0.771805 4.41861 75 131 118
-0.524949 0.736075 4.19351 48 81 66
-0.405035 0.815269 4.39496 169 227 216
-0.570755 0.783573 4.19356 30 61 46
-0.523022 0.785921 4.20301 70 100 89
-0.402755 0.826738 4.39218 49 76 66
0.634722 0.851692 4.50894 52 77 67
-1.80615 0.826574 4.26921 66 113 87
0.723269 0.882026 4.53306 107 144 134
-0.395088 0.877688 4.40985 53 71 54
-0.381555 0.88099 4.41533 151 212 202
-0.586799 0.852784 4.22624 38 62 52
0.613922 0.923031 4.51046 75 119 112
0.260928 0.963875 4.51594 106 165 145
-0.634531 0.909732 4.25761 163 208 191
-0.593312 0.923047 4.28829 93 110 97
-0.564977 0.917021 4.27448 138 177 162
-0.536016 0.945429 4.29027 118 155 145
-0.662964 0.950739 4.25488 101 131 118
0.531642 1.04794 4.54656 49 109 101
-2.08844 0.991678 4.28551 154 221 182
0.496369 1.06915 4.53144 64 100 88
-2.10398 1.05438 4.3187 95 134 119
-0.647195 1.06844 4.25305 23 50 41
0.867625 1.16138 4.62587 177 222 213
0.503137 1.15128 4.56262 184 237 228
1.56317 1.19999 4.73838 100 148 130
-1.59989 1.11479 4.38008 104 152 126
1.52668 1.21256 4.72449 99 145 133
1.58092 1.21446 4.7304 84 106 94
-0.0477932 1.1748 4.53703 76 117 102
1.58685 1.22891 4.73163 146 206 188
0.636709 1.20909 4.61153 91 155 136
-0.97448 1.18942 4.47553 52 99 73
-0.0881037 1.19755 4.52949 176 236 226
0.871536 1.23909 4.65513 89 117 104
-1.02709 1.18878 4.45495 76 134 106
1.27078 1.25874 4.71095 112 153 145
-1.29301 1.19131 4.44018 82 123 108
0.785461 1.24125 4.61823 71 85 83
0.78481 1.24576 4.62749 77 95 94
-0.994229 1.2072 4.46575 106 165 145
-1.62489 1.19985 4.41555 77 132 113
-0.541473 1.22541 4.51442 60 92 87
-0.0373065 1.247 4.55678 95 143 125
0.370233 1.25754 4.60775 86 127 106
-0.20079 1.24187 4.54136 111 160 146
1.353 1.30701 4.72638 124 157 150
0.251999 1.27936 4.61478 112 150 144
0.0488462 1.27696 4.58748 98 115 94
-1.57293 1.24699 4.44708 75 98 84
0.814939 1.31702 4.62317 93 120 110
1.79526 1.3754 4.81256 101 162 152
-1.50738 1.28679 4.46578 94 146 128
1.20252 1.40476 4.72577 99 138 130
-0.696872 1.37773 4.54782 47 64 51
-1.30481 1.3816 4.50559 77 122 103
-1.44784 1.4323 4.51425 78 112 88
1.17043 1.53417 4.76374 89 109 104
0.039843 1.53042 4.67234 81 123 112
0.894754 1.58074 4.74695 123 159 137
0.972392 1.62326 4.76602 150 181 178
0.953955 1.63637 4.76522 48 54 53
-1.16353 1.59009 4.58333 80 126 107
1.20573 1.66676 4.78467 77 84 79
0.44436 1.65257 4.74139 81 153 131
1.46904 1.68558 4.82231 77 117 112
2.3061 1.72089 4.91439 84 102 95
0.494605 1.66559 4.73097 150 208 184
0.876713 1.65992 4.69999 149 199 159
2.40943 1.756 4.94054 157 205 187
0.819479 1.70617 4.77767 160 200 189
0.350194 1.69782 4.73512 86 139 125
0.975269 1.71592 4.74041 126 182 161
1.19874 1.7339 4.74993 45 79 62
1.41185 1.77366 4.85371 72 99 95
1.26455 1.76562 4.8079 142 204 186
-1.18879 1.70005 4.6265 85 147 125
0.98855 1.7458 4.74834 68 78 66
2.25756 1.82706 4.95802 96 142 136
1.41447 1.80228 4.82918 147 214 193
1.46878 1.8322 4.84191 39 45 34
1.49305 1.87028 4.847 116 155 147
0.80727 1.80874 4.66293 79 102 87
1.07142 1.85886 4.79741 43 58 44
1.61486 1.90626 4.90617 164 205 198
0.326846 1.86067 4.78414 92 142 124
0.134514 1.86349 4.77615 81 143 131
1.04736 1.88011 4.7963 28 48 36
1.72739 1.99157 4.93786 108 142 136
1.10948 -1.3291 4.17631 107 154 152
-1.98172 -1.13199 3.5683 184 231 199
-1.98313 -1.1322 3.57342 197 237 209
1.68275 -1.3556 4.29818 80 123 112
1.74518 -1.33945 4.26368 100 139 131
0.251785 -1.26086 4.01894 119 171 164
-2.13074 -1.1118 3.55385 81 77 76
-2.03786 -1.11102 3.56948 116 154 136
0.781324 -1.28722 4.13404 102 125 120
-2.03761 -1.0958 3.55139 93 106 90
0.698393 -1.26544 4.09115 105 149 143
0.331141 -1.24203 4.03742 235 255 254
0.79418 -1.27433 4.12848 182 236 247
-1.96542 -1.09204 3.58643 224 250 236
0.164309 -1.21613 4.01183 209 241 246
0.198362 -1.21169 4.02021 83 92 89
-1.85676 -1.08374 3.60602 127 167 155
-2.00502 -1.06516 3.58324 190 224 207
-1.12804 -1.12245 3.76463 93 140 137
0.237089 -1.19624 4.03305 96 111 114
-0.286118 -1.15007 3.93675 104 133 124
-0.348716 -1.14201 3.92804 86 121 111
-0.0341493 -1.15358 3.98756 172 216 210
-0.196251 -1.13362 3.94411 94 114 109
-1.7524 -1.02877 3.6522 236 252 251
-0.189393 -1.11696 3.95887 186 227 229
0.842775 -1.15243 4.10982 181 212 211
0.875586 -1.14882 4.14826 80 83 91
-0.181812 -1.08307 3.97177 119 158 143
-0.0941224 -1.08523 3.98487 174 208 214
-0.220293 -1.07252 3.96154 142 185 176
0.654022 -1.10426 4.11154 191 223 228
0.675747 -1.10286 4.11191 145 174 171
0.846824 -1.09439 4.14417 107 118 122
0.893983 -1.10901 4.17165 187 230 217
-0.161977 -1.04096 3.97395 96 128 117
-0.033318 -1.04384 4.01088 159 207 201
-0.0238915 -1.0273 4.00101 100 140 138
-0.108332 -1.00268 3.98865 72 80 69
0.0577071 -1.00186 4.02517 158 210 210
0.153799 -0.979637 4.05428 105 135 140
1.25737 -1.03374 4.26295 66 109 96
-0.0492305 -0.945646 4.02718 161 211 207
0.0479454 -0.936161 4.04475 141 174 167
-0.100355 -0.922664 4.01307 141 184 163
0.0673632 -0.921934 4.03289 85 97 85
1.3159 -0.956764 4.24202 80 100 81
0.0859412 -0.906924 4.05644 150 193 184
0.0141881 -0.885771 4.03211 74 84 67
0.0354387 -0.88596 4.0555 153 168 164
-0.0799992 -0.868655 4.02394 203 225 231
1.5182 -0.926539 4.31662 133 157 157
-0.073496 -0.849662 4.02588 88 101 93
0.0323191 -0.840039 4.05013 178 202 208
0.0134663 -0.791692 4.05385 170 207 215
0.0504738 -0.778656 4.07018 148 182 172
0.0677111 -0.736229 4.0822 190 230 228
-0.103487 -0.710767 4.06524 95 126 111
0.278561 -0.702453 4.11834 82 142 136
-1.16268 -0.643406 3.86049 102 149 141
-1.01384 -0.588712 3.89886 115 177 163
-0.0541511 -0.616551 4.09234 162 213 209
-1.21724 -0.580127 3.87244 175 222 219
1.3304 -0.644559 4.31602 85 128 119
1.3032 -0.638525 4.32385 178 234 221
-0.0777947 -0.600896 4.08943 175 226 219
1.25643 -0.60586 4.31986 123 175 152
-0.0773777 -0.567944 4.09483 93 120 111
1.27016 -0.598471 4.3188 53 75 57
-1.29619 -0.485089 3.8949 53 98 95
-1.26254 -0.47937 3.89804 98 116 115
-1.9717 -0.45777 3.79652 118 170 176
1.83575 -0.455002 4.44609 117 165 159
-1.89964 -0.364914 3.83394 137 164 155
-1.8396 -0.370924 3.84663 255 255 255
2.51052 -0.431587 4.53848 97 114 117
-1.43424 -0.353537 3.90582 66 85 68
-1.43892 -0.357602 3.92835 74 98 80
-1.96029 -0.345971 3.8342 185 241 236
-1.77307 -0.334406 3.86985 70 116 97
-1.24878 -0.337885 3.93776 66 123 102
1.8879 -0.386488 4.46884 116 176 175
-1.54586 -0.322836 3.91961 71 101 106
-1.45676 -0.318164 3.89614 255 255 255
-1.50074 -0.309141 3.90704 43 102 81
-1.23964 -0.297844 3.95521 94 131 111
-0.611296 -0.283432 4.06379 117 168 164
1.65336 -0.29666 4.42475 182 215 208
1.59649 -0.276849 4.42145 175 225 215
-1.47004 -0.205415 3.95681 87 136 122
2.00591 -0.227308 4.4872 131 167 175
-1.43998 -0.183632 3.96264 242 251 254
-1.64287 -0.150936 3.94758 67 106 80
1.94665 -0.166609 4.51203 84 114 115
0.816031 -0.11971 4.24809 43 66 51
-1.29576 -0.108768 4.01117 106 153 151
-0.125687 -0.101625 4.18089 73 122 100
2.16638 -0.117496 4.5387 98 106 99
-1.55303 -0.0959995 3.96532 109 188 161
-0.681037 -0.0991931 4.10714 227 248 246
1.0051 -0.0966976 4.33615 123 134 132
-0.200003 -0.0846695 4.1736 216 247 244
-1.44781 -0.0809517 3.98231 68 115 93
1.4228 -0.0889616 4.43508 99 163 151
1.81839 -0.0876105 4.4968 116 135 132
-1.65076 -0.0713622 3.97515 81 133 115
0.977712 -0.0788441 4.34334 104 140 128
1.97777 -0.0774044 4.48646 118 146 146
-0.150957 -0.0521653 4.18717 53 102 82
-1.54722 -0.0406513 4.00783 121 168 142
-1.65624 -0.0336779 3.98737 96 142 119
-0.205867 -0.0331001 4.14373 74 104 75
1.71223 -0.0294251 4.4676 124 141 137
-1.77807 -0.0166593 3.99304 66 96 61
1.19944 -0.016704 4.39664 101 131 132
-1.53263 -0.00887568 4.00458 130 185 166
0.720222 0.00391832 4.32296 201 245 239
-1.72081 0.00411985 3.96848 81 136 103
-1.43813 0.0102763 4.02788 103 143 131
0.836032 0.0292357 4.35276 96 123 119
-1.57937 0.0410434 4.0195 120 158 140
1.03997 0.0477434 4.38654 158 212 205
-1.05025 0.0488606 4.10602 160 220 202
-0.985052 0.0583104 4.11426 80 99 80
1.37294 0.060149 4.45069 60 81 73
1.42643 0.0586425 4.45723 106 140 133
-1.48771 0.0663917 3.99905 142 204 188
-0.184267 0.0637116 4.15836 85 116 101
-1.56701 0.0739618 4.05564 103 143 131
-1.06836 0.0681339 4.09952 151 187 175
-0.965169 0.0724578 4.09843 118 177 169
0.884687 0.0852987 4.37154 163 219 198
-0.110751 0.0774666 4.20533 68 83 85
-1.29045 0.0867378 4.07175 138 191 177
-0.954084 0.0961365 4.12241 125 170 151
-0.187804 0.0997755 4.22354 252 254 255
0.741145 0.0988855 4.40549 101 150 128
0.010035 0.100255 4.24903 57 117 93
1.16194 0.106221 4.42679 96 146 136
-1.45539 0.101733 4.04171 157 213 202
-0.921174 0.106111 4.13945 77 106 90
-0.0515106 0.109583 4.24693 174 237 228
0.820407 0.110482 4.35546 127 166 151
-0.97324 0.108719 4.12436 62 73 53
-0.218721 0.112291 4.20912 95 94 110
0.610901 0.120476 4.364 102 165 145
-1.47953 0.116201 4.0406 71 144 122
-1.45836 0.118481 4.06724 58 94 77
-0.201196 0.120279 4.21387 254 254 254
-0.036609 0.122623 4.23824 52 98 69
1.2373 0.126072 4.40659 130 169 161
-1.26381 0.122008 4.08102 70 96 83
0.930125 0.139218 4.35421 41 61 56
-1.05304 0.132893 4.12519 93 129 115
1.55128 0.151988 4.49055 167 202 245
-0.964801 0.141612 4.14541 91 126 106
-0.0951188 0.143898 4.22573 128 220 177
-0.314518 0.150675 4.22951 254 254 254
-1.30483 0.150273 4.08738 128 198 181
-0.0390274 0.165159 4.24252 116 190 148
0.735267 0.166152 4.37229 92 148 129
1.11345 0.169095 4.40197 58 65 60
-1.3175 0.161388 4.12689 124 191 164
0.547906 0.170999 4.34726 99 162 142
-2.35977 0.171172 3.9711 109 152 139
1.24351 0.20333 4.46648 135 188 178
-1.26318 0.193768 4.10354 112 155 134
0.650452 0.20886 4.36284 56 82 69
1.62709 0.218418 4.53267 99 117 104
-1.28296 0.199388 4.10588 44 66 47
0.978211 0.214782 4.38979 98 128 123
0.539638 0.230254 4.35417 71 124 104
0.964384 0.233111 4.44064 65 103 91
-0.95534 0.228842 4.16622 84 145 125
1.02618 0.240055 4.36743 77 114 94
1.19884 0.238424 4.44013 113 167 154
-0.81335 0.231344 4.14765 129 144 146
1.05078 0.244676 4.38973 163 227 215
-0.160408 0.241666 4.25495 80 126 133
1.03161 0.247362 4.39316 59 101 76
-0.162317 0.241012 4.25265 130 176 183
-0.984567 0.246582 4.15047 145 210 201
0.775882 0.263672 4.40422 79 127 101
-0.86686 0.251566 4.16867 141 201 191
1.32672 0.269569 4.46729 112 159 150
-1.25427 0.253116 4.12587 116 141 131
0.797508 0.275113 4.40371 132 222 192
-0.803429 0.275434 4.19695 132 152 153
-0.709801 0.270281 4.21667 194 225 228
0.750844 0.281385 4.38038 75 98 83
1.10719 0.290953 4.43376 147 205 187
0.544751 0.300217 4.37407 76 138 114
0.661553 0.299102 4.37264 64 81 70
1.24062 0.306212 4.45311 97 127 128
-1.20807 0.291018 4.14756 133 186 177
0.715199 0.308857 4.37982 50 81 66
0.81798 0.306492 4.41425 139 221 199
-1.03315 0.296984 4.18119 73 110 94
0.748177 0.310261 4.37921 75 113 91
1.45447 0.320078 4.45722 82 122 104
1.15611 0.323059 4.45495 44 84 73
-0.837649 0.311685 4.20355 129 167 149
-1.24304 0.309863 4.14449 130 180 168
-1.08919 0.314165 4.17771 92 151 123
-0.998513 0.310491 4.16039 59 95 78
-0.713419 0.33142 4.22892 74 75 66
-0.818846 0.336694 4.20597 147 182 178
-0.919529 0.342973 4.20195 123 142 139
-0.930402 0.360523 4.20519 131 163 152
-0.683445 0.364007 4.23511 185 221 221
-0.156483 0.373994 4.30108 79 135 116
-0.710321 0.371016 4.21591 106 121 113
-1.25799 0.369196 4.15188 250 255 255
-1.14517 0.374466 4.1727 156 192 178
-0.773019 0.381182 4.23418 109 129 124
-0.660887 0.382382 4.24782 177 224 221
0.7422 0.394462 4.4219 78 110 93
1.14715 0.401357 4.46281 74 139 118
1.13101 0.407858 4.47605 164 242 218
-1.15775 0.384334 4.18165 127 178 164
-0.681193 0.399666 4.26646 82 83 74
-0.884581 0.394794 4.20691 151 201 183
1.11737 0.416769 4.47154 85 139 122
-1.24204 0.398341 4.17807 57 74 61
-1.50124 0.371371 3.78353 134 213 199
-0.890549 0.419005 4.21967 51 61 48
-0.588911 0.436273 4.26685 113 125 119
-0.926954 0.434896 4.22499 167 198 197
-0.392607 0.442884 4.29507 90 142 132
0.499238 0.456166 4.40888 64 119 102
1.26187 0.46816 4.49887 214 239 243
-0.858789 0.448537 4.2315 74 81 78
-0.861729 0.454064 4.24767 87 91 96
-0.508139 0.462264 4.30603 143 201 196
-0.811469 0.46573 4.24724 140 180 178
0.87718 0.503342 4.47395 95 132 122
0.506609 0.503463 4.41862 110 163 153
2.72201 0.534893 4.70479 160 190 185
0.495847 0.518206 4.42394 182 233 219
-0.834562 0.501834 4.25868 130 174 168
-0.783025 0.501959 4.24783 102 131 128
1.37458 0.543654 4.52748 116 153 145
-0.802967 0.513676 4.26546 51 52 48
-0.354637 0.543418 4.31758 175 235 217
-1.83799 0.527817 4.16629 121 213 172
0.766727 0.581409 4.44719 116 171 156
0.852222 0.584631 4.48074 88 122 115
-0.644127 0.584178 4.13351 146 192 180
-0.289853 0.615515 4.35206 110 140 129
-0.660744 0.597383 4.15401 34 48 42
-0.0730362 0.64007 4.39399 49 97 68
-0.265197 0.644152 4.34801 71 110 102
-0.247574 0.644744 4.36661 234 255 255
-0.630565 0.61888 4.14746 68 79 71
-0.564018 0.62318 4.17455 134 177 162
-0.543232 0.635419 4.2004 42 56 44
-0.10528 0.675176 4.37444 73 113 102
0.640633 0.688662 4.50138 91 155 136
0.459791 0.693377 4.46716 79 122 111
-1.72426 0.66811 4.20939 80 150 120
-0.0706762 0.697847 4.38225 28 72 55
-0.595731 0.661412 4.14528 132 181 161
-0.495334 0.68655 4.20089 39 40 30
-0.477024 0.692588 4.19373 123 157 146
-0.0131092 0.729863 4.40248 99 141 123
0.240747 0.731623 4.44616 116 154 156
-0.0705578 0.730323 4.39624 175 242 205
-0.608559 0.69398 4.14687 138 178 166
-1.93861 0.709253 4.20142 163 235 205
0.238413 0.746976 4.43007 228 237 241
2.1052 0.801525 4.70324 97 135 140
-0.514137 0.722197 4.18727 141 189 183
2.06146 0.80921 4.68739 98 153 150
-1.84779 0.735129 4.23267 104 148 131
0.534795 0.805246 4.49376 90 131 123
0.702391 0.827017 4.50634 94 147 134
-1.82447 0.776879 4.24111 69 93 81
-1.81456 0.778847 4.247 73 107 90
-0.104844 0.811405 4.41256 59 95 79
-0.404149 0.812954 4.38936 165 226 212
-0.4036 0.829656 4.39919 60 90 77
0.635298 0.857161 4.52224 41 65 57
-0.550516 0.812543 4.20739 45 73 60
-0.633892 0.817954 4.19507 91 114 100
0.680513 0.887365 4.52952 82 101 92
1.54925 0.926313 4.66528 126 173 157
-0.382238 0.884553 4.4237 143 203 193
-1.85691 0.867238 4.25827 86 139 112
-0.756503 0.884965 4.29795 40 67 58
-0.371788 0.904332 4.42587 71 97 91
0.393196 0.927821 4.51577 94 138 121
0.554289 0.937972 4.53341 163 214 207
-0.613208 0.895037 4.21561 42 39 34
1.37928 1.00432 4.64746 106 144 132
-0.662376 0.949173 4.25146 101 131 118
-1.79164 0.964515 4.30992 69 87 58
-2.08878 0.971989 4.28879 63 110 84
-0.406529 1.01492 4.45807 151 211 210
-0.6769 0.971675 4.24102 28 31 22
-0.414412 1.03707 4.4684 77 92 84
-0.652579 0.992365 4.22204 47 64 51
-0.441647 1.05475 4.47009 109 163 150
-0.439193 1.05375 4.46796 98 160 146
-0.657213 1.00656 4.214 119 156 146
-0.696282 1.03043 4.22429 51 85 68
-0.501292 1.10721 4.47514 67 99 88
-0.703391 1.05729 4.24071 162 202 191
-0.676839 1.04814 4.20845 81 110 95
1.56581 1.20264 4.74408 103 149 130
-2.18957 1.10711 4.33384 69 131 109
-0.516287 1.1682 4.47596 74 110 94
0.830831 1.21298 4.63047 87 109 97
1.49816 1.23753 4.731 86 139 129
-0.522547 1.18034 4.50097 46 86 74
0.804943 1.21607 4.62221 66 95 86
-1.31567 1.18056 4.43943 74 135 99
-0.956441 1.19185 4.47111 32 77 50
0.676905 1.23618 4.63812 92 122 111
0.87105 1.23411 4.6457 76 106 93
-0.472452 1.20789 4.51037 87 118 103
1.61348 1.27261 4.75313 81 124 113
0.0743881 1.2403 4.57172 80 100 77
0.105626 1.24689 4.59128 113 135 140
-0.197308 1.24236 4.53966 100 146 134
0.0801926 1.26345 4.58351 116 169 156
0.205895 1.26342 4.58449 102 136 125
0.852877 1.29032 4.64624 83 98 90
-1.5744 1.2498 4.45265 75 98 83
-0.558656 1.26949 4.52069 75 110 100
0.0796626 1.29492 4.59009 73 78 57
0.167698 1.32141 4.60703 144 180 174
0.487952 1.33445 4.64139 111 167 148
0.0864457 1.33899 4.63898 110 121 105
-0.222647 1.32276 4.507 133 213 176
-0.266157 1.35155 4.55828 152 213 203
-0.129421 1.33289 4.50761 121 161 143
0.172684 1.38653 4.638 111 162 142
-0.664569 1.37258 4.549 57 90 76
0.616999 1.4286 4.67507 88 159 139
0.153698 1.43173 4.65495 80 98 91
0.129658 1.43673 4.64858 75 88 66
-1.45878 1.399 4.49991 58 89 60
-0.69532 1.41568 4.55815 81 130 110
