ply
format ascii 1.0
element vertex 1051
property float x
property float y
property float z
property uchar blue
property uchar green
property uchar red
end_header
-1.09813 -0.649516 2.04247 186 195 198
-1.15768 -0.534808 2.05473 162 188 205
-0.6859 -0.493061 2.11797 97 154 151
0.790084 -0.516623 2.25113 118 177 157
-0.537727 -0.477623 2.1333 158 224 213
-0.452233 -0.468001 2.14596 168 234 222
0.0413964 -0.45816 2.19244 120 169 161
-0.644149 -0.411123 2.13039 178 222 216
-0.627243 -0.394357 2.13886 158 215 206
-0.174288 -0.387842 2.18933 95 158 142
-0.724614 -0.369363 2.14744 102 158 145
-1.11604 -0.357208 2.10898 184 207 209
0.473379 -0.367653 2.25968 145 216 199
-0.782837 -0.330074 2.15024 165 213 207
-0.866708 -0.277418 2.12008 149 187 169
-0.657794 -0.272894 2.17593 63 142 115
-0.725891 -0.263839 2.17216 67 158 132
-0.769819 -0.23271 2.15216 137 188 181
-0.770925 -0.227461 2.15124 101 154 144
-0.763123 -0.228074 2.15192 122 170 164
-0.750739 -0.227179 2.16142 96 156 145
-0.677955 -0.138736 2.2051 160 197 193
-0.880432 -0.131945 2.19595 105 159 142
-0.560151 -0.116218 2.2197 83 152 137
-0.556816 -0.112557 2.21661 161 234 202
-0.708968 -0.103913 2.20929 115 159 153
-0.54004 -0.0976506 2.22443 160 229 216
-0.929541 -0.0921436 2.20516 131 180 164
-0.512917 -0.0692135 2.24269 95 157 145
0.809296 -0.0470511 2.22173 155 217 201
-0.387539 -0.018513 2.2642 135 207 187
-0.688864 -0.0012877 2.15543 174 241 196
0.656448 0.0161651 2.17039 72 160 120
0.737313 0.0316279 2.09685 141 233 190
-0.11894 0.0399708 2.29872 70 93 78
0.0865901 0.0411974 2.31354 159 232 216
-0.557361 0.0507416 2.21094 177 188 155
0.779597 0.048202 2.09232 178 213 187
0.785647 0.0542237 2.09402 136 212 171
0.787439 0.0572697 2.09538 64 114 80
-0.606034 0.0831592 2.17729 128 174 155
0.726169 0.086966 2.07872 92 180 140
-0.472896 0.12703 2.19626 137 181 142
0.61443 0.131639 2.14684 43 144 106
0.155255 0.160601 2.35608 83 145 133
0.77682 0.162139 2.08482 132 250 199
0.796764 0.170056 2.08137 132 220 180
-0.526179 0.181801 2.18247 144 208 179
-0.695416 0.187512 2.14646 140 183 156
0.689174 0.183394 2.07785 121 197 155
-0.698337 0.191338 2.14825 93 144 116
-0.527059 0.19501 2.18345 59 105 76
-0.617658 0.209024 2.15661 129 171 146
-0.105377 0.322495 2.37405 134 170 156
-0.0195852 0.323733 2.38332 176 239 213
-0.0621401 0.4068 2.40292 87 146 131
0.000470434 -0.660217 2.14809 115 172 163
-1.19903 -0.573009 2.04963 174 207 203
-1.18805 -0.519628 2.04191 73 98 124
0.0607973 -0.510665 2.17773 175 225 215
-0.542331 -0.491791 2.13019 72 114 107
0.0802143 -0.402881 2.19346 107 142 128
-0.633223 -0.386557 2.13983 127 184 175
-0.881941 -0.37268 2.13284 157 202 199
-0.788099 -0.345787 2.14238 95 135 124
-0.470187 -0.3447 2.17326 83 155 143
-0.815103 -0.295235 2.1313 142 192 174
-0.803942 -0.292924 2.13312 141 193 183
-0.874628 -0.290173 2.12293 92 153 139
-0.866814 -0.277356 2.12026 149 187 169
-0.867195 -0.274431 2.12025 86 129 114
0.511386 -0.289654 2.28168 105 167 149
-0.353473 -0.249662 2.20781 82 152 145
-0.444788 -0.241846 2.20067 79 147 130
-0.82344 -0.229288 2.1488 105 160 157
-0.846514 -0.206463 2.15107 70 126 115
-0.724247 -0.198302 2.18849 153 217 205
0.192025 -0.186556 2.26977 99 155 144
-0.363227 -0.157401 2.2303 97 166 153
-0.364797 -0.147976 2.22991 92 164 152
0.908885 -0.150522 2.3502 133 154 206
-0.6963 -0.131987 2.19444 186 224 224
-0.672286 -0.11335 2.21111 117 150 153
-0.26061 -0.114767 2.24998 173 229 218
-0.709693 -0.104232 2.20921 111 151 146
0.770631 -0.0438985 2.22885 163 228 203
0.0330517 -0.0257847 2.28409 105 176 160
-0.558446 -0.0135823 2.25173 141 186 177
-0.0160919 -0.0111952 2.28544 168 226 221
-1.16788 -0.00966639 2.2099 132 161 152
-0.461204 -0.00381245 2.26571 134 208 180
-0.688931 -0.00118919 2.15565 174 241 196
-0.690026 0.0051845 2.15797 166 233 204
0.333405 0.0216389 2.33669 116 187 177
0.678784 0.0240935 2.17024 152 236 194
-0.138499 0.0476919 2.30166 162 212 202
0.714289 0.0443123 2.09673 69 125 90
0.767231 0.0497819 2.08778 70 189 138
0.757252 0.0668148 2.08419 157 236 197
-0.362311 0.0749234 2.30136 117 148 141
-1.0124 0.0768299 2.23156 152 222 191
-0.60281 0.0796403 2.1808 169 223 194
0.00884493 0.10216 2.32994 161 223 209
-0.546137 0.122962 2.16676 132 171 146
0.13648 0.154506 2.34871 114 177 168
-0.44217 0.151587 2.18146 138 188 156
0.356339 0.16981 2.36879 86 122 108
-1.04343 0.162866 2.24556 100 123 118
0.351869 0.171833 2.36692 164 222 198
0.185727 0.180482 2.36652 105 167 153
-0.495014 0.167099 2.18137 156 208 171
0.824363 0.171182 2.0934 130 195 163
0.181534 0.207386 2.36774 84 163 150
-0.617788 0.23456 2.15427 240 255 250
-0.61175 0.235306 2.15114 176 203 187
-1.31184 0.303257 2.30076 190 231 216
-0.0195011 0.323629 2.38314 174 235 209
-0.10855 0.334251 2.37637 152 202 184
-0.0621401 0.4068 2.40292 87 146 131
-0.0496437 -0.740915 2.12722 97 153 140
-0.743291 -0.684257 2.07505 97 149 139
-1.10883 -0.642365 2.03311 237 253 255
0.153295 -0.675592 2.16376 125 178 169
-0.61456 -0.647416 2.08523 102 154 144
-0.191522 -0.661144 2.13181 107 153 154
-0.261613 -0.611435 2.134 131 178 175
-0.0606651 -0.583946 2.15599 103 160 145
-1.06102 -0.538112 2.07771 127 174 172
-1.16062 -0.531004 2.05667 90 98 128
-1.16974 -0.523571 2.0464 164 183 191
-1.07924 -0.529219 2.07098 147 171 193
-0.22451 -0.550938 2.15128 116 175 167
-0.87582 -0.533835 2.09247 247 255 254
-1.11191 -0.518293 2.05373 180 217 231
0.760855 -0.541735 2.23917 102 175 153
-1.02463 -0.502644 2.08739 181 232 224
-1.03173 -0.497947 2.08806 156 215 207
0.749302 -0.535375 2.24651 111 178 163
0.0924188 -0.519733 2.18559 129 180 173
0.957828 -0.535324 2.26546 89 149 118
-0.552585 -0.487859 2.12715 83 144 134
-1.12773 -0.471813 2.06844 204 236 247
-1.15863 -0.472593 2.07061 209 230 221
0.761422 -0.510445 2.24673 87 150 130
0.798923 -0.505122 2.25111 115 170 153
0.7515 -0.503105 2.25215 108 197 171
-1.02917 -0.463991 2.09526 135 174 183
-0.664493 -0.46791 2.12079 107 150 139
-0.663091 -0.457249 2.1211 109 184 170
-0.0238211 -0.448869 2.18929 121 172 164
0.0384738 -0.447724 2.19216 131 154 150
-1.03344 -0.420392 2.10764 113 130 143
-0.507354 -0.42659 2.14637 157 209 199
-0.682197 -0.421535 2.12818 100 160 154
0.933871 -0.436442 2.27738 124 194 164
-0.191696 -0.415436 2.18001 116 182 170
-0.44864 -0.406126 2.16269 87 153 142
0.0773928 -0.411367 2.19941 203 237 231
-0.523141 -0.397449 2.1513 54 94 83
-0.446434 -0.382119 2.16948 84 153 138
0.944485 -0.389436 2.28646 173 241 224
-0.55594 -0.363585 2.15453 74 134 126
-1.11634 -0.355254 2.11126 203 224 225
-0.779362 -0.358891 2.14143 165 225 214
-0.157536 -0.367288 2.19293 100 151 143
-0.64135 -0.356047 2.14628 159 212 199
-0.7883 -0.345619 2.14293 85 127 116
-0.469952 -0.344827 2.17284 91 161 148
-0.444217 -0.342112 2.17528 77 136 122
0.809844 -0.355945 2.27946 157 231 201
-0.723637 -0.333106 2.15567 102 155 145
0.809231 -0.352361 2.282 97 158 148
-0.392642 -0.32658 2.18756 94 145 131
-0.877537 -0.29688 2.12261 192 246 217
-0.778128 -0.294663 2.14731 65 95 82
-0.874696 -0.290047 2.12331 99 160 146
-0.792088 -0.291679 2.13749 93 143 131
-0.785513 -0.290938 2.14212 82 125 114
-0.807256 -0.289137 2.1319 165 222 213
-0.80297 -0.289393 2.13639 63 104 96
-0.795892 -0.290164 2.1375 175 232 217
-0.788451 -0.287297 2.13723 167 227 216
-0.798046 -0.288079 2.13722 166 228 216
0.222281 -0.299629 2.24401 106 174 163
-0.736977 -0.287331 2.16163 124 207 185
-0.728301 -0.275532 2.16459 112 179 170
0.51182 -0.289445 2.28234 94 156 138
0.0349991 -0.277516 2.23069 107 177 164
-0.096589 -0.274861 2.21945 105 171 159
-0.789799 -0.26242 2.14837 123 182 174
-0.785903 -0.263934 2.14743 48 118 111
-0.832657 -0.258673 2.14575 85 146 132
-0.121284 -0.25666 2.22314 111 161 151
-0.754793 -0.243736 2.15465 152 217 202
-0.759088 -0.237948 2.15097 168 229 219
-0.215826 -0.246993 2.21015 99 147 151
-0.721208 -0.240741 2.17348 139 199 189
0.54592 -0.252242 2.28713 163 234 201
-0.759457 -0.235557 2.15321 179 236 221
-0.769521 -0.231515 2.15275 126 177 170
-0.832821 -0.230895 2.15206 85 125 120
-0.0835731 -0.231737 2.22998 99 156 147
-0.843018 -0.219907 2.1447 50 101 87
-0.757212 -0.216777 2.16307 91 153 153
-0.844811 -0.214853 2.15127 47 88 80
0.790443 -0.227021 2.31835 144 198 181
-0.94833 -0.202989 2.16792 140 177 169
-0.641157 -0.204961 2.19386 95 131 125
-0.672824 -0.199519 2.18623 145 209 190
-0.945496 -0.191613 2.17226 94 132 126
-0.933371 -0.192344 2.17701 92 123 120
0.472176 -0.196467 2.29431 78 148 118
0.472618 -0.195519 2.29702 81 150 123
0.192155 -0.186404 2.2702 99 155 144
-0.153363 -0.182019 2.23094 100 155 146
-0.662873 -0.174264 2.19549 84 130 118
0.833604 -0.183088 2.33583 115 165 171
0.947875 -0.175184 2.3464 130 195 180
0.198644 -0.164188 2.27453 156 225 204
-0.130747 -0.160163 2.24188 100 164 152
0.932689 -0.161914 2.35156 192 226 255
-0.878923 -0.138263 2.19648 77 136 122
-0.926859 -0.133534 2.19035 133 172 150
-0.901951 -0.132056 2.19307 97 144 128
0.873346 -0.141918 2.34944 169 228 220
-0.880185 -0.128816 2.19831 97 148 121
-0.518104 -0.114168 2.2325 84 156 133
-0.838477 -0.10824 2.20069 79 139 109
-0.263293 -0.107913 2.25094 158 221 211
-0.829326 -0.104729 2.20667 79 115 91
-0.511996 -0.0711295 2.23761 86 152 140
-0.0238379 -0.0723602 2.26803 109 166 157
-1.2136 -0.0624813 2.19338 109 153 136
-0.577525 -0.0606454 2.23077 102 176 158
-0.323155 -0.0572027 2.25491 131 198 183
-0.663644 -0.0550146 2.22758 135 186 166
-0.565927 -0.0533676 2.23495 146 208 192
-1.15631 -0.0536298 2.19261 162 208 196
-0.966388 -0.0518935 2.21402 169 221 198
0.51292 -0.0516303 2.33071 117 180 160
-0.500275 -0.0469962 2.24462 113 160 144
0.766317 -0.0445099 2.23044 107 141 131
-0.664339 -0.045797 2.23213 161 224 214
-0.795629 -0.0432406 2.22718 163 232 211
-0.486946 -0.0429414 2.25298 85 138 124
0.0479863 -0.0427933 2.28863 85 165 148
0.490482 -0.0395863 2.33263 97 162 141
-0.902381 -0.0311985 2.22421 150 214 172
0.354036 -0.0327789 2.32404 114 192 175
0.0327124 -0.0253601 2.28589 105 176 160
-0.62788 -0.0204886 2.24486 150 212 200
-1.15964 -0.0159 2.21341 143 187 180
-0.474032 -0.0161995 2.26024 149 226 199
-0.151634 -0.0160906 2.28107 86 132 119
-0.0373037 -0.0167421 2.28415 124 177 167
0.571317 -0.0126396 2.34863 94 159 120
-0.466768 -0.00985609 2.2615 157 235 198
0.599427 -0.0110601 2.34313 94 168 140
0.595482 -0.0081336 2.35191 155 225 189
-0.444556 -0.00562766 2.26881 93 161 144
-0.848694 -0.00478751 2.23027 131 177 148
-1.09306 -0.00281595 2.21914 113 150 124
0.0215667 -0.00460569 2.28634 103 164 154
0.586128 -0.00372499 2.35241 87 125 97
0.454311 0.00250007 2.33287 100 134 123
-0.423834 0.00722595 2.27251 141 190 174
0.447841 0.0113981 2.32727 185 235 211
-1.2905 0.0142052 2.20692 113 130 121
-0.449616 0.0144138 2.27576 47 102 77
-0.353073 0.0164664 2.28064 92 157 141
0.333566 0.0218355 2.33714 116 187 177
-0.384367 0.0251144 2.27723 149 171 159
-0.358306 0.0349622 2.2861 151 210 206
0.0758586 0.0351932 2.30909 89 161 148
0.402818 0.0368939 2.33714 103 155 148
0.742546 0.0351827 2.09346 103 211 159
0.433777 0.0443394 2.34412 80 112 101
-0.381721 0.0445921 2.28692 98 134 118
-0.340186 0.0433492 2.28577 89 161 139
0.326294 0.0465722 2.3433 100 160 152
-0.138543 0.0460898 2.29814 165 224 210
-0.350052 0.0516655 2.29087 149 211 195
0.709014 0.0536053 2.10032 135 193 164
-0.576167 0.0572201 2.20274 67 60 27
0.0285194 0.0628 2.31805 153 216 206
0.683682 0.0581213 2.10556 54 120 85
-1.15185 0.0621894 2.23489 78 97 94
-0.20499 0.064999 2.30468 122 179 158
0.120263 0.0717167 2.32919 97 146 138
0.678344 0.0635263 2.10778 123 219 172
0.685071 0.0635039 2.10383 113 213 177
1.1811 0.0730695 2.43168 110 151 143
-0.362941 0.0718568 2.29644 114 145 142
0.174529 0.0739356 2.33344 109 167 162
0.0348511 0.0817707 2.31914 85 169 151
-0.259077 0.086243 2.30544 109 138 113
0.261247 0.0908873 2.35031 112 172 162
-0.380412 0.0928282 2.3016 116 126 120
0.781111 0.0843157 2.0961 138 233 176
1.16322 0.103573 2.43909 128 155 151
-0.0328553 0.110769 2.33217 138 195 186
0.703428 0.112281 2.08714 57 140 102
-0.527065 0.124503 2.17174 124 171 138
1.1231 0.13909 2.43867 116 133 106
-0.527458 0.125392 2.17346 101 144 111
0.0213187 0.139419 2.33443 99 173 155
-1.03559 0.15954 2.23955 154 218 199
0.355651 0.170084 2.36372 86 122 108
-0.494991 0.166796 2.1808 160 211 177
0.186216 0.181407 2.36837 98 158 148
-0.894587 0.173865 2.23812 157 199 168
-0.598401 0.167855 2.14816 148 208 178
-0.496547 0.169024 2.17888 75 126 89
0.806613 0.167034 2.08729 120 207 157
-1.341 0.187906 2.25883 139 149 149
0.710939 0.175224 2.09166 97 153 118
0.711174 0.175289 2.09177 107 164 131
-1.31398 0.193835 2.2662 173 202 199
0.0596532 0.200783 2.35633 108 161 148
0.181345 0.208129 2.37027 84 163 150
0.160548 0.209483 2.36718 93 151 140
-0.453932 0.194986 2.17809 132 173 145
-0.978068 0.20352 2.23526 158 225 194
0.430539 0.209895 2.31174 44 140 103
0.754496 0.193088 2.0818 55 158 113
0.630954 0.196907 2.1314 51 122 95
0.714508 0.205692 2.09579 93 161 130
-1.30414 0.239084 2.27561 169 233 214
0.734114 0.222636 2.07891 62 174 126
-0.966551 0.241995 2.25481 44 94 76
-0.617589 0.234784 2.15467 233 247 241
-0.497612 0.233807 2.12265 90 113 91
-0.0225094 0.314811 2.38295 92 155 135
-0.050698 0.334852 2.39385 80 149 138
-0.108473 0.334513 2.37684 152 200 182
1.14964 0.360451 2.50057 124 185 165
-0.050852 0.346346 2.38809 167 221 214
-1.15297 0.336405 2.316 171 197 197
-1.14572 0.335695 2.31174 142 170 170
-0.00583159 0.349328 2.38887 92 142 130
-0.0530216 0.353376 2.38915 103 161 150
-0.00571209 0.351699 2.39307 90 137 129
-1.29601 0.356769 2.32259 172 231 210
1.23839 0.435461 2.5092 87 153 112
1.10202 0.467224 2.52669 96 168 138
-0.912919 -0.722113 2.05035 120 166 153
-1.08216 -0.709839 2.03314 82 104 122
-1.17306 -0.698683 2.02128 85 98 120
-0.471189 -0.697589 2.09424 117 177 169
-0.148113 -0.70803 2.12941 100 160 149
-1.102 -0.668455 2.04164 106 125 133
-1.21895 -0.649857 2.02616 101 117 159
-1.10829 -0.650673 2.03795 118 122 146
-0.471238 -0.649437 2.10455 124 181 173
-0.735216 -0.636449 2.08162 87 159 147
-0.642574 -0.608343 2.09566 100 162 146
-1.16573 -0.559904 2.04687 65 58 65
-1.15324 -0.557922 2.04991 136 155 158
-0.271521 -0.571313 2.14364 115 175 157
0.824899 -0.588309 2.23902 124 188 176
-1.06103 -0.538147 2.07754 133 174 176
-0.875767 -0.533793 2.09266 247 255 254
-0.214477 -0.545567 2.15489 118 178 170
-0.995645 -0.524218 2.0849 93 140 131
0.807154 -0.561763 2.2417 103 159 136
-1.10061 -0.512523 2.06547 81 92 122
-0.263056 -0.524208 2.15672 119 180 166
0.760855 -0.541735 2.23917 102 175 153
-1.13084 -0.491588 2.07015 82 95 117
0.747217 -0.534773 2.24028 115 188 172
-0.888742 -0.496507 2.0971 111 153 142
-1.03612 -0.492347 2.08534 99 131 130
-1.13589 -0.485366 2.06677 159 191 210
-0.876022 -0.492296 2.10119 98 150 133
1.08546 -0.531797 2.27661 137 186 178
-1.12959 -0.479597 2.06801 95 106 136
0.800787 -0.521461 2.2488 109 167 142
-1.12481 -0.469436 2.06767 217 245 252
-1.05475 -0.452499 2.09297 188 222 228
-0.541951 -0.45842 2.13559 177 224 222
-0.38092 -0.461156 2.1553 99 152 139
-0.952156 -0.445915 2.10482 91 141 131
-0.0238094 -0.449208 2.18794 120 172 162
-0.518659 -0.434969 2.14399 161 218 215
-1.26453 -0.419401 2.07681 177 206 211
-1.10284 -0.422422 2.10403 192 227 230
-0.670642 -0.423768 2.12921 105 169 157
0.0819909 -0.432449 2.20421 120 161 153
-0.920249 -0.405166 2.11719 107 121 120
-1.09349 -0.399105 2.10957 209 227 228
-0.516679 -0.39832 2.15252 155 214 206
0.759962 -0.417776 2.26455 214 255 245
-0.915741 -0.38429 2.11832 66 87 84
-0.449675 -0.393251 2.16833 99 160 150
-0.876474 -0.379414 2.13029 165 210 214
-0.885232 -0.378818 2.1282 91 113 111
-0.794645 -0.374729 2.1404 153 210 201
-0.176434 -0.377735 2.18777 105 166 152
-1.14071 -0.357202 2.09615 155 227 184
-0.645693 -0.352159 2.14616 104 163 149
-0.788359 -0.345789 2.14236 96 138 127
0.207996 -0.356207 2.23136 127 185 174
-1.1753 -0.327558 2.10365 136 137 135
-0.72392 -0.332523 2.15756 97 153 140
0.829628 -0.348625 2.28154 107 176 155
-1.17168 -0.321764 2.10691 79 71 72
-0.257872 -0.33292 2.19732 94 153 145
0.760603 -0.340352 2.2884 149 200 210
0.987213 -0.33888 2.2984 117 181 169
1.09494 -0.332485 2.30232 135 193 182
-0.803638 -0.30473 2.1335 77 108 99
-0.685051 -0.302169 2.16388 108 164 151
-0.79794 -0.297135 2.13492 154 213 193
0.549196 -0.297694 2.27764 107 172 150
-0.233031 -0.279802 2.20931 184 237 224
-0.407522 -0.267158 2.19971 97 159 147
-0.832514 -0.258281 2.14691 88 154 142
-0.976317 -0.255513 2.15279 153 205 212
-0.836866 -0.249956 2.14214 97 138 123
-0.828925 -0.247836 2.14507 156 223 214
-0.278872 -0.254022 2.21104 200 246 240
-0.12119 -0.256749 2.22287 111 161 151
-0.217474 -0.250948 2.21299 106 142 142
-1.06823 -0.243274 2.14904 103 113 113
0.545373 -0.259153 2.28903 91 145 128
-0.880138 -0.240528 2.13323 116 164 152
-0.72109 -0.240682 2.17541 147 209 197
-0.760279 -0.235265 2.15401 182 238 225
1.14954 -0.258956 2.34465 103 162 124
-0.527175 -0.239509 2.19623 74 162 146
0.905981 -0.246876 2.31295 113 187 157
-0.413791 -0.232889 2.20572 99 165 160
-0.854807 -0.221204 2.1438 185 241 230
-0.774341 -0.222468 2.15289 124 164 152
-0.0648808 -0.229997 2.23242 196 240 233
0.577055 -0.239329 2.29608 79 130 116
-0.813511 -0.221535 2.15454 119 160 162
-0.857826 -0.216963 2.14576 101 164 154
-0.855135 -0.220937 2.14453 185 241 230
-1.18464 -0.215981 2.14201 122 127 118
-0.766328 -0.218244 2.1571 79 129 119
-0.638072 -0.21852 2.18731 97 138 130
-0.61027 -0.217354 2.18339 89 150 136
0.790176 -0.224258 2.32251 117 170 156
-0.652782 -0.208358 2.18729 87 150 141
-0.640848 -0.205431 2.19212 95 129 123
-0.602569 -0.202537 2.19252 120 164 157
-0.72951 -0.199388 2.18924 72 112 94
0.169137 -0.193454 2.26261 112 154 147
0.472455 -0.195989 2.29568 78 148 118
-0.986491 -0.177919 2.16195 176 196 197
-0.83628 -0.179771 2.16141 154 212 187
-0.702294 -0.179865 2.19349 156 220 208
-0.708696 -0.174874 2.19295 77 133 112
-0.675875 -0.177162 2.19037 159 222 213
-0.546549 -0.177813 2.20915 79 132 119
0.201626 -0.181678 2.27319 98 151 138
-0.372394 -0.174941 2.22322 98 164 153
0.833096 -0.183809 2.33376 133 177 190
-0.430466 -0.16936 2.2226 96 156 145
-1.23842 -0.164026 2.15785 95 135 107
-0.804023 -0.161551 2.17785 191 244 234
-0.908775 -0.157044 2.18471 119 161 136
1.07714 -0.169069 2.36309 148 190 159
0.937404 -0.157223 2.35086 99 124 140
1.08759 -0.158161 2.36276 145 205 181
1.09764 -0.151341 2.36845 105 117 95
-1.2812 -0.137362 2.15915 105 141 129
1.07657 -0.151262 2.36265 113 135 117
-0.733435 -0.136406 2.19942 110 160 150
-0.677279 -0.137221 2.20505 166 203 199
0.686697 -0.1432 2.32755 130 191 181
0.835952 -0.144342 2.34847 88 128 110
0.843897 -0.144575 2.34441 123 180 165
0.961737 -0.143046 2.35642 118 154 142
-0.901997 -0.132056 2.19306 97 144 128
-0.880576 -0.128566 2.19893 97 148 121
0.886073 -0.133484 2.35494 145 202 193
0.118262 -0.129662 2.26898 100 161 147
0.912026 -0.131455 2.35098 151 202 204
0.918087 -0.133062 2.35065 86 123 127
-0.191858 -0.124223 2.24531 67 127 109
1.11876 -0.129772 2.37203 134 199 174
-0.51745 -0.114706 2.23044 88 159 133
-0.254747 -0.10843 2.24913 93 153 143
-1.13232 -0.103063 2.16437 138 165 139
-0.568582 -0.104317 2.22118 151 214 198
-0.132671 -0.105634 2.25778 100 178 147
-0.338377 -0.100083 2.24671 89 154 145
1.11256 -0.106313 2.37888 104 127 112
-1.13786 -0.091752 2.17514 150 179 156
-0.910068 -0.0939972 2.20454 106 136 123
1.18957 -0.0959475 2.39022 115 148 134
1.21552 -0.0974603 2.39051 135 196 182
-0.935706 -0.0878285 2.20542 86 116 97
-0.889241 -0.0833688 2.21167 114 163 143
1.21797 -0.0786559 2.39496 129 200 184
-0.511996 -0.0711296 2.23761 86 152 140
0.476021 -0.0695848 2.32526 159 230 210
-1.21346 -0.0627454 2.19533 111 155 138
-1.15709 -0.0588727 2.19346 152 190 184
-0.86047 -0.0621565 2.21901 90 170 135
0.196432 -0.0608171 2.30122 106 168 156
-0.320463 -0.0579063 2.26175 83 131 113
-0.532453 -0.0483165 2.24178 98 126 113
-0.66499 -0.0446912 2.23472 172 232 224
-0.500217 -0.0453149 2.24661 105 150 134
0.0477105 -0.0443047 2.28502 86 164 147
0.0590139 -0.044069 2.28821 103 164 154
1.18193 -0.0438332 2.39693 143 199 158
-1.07253 -0.0321817 2.20829 96 156 132
-1.19348 -0.028515 2.20288 157 198 183
-1.05701 -0.025601 2.21165 165 227 205
-0.475333 -0.0269158 2.25506 75 118 103
-0.65456 -0.0264882 2.24304 65 86 71
-1.20347 -0.0196537 2.20444 152 185 170
-0.855538 -0.0148368 2.23053 95 139 116
-0.400191 -0.0155606 2.26801 105 169 157
-0.546932 -0.012682 2.25582 105 136 121
-0.534119 -0.0131759 2.25496 80 117 97
-0.473101 -0.00924616 2.26039 83 117 86
-0.563486 -0.00591049 2.25547 112 177 162
-0.478524 -0.00628771 2.26361 139 193 158
-0.173531 -0.00595392 2.28185 89 158 137
-0.464402 -0.00508009 2.26565 118 201 169
-0.419661 -0.00240788 2.2736 99 137 125
0.545294 -0.00343886 2.3486 112 152 140
-0.00950947 0.00191295 2.28672 117 169 162
0.0559423 0.00705598 2.29835 98 164 153
0.0288669 0.00982523 2.2976 110 185 171
0.448044 0.0109738 2.32629 191 240 218
-1.15638 0.0124497 2.21585 108 144 128
1.19977 0.0205338 2.41622 122 162 137
-0.33488 0.0306577 2.28768 91 153 135
0.593294 0.0321295 2.3126 147 177 172
0.402845 0.036904 2.33716 103 155 148
1.15429 0.0387549 2.4193 123 159 135
-0.19558 0.0400165 2.29895 129 172 157
-0.130024 0.044618 2.29915 95 127 110
-0.377262 0.0458896 2.28717 118 163 146
0.458368 0.0484807 2.32949 124 183 163
0.574488 0.0510726 2.30985 159 219 195
0.714107 0.0475407 2.09174 99 178 137
-0.382598 0.0514639 2.28961 66 81 54
-0.0221881 0.0521171 2.31324 103 139 127
-0.370316 0.0576555 2.2941 147 195 189
0.175442 0.0588382 2.32674 110 184 172
0.718792 0.0534343 2.10348 136 241 190
-1.00437 0.0571756 2.22149 180 240 216
-1.02115 0.0595449 2.22086 144 160 153
0.702034 0.0539843 2.09354 172 248 207
-0.20702 0.064582 2.30463 119 181 163
0.732255 0.0572467 2.09811 164 229 203
-1.11114 0.0651605 2.23186 153 180 164
-1.01087 0.0674997 2.2256 67 93 75
-0.301482 0.0695823 2.30203 113 142 126
0.685729 0.0642936 2.10539 108 204 168
-1.01201 0.0684258 2.22752 73 94 72
-0.0545054 0.0727895 2.30708 83 101 84
-1.08024 0.0728689 2.22647 112 153 121
-0.39561 0.0820305 2.29641 110 124 118
-0.34277 0.0848542 2.30098 118 155 145
-0.6001 0.0814703 2.17539 150 208 183
0.261193 0.0908954 2.35033 112 172 162
1.16207 0.102923 2.43766 123 146 141
0.679132 0.100762 2.10142 131 216 172
-0.722019 0.107368 2.17785 70 119 91
-0.52672 0.121263 2.17048 115 178 136
-0.55655 0.12473 2.16572 118 156 126
1.12809 0.142878 2.4477 115 133 110
1.14603 0.15417 2.44794 145 212 185
0.0509597 0.153234 2.34353 103 176 160
1.13132 0.175234 2.45323 86 140 127
-1.04323 0.163386 2.24249 90 105 101
0.17136 0.170231 2.35839 88 141 128
0.347068 0.170268 2.36591 84 124 112
0.324101 0.173112 2.37289 99 161 149
0.777397 0.1534 2.0877 166 232 197
-0.582433 0.168674 2.1468 148 210 164
0.803494 0.165971 2.08588 130 208 161
-1.34175 0.188656 2.26026 140 148 147
0.71117 0.175304 2.0918 107 164 131
1.38537 0.216225 2.47667 98 182 157
-0.453849 0.194641 2.17746 131 172 144
1.11789 0.229756 2.46708 135 160 140
1.17864 0.24338 2.47226 94 153 138
-1.28628 0.231628 2.27274 164 209 200
1.13728 0.257636 2.4777 118 182 163
-1.30479 0.239719 2.27678 173 238 217
-0.0039659 0.254617 2.37531 94 131 115
-1.35141 0.273967 2.28657 152 218 189
-0.058772 0.287378 2.37062 106 151 142
-1.31512 0.297775 2.30034 131 152 149
0.011926 0.312396 2.38248 74 137 121
-0.0962334 0.321372 2.38039 141 202 182
-0.104765 0.330519 2.3814 126 182 161
-1.22218 0.325238 2.31446 137 214 193
-1.2617 0.32761 2.316 116 176 158
-0.0877492 0.34268 2.38426 120 188 171
-1.30117 0.340735 2.31793 161 208 200
-0.053673 0.353083 2.38863 105 156 148
-0.131226 0.365553 2.38549 131 187 174
-1.07214 -0.71443 2.02699 169 213 226
-1.18122 -0.69451 2.01782 158 198 217
-1.1655 -0.685232 2.02315 171 215 228
-0.857675 -0.697123 2.06245 99 168 158
-0.454106 -0.710078 2.09987 101 154 145
-1.19669 -0.667243 2.026 168 192 204
0.835984 -0.723393 2.22025 121 204 179
-0.148805 -0.693571 2.13269 109 163 158
-1.21993 -0.649473 2.02843 121 139 180
-1.10806 -0.652106 2.03538 124 131 151
-1.10366 -0.647638 2.04307 244 255 255
-0.7353 -0.636324 2.08234 87 159 147
-1.09063 -0.625186 2.0528 255 255 255
-1.16911 -0.606145 2.04714 109 168 160
-0.642531 -0.60818 2.09655 101 154 140
-0.956343 -0.585087 2.07525 93 151 126
-1.13299 -0.558402 2.06296 94 107 129
-1.16021 -0.551495 2.05267 164 182 183
-0.0930657 -0.572235 2.15736 118 183 168
0.969542 -0.585708 2.25268 124 192 161
0.595891 -0.576378 2.22392 130 191 187
-1.18676 -0.513211 2.04831 161 192 213
0.807636 -0.561601 2.24253 105 160 135
-1.06902 -0.513757 2.07641 169 204 218
-0.549445 -0.515024 2.1183 78 110 99
-0.319817 -0.513339 2.15043 111 180 160
-1.19989 -0.480732 2.06218 77 85 114
-1.03581 -0.478453 2.09025 107 139 138
-0.540616 -0.488043 2.13499 102 145 136
-1.14761 -0.459447 2.06865 91 125 118
-1.05251 -0.459244 2.09337 124 139 142
-0.534152 -0.458283 2.13564 96 137 129
-0.235982 -0.462465 2.16632 121 174 164
-1.08698 -0.445348 2.08786 102 131 138
-0.0157593 -0.460794 2.1914 87 141 128
-1.08175 -0.429075 2.10218 127 171 172
-0.65889 -0.432324 2.12862 102 151 143
-1.04589 -0.42234 2.10436 197 230 233
-1.03476 -0.419895 2.11119 116 135 148
-0.756997 -0.417688 2.13204 91 155 143
0.0825976 -0.43022 2.19691 122 165 156
0.101903 -0.430358 2.20418 109 154 151
-0.652819 -0.413103 2.12983 130 176 177
-0.514341 -0.413798 2.15247 153 204 197
0.77487 -0.436686 2.26748 99 149 119
-0.881808 -0.39717 2.12433 175 222 220
-0.885997 -0.379797 2.12526 103 119 118
-0.493136 -0.38468 2.15919 113 166 157
-0.877288 -0.378829 2.1323 170 215 218
-0.723105 -0.365718 2.14687 110 178 167
0.862054 -0.389807 2.27497 111 161 149
-0.248626 -0.369388 2.17749 107 150 147
0.471135 -0.382617 2.25947 104 168 139
0.545533 -0.36386 2.25955 114 173 158
-1.17235 -0.331075 2.08773 80 81 77
-0.768298 -0.340873 2.13965 147 217 200
-0.4881 -0.349584 2.17119 171 226 217
-0.64577 -0.33214 2.15045 89 151 135
-0.781175 -0.327852 2.15236 156 198 191
-0.724335 -0.331819 2.15985 100 154 147
0.910066 -0.346555 2.29926 83 150 123
-0.792063 -0.314531 2.14015 162 229 208
-0.697104 -0.310939 2.16368 103 165 149
0.970505 -0.325977 2.3082 120 191 171
-0.877794 -0.300675 2.12144 181 242 214
-0.815386 -0.301147 2.12676 90 129 113
-0.787448 -0.30375 2.13691 161 226 211
-0.839247 -0.294777 2.13006 98 144 132
0.882741 -0.314806 2.298 99 137 125
-1.2007 -0.286835 2.11378 78 113 103
-0.787371 -0.292449 2.13798 86 113 103
-0.984817 -0.270128 2.13361 119 172 163
0.534385 -0.284411 2.2842 109 180 153
-0.483505 -0.257316 2.19314 158 229 213
0.926751 -0.256911 2.31234 89 139 129
-0.592509 -0.237465 2.18804 97 158 144
-0.850197 -0.228084 2.14324 130 173 170
0.549132 -0.244577 2.29027 95 147 123
-0.879315 -0.223793 2.14151 104 146 145
0.433172 -0.239672 2.28444 138 190 180
0.577511 -0.238631 2.29819 77 132 117
-1.18539 -0.215394 2.14362 123 128 119
-1.26111 -0.211276 2.14456 82 97 89
0.580192 -0.22367 2.29898 87 135 117
-1.00335 -0.196587 2.1542 148 198 180
0.81406 -0.20245 2.32817 126 189 173
0.169275 -0.194041 2.26096 109 155 149
-1.24808 -0.176516 2.15263 134 187 167
-0.463683 -0.182196 2.21452 97 159 147
-0.675941 -0.176862 2.19117 163 224 214
-0.672662 -0.165455 2.19438 57 82 72
1.02572 -0.172101 2.35501 95 112 98
-0.909137 -0.156374 2.18646 130 170 145
1.03653 -0.171289 2.35816 177 227 217
-0.549729 -0.154714 2.21105 76 127 107
-0.914253 -0.152395 2.18646 69 95 72
-0.894082 -0.14699 2.1928 82 135 115
0.965142 -0.153595 2.35161 93 110 96
0.857277 -0.149586 2.34672 83 114 99
1.0786 -0.151078 2.36578 123 144 129
0.846612 -0.147027 2.34974 140 203 187
0.961369 -0.143453 2.3553 118 154 142
-1.23494 -0.126738 2.16748 149 179 166
-0.597511 -0.131248 2.2072 94 116 104
0.562218 -0.137171 2.31258 119 180 160
-1.26462 -0.126785 2.16686 110 159 143
-0.563521 -0.126073 2.21425 115 165 155
-0.458033 -0.130539 2.22924 82 134 117
0.590975 -0.133317 2.31302 112 167 158
0.885541 -0.13467 2.35342 164 221 213
1.02984 -0.131516 2.36499 120 154 137
-0.255341 -0.122726 2.2497 92 141 127
-1.25121 -0.114991 2.171 104 133 118
-0.521287 -0.116934 2.22694 101 166 141
0.95257 -0.119644 2.36007 142 161 199
1.05932 -0.119426 2.37082 118 134 117
1.11087 -0.116021 2.37612 149 198 176
-0.573965 -0.103083 2.21955 107 165 147
1.11319 -0.105963 2.37981 102 129 113
1.17427 -0.0995905 2.39026 110 143 116
-0.867722 -0.090219 2.21119 108 166 148
1.19016 -0.0955451 2.39128 112 141 125
1.21598 -0.0972933 2.39094 133 196 180
-0.519179 -0.0792389 2.23856 147 214 205
0.989052 -0.0793991 2.37376 115 156 148
1.19892 -0.0812126 2.39398 111 145 135
1.21716 -0.0793677 2.39311 134 205 188
-0.539995 -0.0710447 2.23755 140 216 198
0.657546 -0.0698831 2.34091 119 191 185
-1.3039 -0.0640987 2.18426 105 140 126
-0.606358 -0.0645366 2.22413 53 80 64
0.196775 -0.0611194 2.30047 99 163 151
-0.669541 -0.059094 2.22758 181 234 221
-0.497768 -0.0580115 2.2488 70 115 106
0.947347 -0.0635113 2.37431 114 128 117
-0.567329 -0.0552102 2.23121 118 186 169
-0.532355 -0.0479808 2.24258 105 134 119
-0.786202 -0.0402367 2.22707 66 108 91
-0.506043 -0.0381301 2.24802 157 215 204
0.992636 -0.0363796 2.38649 112 147 133
-0.888667 -0.0296527 2.21922 76 112 82
-0.802825 -0.0291327 2.23054 81 127 105
-1.19161 -0.0301214 2.20189 134 179 163
-0.57629 -0.0297831 2.24264 122 183 163
-1.07198 -0.0225128 2.211 59 91 67
-1.11449 -0.0147257 2.21266 131 182 162
-0.40158 -0.0172197 2.26507 85 144 130
-0.153026 -0.017857 2.2791 87 133 121
-0.533713 -0.0125885 2.25631 96 133 113
0.551674 -0.0143771 2.34309 81 141 110
-1.14419 -0.0132123 2.21201 122 157 143
-1.1141 -0.0138446 2.21414 117 169 151
0.604991 -0.00900964 2.35069 102 160 135
1.07567 -0.0108149 2.40191 118 138 125
0.586868 -0.00284674 2.34753 63 99 69
0.619235 -0.00234132 2.34954 85 130 113
-0.0213444 0.0036381 2.28403 96 143 135
-0.4432 0.00260873 2.26693 82 129 113
-0.384341 0.0152658 2.27098 138 185 177
-0.45259 0.0197434 2.27435 112 160 142
-0.385128 0.0236915 2.27776 131 163 152
-0.102312 0.0358277 2.2939 84 123 108
0.00275225 0.0357753 2.30787 93 126 111
0.016135 0.0420646 2.31157 155 225 212
-0.284411 0.0428402 2.29201 142 198 179
-0.197965 0.0437504 2.29669 120 160 148
0.692741 0.0398677 2.10748 109 174 135
-0.146309 0.0440251 2.2884 117 184 169
-0.137675 0.0487066 2.30607 137 192 177
-0.0580887 0.0448112 2.30769 102 141 126
1.19813 0.0484003 2.42348 111 131 119
-0.0903276 0.0515674 2.30083 121 177 164
1.18644 0.0518068 2.42335 153 222 209
-0.147854 0.0536158 2.30942 96 139 126
-0.600464 0.05008 2.20529 125 138 112
-0.250709 0.053631 2.29789 77 109 90
-0.265609 0.0574358 2.2998 92 135 120
0.266593 0.0595611 2.33943 114 184 177
0.703344 0.0546061 2.09725 167 243 202
0.750332 0.0521718 2.08736 62 129 97
-0.328636 0.0611126 2.29587 125 185 167
0.730436 0.0546977 2.09363 99 187 151
-0.301185 0.0701587 2.30327 117 146 130
-0.141671 0.0703254 2.30391 96 118 99
-0.363068 0.0735866 2.29767 111 143 138
0.431373 0.0773283 2.34132 90 130 125
0.709467 0.0697769 2.10052 36 98 68
0.736956 0.0697848 2.08965 49 97 68
1.16152 0.0834976 2.43047 102 135 128
0.687342 0.0753613 2.10138 27 101 71
-0.258451 0.085523 2.30499 107 139 114
0.739812 0.084053 2.08051 48 116 81
1.111 0.0986465 2.43273 131 183 160
0.00872879 0.0978592 2.32269 123 181 170
-1.03165 0.0954289 2.23467 137 216 189
-0.541386 0.10578 2.15695 57 97 72
0.76279 0.108098 2.08569 100 187 149
0.802602 0.119322 2.09963 119 188 137
1.12686 0.141891 2.44559 126 142 119
1.14547 0.152998 2.44558 131 196 171
-0.48507 0.15092 2.17258 136 203 171
-1.0365 0.162779 2.24412 165 227 203
1.13054 0.174064 2.45077 81 129 117
1.12267 0.17993 2.45343 156 227 201
-1.03604 0.163489 2.24396 166 228 204
-0.686409 0.162489 2.15019 35 71 47
1.11791 0.189527 2.45522 95 123 100
-1.31734 0.188023 2.27372 153 189 189
0.3131 0.198203 2.37753 61 121 113
0.160722 0.20962 2.36911 93 151 140
-0.486377 0.19425 2.17714 97 143 120
-0.701527 0.197029 2.15092 50 76 52
-0.563515 0.194815 2.15559 162 214 184
-1.23528 0.215843 2.27151 60 84 72
-0.0654316 0.223982 2.35757 135 207 187
1.17813 0.242734 2.47097 99 160 140
1.26248 0.24212 2.47814 108 183 167
0.00676351 0.236683 2.37306 140 197 182
-1.32184 0.229395 2.27294 107 135 129
-1.31138 0.229885 2.27125 140 195 180
-0.0870922 0.234152 2.35207 116 169 155
-0.0795271 0.244386 2.36409 65 87 63
-0.032976 0.243317 2.37247 142 217 195
0.00290322 0.246421 2.37526 99 144 127
-0.594968 0.227775 2.16149 154 218 188
-0.071712 0.247498 2.36266 143 192 170
-0.00498149 0.251579 2.38042 102 126 108
-1.2545 0.243958 2.28624 156 214 203
-1.23435 0.24909 2.29145 90 113 109
0.308946 0.261855 2.39198 116 167 163
1.14 0.287994 2.48654 99 152 125
-1.27513 0.269455 2.2931 119 162 151
-0.622859 0.252342 2.15528 82 107 87
-0.0370147 0.28165 2.37099 99 158 144
-1.34918 0.277874 2.28779 163 221 197
-0.101337 0.291723 2.37058 111 152 137
-1.34104 0.286864 2.28959 87 101 90
-0.0948324 0.309539 2.37911 162 228 217
1.36582 0.328338 2.5061 137 202 186
-1.33233 0.310392 2.30308 150 215 200
1.23478 0.341746 2.50162 101 162 142
-0.0737365 0.326958 2.38122 92 160 143
-0.109459 0.330785 2.37677 129 179 161
1.24816 0.352866 2.50265 114 172 148
-1.29432 0.331557 2.31048 213 250 240
-0.0939152 0.359043 2.38981 143 221 190
1.37916 0.395665 2.52546 94 152 124
1.19598 0.398109 2.51281 97 159 135
-0.087966 0.388112 2.40296 157 213 202
1.39809 0.404029 2.52736 128 184 161
1.24317 0.405405 2.51347 167 239 216
1.25573 0.413534 2.51965 110 162 145
-1.07729 -0.687835 2.03223 117 134 153
-1.13951 -0.676867 2.03419 111 140 144
-0.668783 -0.668585 2.0851 93 149 138
-0.918038 -0.65722 2.06713 97 160 158
-0.643018 -0.662899 2.0908 255 255 255
-1.1164 -0.635344 2.03503 255 255 254
-1.08888 -0.639866 2.05046 75 85 85
-0.106299 -0.647984 2.1481 125 176 162
-0.955511 -0.585566 2.07283 99 157 132
-1.1609 -0.569702 2.05655 81 103 98
-1.12944 -0.557982 2.057 98 116 133
-1.16525 -0.545152 2.05585 78 66 86
0.942829 -0.592763 2.25601 111 140 125
0.123125 -0.565798 2.17969 116 167 159
-1.05113 -0.534129 2.07557 127 201 189
-0.993575 -0.523685 2.08342 96 138 131
-1.18822 -0.50835 2.04834 164 211 232
0.760035 -0.542153 2.24058 132 210 186
-1.03902 -0.498244 2.08735 89 110 107
1.08734 -0.539187 2.27133 152 207 190
0.0651682 -0.505831 2.17765 114 149 135
-1.10698 -0.481456 2.0734 184 214 243
1.02218 -0.525663 2.27265 155 212 174
0.479415 -0.500133 2.2379 164 227 211
-1.16361 -0.463415 2.06638 76 84 83
-0.379676 -0.459466 2.15584 104 157 147
-0.908538 -0.438202 2.10961 93 149 138
-1.00978 -0.436611 2.11025 113 155 160
-0.154737 -0.435709 2.17961 124 177 168
1.10621 -0.45888 2.29639 119 161 143
-1.03538 -0.419596 2.11227 109 129 140
-0.919235 -0.403137 2.11299 97 110 108
0.887462 -0.434437 2.26739 136 206 176
-0.920702 -0.388777 2.12305 81 95 93
0.755212 -0.402517 2.26347 99 161 139
1.03526 -0.407206 2.27846 93 150 112
1.10782 -0.403974 2.29902 94 115 107
-0.529922 -0.365773 2.15648 104 151 135
0.222545 -0.380468 2.22585 96 147 133
0.940629 -0.380427 2.2879 112 161 145
1.11212 -0.382847 2.29645 97 138 123
1.37311 -0.380995 2.3419 101 179 162
0.79178 -0.354801 2.27644 97 167 154
0.818065 -0.351978 2.28372 95 146 138
-0.772713 -0.318197 2.15285 102 116 110
-0.679366 -0.29929 2.16453 125 176 168
-0.862371 -0.290604 2.13196 59 75 68
-0.738168 -0.278283 2.16499 85 102 91
-0.728686 -0.267671 2.16763 109 204 184
-1.06308 -0.238337 2.15494 157 199 204
-0.994455 -0.23097 2.16273 189 232 235
0.573594 -0.239065 2.29286 98 152 135
-1.23165 -0.215095 2.13457 143 189 177
-1.23539 -0.212725 2.14102 146 195 179
-0.750196 -0.213459 2.15998 208 244 238
-0.728586 -0.202709 2.18791 91 124 109
-0.672911 -0.206374 2.18328 75 125 107
0.785513 -0.222189 2.32094 113 162 148
0.950236 -0.2145 2.33042 131 196 180
-0.892015 -0.192531 2.16104 196 237 232
-1.27065 -0.188512 2.14516 62 74 54
0.807996 -0.20262 2.32026 137 200 180
0.848525 -0.203707 2.33377 171 221 221
-0.786572 -0.185638 2.17331 70 106 94
-1.22923 -0.170862 2.1598 67 72 57
-0.608889 -0.172584 2.19501 82 135 121
-0.506922 -0.173885 2.21507 92 158 146
1.03814 -0.172001 2.36201 177 226 218
-0.538876 -0.157734 2.2104 67 113 100
1.00477 -0.167767 2.35447 111 147 135
0.994591 -0.157957 2.35472 187 240 230
0.952529 -0.153253 2.35444 129 186 171
0.966367 -0.153163 2.35279 90 103 89
-1.27883 -0.136003 2.16445 83 123 111
-0.599876 -0.1302 2.20983 103 135 118
-0.473384 -0.131008 2.23019 116 181 165
-0.563264 -0.125719 2.21516 99 149 139
0.884462 -0.134603 2.35363 152 203 199
0.898946 -0.133454 2.35506 80 99 80
0.749822 -0.130591 2.34028 138 222 194
0.91699 -0.12936 2.36364 134 186 179
1.11308 -0.132002 2.38332 100 113 89
-1.04569 -0.112569 2.15083 100 141 109
0.952804 -0.118577 2.36296 131 145 174
-1.0483 -0.110206 2.15656 95 143 114
-0.575425 -0.101478 2.22891 98 160 148
-0.938215 -0.093092 2.20288 80 98 81
1.11706 -0.0968751 2.38167 167 229 213
1.16817 -0.0982396 2.38565 106 149 122
-1.06657 -0.0859974 2.17414 116 152 130
1.00046 -0.0932441 2.371 107 128 120
1.17537 -0.0972365 2.388 101 123 99
-1.20714 -0.0799721 2.18635 145 212 197
1.1487 -0.0894869 2.38796 182 230 212
-1.17564 -0.0772223 2.19016 151 174 170
-0.785932 -0.077964 2.22093 103 159 140
1.19544 -0.0811612 2.39877 96 112 94
-0.917963 -0.0649997 2.2212 61 90 64
-0.546084 -0.0643932 2.23495 90 120 101
-0.385634 -0.0612117 2.25345 61 106 89
-0.533148 -0.0610964 2.24246 74 108 84
-0.573292 -0.0554361 2.23473 133 198 182
-0.961604 -0.0489426 2.21704 99 127 114
-0.525009 -0.0496564 2.24971 131 195 183
-0.600975 -0.0428269 2.22359 123 178 153
1.18627 -0.0469642 2.40071 115 175 145
-0.599929 -0.0407624 2.22843 112 162 130
0.777719 -0.039559 2.2328 113 180 151
-1.06136 -0.0280344 2.21443 150 213 193
-0.892411 -0.0263583 2.22673 64 96 65
-0.476344 -0.0306067 2.25975 87 133 114
-1.03797 -0.0271223 2.2066 57 69 57
-0.874208 -0.023686 2.22607 84 133 101
-0.501211 -0.0267361 2.24791 68 110 79
1.03635 -0.0275797 2.39216 119 157 151
-1.07673 -0.0225464 2.21148 66 89 67
1.19677 -0.0179179 2.40955 129 171 153
-1.07445 -0.007365 2.21351 114 173 142
-0.563245 -0.0120698 2.24746 102 161 146
0.60221 -0.0061569 2.34971 82 121 99
-0.364057 -0.00261268 2.27367 91 145 132
-1.05558 0.00478922 2.2259 84 104 85
-0.453564 0.00538373 2.26975 60 83 68
1.23176 0.0177868 2.41432 75 101 71
-1.05979 0.0166784 2.22285 123 168 152
-0.454019 0.0239885 2.28382 86 120 96
-0.0814863 0.0224145 2.30025 89 152 132
1.19877 0.0215955 2.4188 115 153 131
-0.373069 0.0296643 2.28416 67 90 68
1.2274 0.0305003 2.42155 137 200 180
-0.270131 0.0345087 2.29203 89 124 104
-0.106661 0.0395474 2.29843 72 86 74
0.000339113 0.0386962 2.31171 92 128 112
-0.351895 0.0450985 2.29403 148 223 207
-0.0661016 0.0468069 2.3033 92 124 107
0.430538 0.0475938 2.33691 64 100 88
-1.0057 0.048328 2.21692 155 206 178
-0.264763 0.0470447 2.30295 126 190 171
-0.20046 0.0528782 2.2975 94 110 92
-0.180039 0.050349 2.30849 94 107 83
-0.163563 0.0490824 2.30132 163 220 212
0.706719 0.0458555 2.1002 53 64 44
1.05093 0.0549286 2.41527 112 141 118
-1.16467 0.0514236 2.2186 128 182 153
-0.253803 0.0559319 2.29828 78 105 85
-0.0355559 0.0545417 2.32093 157 220 210
-0.00906991 0.054892 2.31194 128 189 175
-0.149461 0.0629748 2.30623 129 185 166
-0.243452 0.0663887 2.30261 133 207 181
-0.215153 0.0654535 2.30458 125 190 168
-1.28836 0.0713618 2.2305 118 129 119
-0.14788 0.0668474 2.31463 99 119 106
1.17874 0.0725118 2.43481 101 128 119
-0.198183 0.0757105 2.30253 115 140 126
0.683558 0.0718286 2.10018 55 118 92
1.00802 0.079079 2.41758 95 142 116
-0.294161 0.0789864 2.30388 139 188 174
0.0202578 0.0827041 2.32708 70 114 91
1.15242 0.0911967 2.43337 171 219 220
-0.00529529 0.0959258 2.3253 78 90 72
0.00957622 0.100089 2.3274 137 199 185
0.784052 0.0891799 2.08576 49 95 59
1.16154 0.11435 2.43921 106 116 100
-0.015314 0.118505 2.33953 84 107 92
-0.587447 0.112897 2.16581 115 157 134
0.768378 0.11248 2.0899 76 175 127
1.15573 0.141945 2.44674 84 101 74
1.14495 0.15285 2.44754 125 186 160
-0.620883 0.140289 2.14498 97 168 141
0.782436 0.134355 2.09219 145 243 207
0.802612 0.14249 2.10058 99 181 132
-1.1667 0.155424 2.22938 131 203 180
0.683122 0.151993 2.10231 63 105 74
1.12147 0.180624 2.45463 146 206 176
-0.670547 0.16033 2.14326 165 246 221
-1.31221 0.186944 2.26689 168 199 200
0.00375503 0.196716 2.36059 122 181 160
-1.27637 0.19599 2.26222 110 127 116
-1.20796 0.194862 2.26406 140 198 180
-0.0240591 0.206837 2.35868 117 148 127
1.38402 0.216782 2.47904 103 192 166
0.0112757 0.2184 2.37017 107 128 106
-1.32811 0.221539 2.27084 162 194 199
-0.705051 0.214892 2.14694 62 98 81
-0.0340993 0.24121 2.36622 151 217 198
-0.020984 0.25202 2.37242 104 149 123
-0.00538815 0.250886 2.3791 104 130 112
-0.00536808 0.250014 2.37744 98 124 106
-1.34911 0.277584 2.28726 161 218 197
-1.2139 0.318181 2.31502 85 122 114
1.18583 0.349391 2.49836 113 170 137
-0.0967414 0.336215 2.38825 69 105 81
1.24202 0.352165 2.50184 111 165 142
-0.135713 0.349703 2.38463 102 120 107
0.213655 0.371784 2.42353 114 185 168
1.229 0.402919 2.51737 105 165 131
1.36962 0.401354 2.52179 89 143 120
