ply
format ascii 1.0
element vertex 1268
property float x
property float y
property float z
property uchar blue
property uchar green
property uchar red
end_header
-4.3724 -1.74044 8.69258 170 229 208
-0.531096 -0.672785 3.44957 96 154 129
0.526898 -0.377 2.02996 45 69 61
-2.46406 -1.00229 6.027 71 105 104
-2.25952 -0.899938 5.73253 78 142 112
-0.73145 -0.543583 3.62973 80 123 112
0.0862518 -0.353129 2.57423 159 212 192
-1.96351 -0.675785 5.26528 55 113 84
-2.02173 -0.682966 5.35016 159 252 201
-1.26476 -0.5206 4.29313 48 75 49
-0.0187993 -0.306431 2.71949 135 183 165
-2.56352 -0.53167 6.00175 70 137 92
-1.43636 -0.391282 4.52542 45 90 73
-2.38184 -0.477343 5.74986 73 148 110
-1.55632 -0.27778 4.63308 175 234 196
0.24047 -0.0147982 2.323 70 128 104
0.123975 -0.228733 -1.55702 76 127 99
-0.850842 0.609572 3.48082 66 111 92
-2.4167 -3.13627 6.30555 185 239 232
-3.03959 -3.54832 7.19768 92 154 140
0.389285 -1.11788 2.25559 164 195 168
0.374344 -1.12432 2.27344 82 98 80
-0.0659591 -1.43265 2.93156 109 125 148
-3.94269 -4.06036 8.48989 69 140 100
-3.82712 -3.97908 8.32788 71 138 107
-0.296696 -1.52597 3.25283 93 131 163
0.407477 -1.05077 2.24852 99 135 129
-5.6682 -5.04686 11.013 101 154 144
-0.622963 -1.6942 3.71639 82 127 111
-0.450899 -1.57919 3.47803 101 117 123
-0.449537 -1.57935 3.47927 98 123 125
-0.665856 -1.71239 3.78023 88 144 133
-0.543285 -1.62737 3.59893 92 126 119
-0.466316 -1.57211 3.5052 237 255 255
-0.17837 -1.30735 3.03349 123 166 139
-0.834379 -1.70375 4.01271 131 165 155
-0.837743 -1.70759 4.03472 189 200 198
-0.593602 -1.48508 3.58094 96 140 127
-0.60019 -1.46737 3.57842 65 157 128
-0.284532 -1.30995 3.2167 62 109 93
-0.0849278 -1.19577 2.93765 134 177 150
-2.02576 -2.31647 5.72636 102 142 131
-2.09719 -2.34931 5.81906 108 155 147
-0.569199 -1.42192 3.53682 153 242 199
-0.412163 -1.34088 3.35082 154 235 202
-0.954277 -1.62487 4.07536 97 147 123
-0.499488 -1.37876 3.45118 73 138 113
-1.69943 -2.07368 5.24414 63 105 88
-0.981956 -1.62902 4.10959 74 131 98
-0.528167 -1.38128 3.48147 81 120 94
0.031632 -1.10047 2.76834 108 141 127
-0.498106 -1.3496 3.44371 73 99 85
-0.272121 -1.2415 3.17696 156 227 187
-0.288899 -1.24721 3.20841 163 211 185
-0.944741 -1.57001 4.04904 143 209 167
-0.433222 -1.31608 3.39167 56 83 73
-1.03123 -1.61889 4.1915 41 75 51
-0.433747 -1.30835 3.38294 93 158 136
-0.43568 -1.30884 3.38759 104 149 133
-0.51511 -1.33541 3.46948 112 160 124
0.00821745 -1.07898 2.7935 86 102 101
0.73895 -0.698958 1.78422 90 123 116
-1.15486 -1.66528 4.36567 121 222 177
-1.2681 -1.72092 4.53289 49 79 60
-0.0134409 -1.0764 2.82109 128 193 167
0.777104 -0.67328 1.72977 65 123 95
-1.17558 -1.65923 4.3935 162 212 178
-0.210138 -1.1621 3.09522 136 167 152
-4.71084 -3.53252 9.5436 251 255 255
-0.576695 -1.32318 3.57331 143 196 163
-1.05457 -1.55434 4.21696 94 176 134
-0.355456 -1.20763 3.2883 57 71 53
0.0613777 -1.00276 2.72097 114 148 142
0.0638172 -1.00257 2.72012 118 152 146
-0.359966 -1.19935 3.29122 124 183 145
-1.12846 -1.56233 4.30171 48 78 53
-0.607841 -1.31523 3.62314 107 188 161
0.56826 -0.739612 2.01683 124 170 151
0.596593 -0.72686 1.98053 101 142 134
0.644236 -0.701491 1.91579 89 156 135
-0.977159 -1.4728 4.12398 142 194 157
-1.08687 -1.50636 4.23493 64 103 81
-0.173456 -1.08645 3.04635 151 196 187
-0.282975 -1.13279 3.18901 112 156 139
-1.11652 -1.50667 4.27926 39 82 67
-0.625036 -1.2776 3.62481 135 214 171
-1.13283 -1.51131 4.30428 129 196 159
-0.521555 -1.2239 3.48272 151 236 198
-0.758238 -1.32763 3.78929 77 93 62
-0.25836 -1.10935 3.16235 147 210 190
0.574284 -0.713737 2.01036 90 148 137
-7.86444 -4.84259 14.011 110 162 152
-1.00745 -1.44151 4.15231 32 67 41
-0.892519 -1.38789 4.00852 26 43 29
-0.93319 -1.39747 4.05224 118 179 141
-0.740798 -1.30758 3.7858 114 181 142
-0.497725 -1.19455 3.45022 20 69 49
-0.0976288 -1.01646 2.93183 167 218 204
-0.986363 -1.40846 4.10814 159 214 199
-0.615058 -1.24085 3.60934 53 111 83
-0.931089 -1.38318 4.05387 35 66 39
-0.845607 -1.33892 3.92907 31 53 35
-0.645777 -1.24573 3.64747 49 78 62
-0.862532 -1.34809 3.95343 128 197 164
-0.54022 -1.19738 3.50393 104 173 140
-0.270553 -1.08284 3.1722 76 112 96
-0.905387 -1.35657 4.00642 30 55 27
0.417727 -0.761758 2.22009 83 113 102
-0.556001 -1.18735 3.51981 42 84 66
-0.0922997 -0.985637 2.92113 163 215 208
0.26057 -0.828193 2.43906 96 149 139
0.40499 -0.763333 2.24116 171 222 215
-0.820659 -1.30428 3.89039 60 122 104
0.327217 -0.791666 2.34308 87 136 120
-0.413368 -1.11684 3.36205 160 219 198
-0.838706 -1.29605 3.92076 59 105 83
0.42444 -0.741287 2.20988 74 105 96
-0.856043 -1.29794 3.94445 133 210 176
-0.382974 -1.09332 3.32001 133 169 153
-0.89151 -1.31365 3.99864 162 238 214
-0.382682 -1.09336 3.32247 133 168 154
0.468988 -0.714946 2.1489 80 114 104
-0.265849 -1.03635 3.16289 163 235 213
-0.728247 -1.23104 3.77191 152 206 177
0.651495 -0.636252 1.9007 86 141 122
-0.267344 -1.03658 3.17987 156 229 203
-0.0024534 -0.913677 2.80212 76 104 104
0.32787 -0.763602 2.33782 81 112 103
-0.857257 -1.27018 3.94491 62 134 111
0.317288 -0.768472 2.35406 68 103 89
0.613267 -0.644641 1.9529 82 133 119
-0.910201 -1.2841 4.01767 78 140 128
-0.836309 -1.25156 3.91172 77 132 117
-0.0516784 -0.917462 2.86116 157 192 195
0.278299 -0.778748 2.40946 171 241 218
0.115887 -0.839883 2.63106 152 222 209
-3.04243 -2.19065 6.96774 85 141 122
0.334183 -0.745983 2.33141 74 124 112
0.638567 -0.621633 1.91488 98 148 130
-1.09699 -1.33139 4.24886 29 100 57
-0.917831 -1.25499 4.00705 93 129 115
-0.933605 -1.25827 4.02508 170 234 215
-0.872587 -1.23268 3.95582 76 136 126
-0.896809 -1.23776 3.97719 81 127 114
-0.921049 -1.24444 4.00596 63 95 78
-0.833394 -1.208 3.89349 97 147 123
-0.629374 -1.13357 3.65286 154 211 196
-0.925495 -1.24587 4.0299 41 78 58
-0.896372 -1.22877 3.97954 153 220 213
-0.111735 -0.913265 2.94118 85 106 108
-0.585892 -1.10991 3.59291 137 203 168
-0.537049 -1.085 3.52252 55 69 58
-6.87806 -3.72907 12.2435 86 112 99
0.128007 -0.807051 2.62008 120 170 160
-0.54588 -1.0731 3.53089 160 217 202
-0.925302 -1.21961 4.02783 83 145 123
-0.610247 -1.09672 3.62678 92 138 126
-5.72333 -3.1905 10.658 66 95 86
-0.519124 -1.04803 3.49691 144 199 166
-0.19482 -0.913344 3.05988 68 133 124
0.657509 -0.577545 1.89248 103 138 128
-1.14321 -1.26436 4.29246 160 241 202
-1.08437 -1.23923 4.22177 77 125 96
-0.0461141 -0.840477 2.8517 83 163 128
0.0932743 -0.782308 2.66024 76 138 122
0.659798 -0.566758 1.88558 90 148 119
-4.12044 -2.41566 8.48909 81 98 84
-4.09982 -2.40947 8.45258 66 81 67
0.436893 -0.64133 2.18657 102 154 144
0.620404 -0.573505 1.94033 81 120 88
0.603753 -0.573565 1.96152 124 136 138
0.510121 -0.602239 2.08282 90 137 129
-0.77315 -1.06554 3.78753 71 119 91
-0.96405 -1.13187 4.04921 72 124 100
0.657713 -0.543977 1.89061 94 152 134
0.611297 -0.554449 1.94861 71 116 89
0.625016 -0.546918 1.92868 89 130 109
-4.88196 -2.57255 9.50872 127 154 138
0.581255 -0.557936 1.9845 89 147 123
0.57016 -0.56084 1.99986 98 134 120
0.580915 -0.557753 1.98583 82 142 118
0.216003 -0.685999 2.4868 96 154 143
-1.05502 -1.12718 4.18449 127 183 162
-0.970303 -1.09168 4.05509 145 218 168
-0.361491 -0.885854 3.27372 87 159 136
-3.72786 -2.10443 7.91426 93 123 110
0.467396 -0.581328 2.13603 98 133 123
0.538325 -0.558838 2.03945 108 141 137
-0.297523 -0.847884 3.18078 72 129 104
0.554764 -0.548629 2.01929 174 228 211
-0.322227 -0.850124 3.20858 87 142 127
0.129471 -0.693865 2.60179 166 228 214
-0.3207 -0.849559 3.21672 80 137 134
-3.49173 -1.9571 7.57648 143 213 177
-3.59995 -1.97045 7.7158 172 241 198
0.539461 -0.537766 2.03805 95 140 131
-4.36117 -2.21753 8.76825 143 219 171
0.128124 -0.674647 2.5992 144 214 197
0.503265 -0.54812 2.08612 83 118 104
0.513004 -0.545196 2.07379 189 229 217
0.497912 -0.550079 2.10049 74 98 90
0.484514 -0.54887 2.11546 93 139 140
0.242113 -0.620107 2.4439 84 145 131
0.295963 -0.59895 2.36694 153 225 212
0.291565 -0.597089 2.37153 88 136 124
0.24379 -0.611143 2.43616 91 148 139
0.4988 -0.529303 2.0922 107 152 133
0.287857 -0.588576 2.37804 71 120 98
0.563967 -0.500544 2.00384 70 117 101
-5.09506 -2.31101 9.76553 114 188 162
-4.18994 -2.00164 8.51615 76 148 105
0.496851 -0.513912 2.09247 150 198 186
0.114922 -0.625348 2.60628 100 164 152
-3.33784 -1.70537 7.32677 217 248 219
-1.03133 -0.95983 4.16412 95 133 157
0.396253 -0.52905 2.22524 84 157 141
-2.92224 -1.54028 6.74911 206 230 220
0.163199 -0.594227 2.54424 100 152 142
-3.27989 -1.6354 7.23153 115 190 162
-0.0680434 -0.655964 2.84927 93 160 129
-2.96171 -1.53112 6.79535 253 255 255
-4.26159 -1.91627 8.58199 83 145 109
0.50453 -0.474985 2.08006 117 178 152
0.505719 -0.474585 2.08108 115 175 151
0.512986 -0.465113 2.0639 186 236 226
0.538027 -0.459562 2.03236 106 151 135
-3.18534 -1.51126 7.10233 145 197 167
-4.25593 -1.79913 8.55562 87 139 122
-0.400483 -0.698562 3.28843 88 142 125
-0.017612 -0.594025 2.77028 92 163 137
0.47108 -0.464888 2.12001 89 155 136
-3.51516 -1.54602 7.52911 130 185 160
0.779373 -0.382156 1.72177 112 176 164
-4.18774 -1.72734 8.43828 79 141 117
-4.35688 -1.75526 8.67719 104 150 131
-0.458458 -0.686204 3.36556 158 210 200
-0.472285 -0.686162 3.38687 96 134 116
0.562339 -0.42151 1.99869 253 253 253
-2.10976 -1.11102 5.60103 77 100 92
0.562943 -0.420872 2.00096 255 255 255
-2.36528 -1.1648 5.96549 158 211 202
0.450362 -0.436739 2.13754 167 227 186
-4.31266 -1.656 8.57949 83 116 95
0.45113 -0.430401 2.1217 171 236 210
0.613721 -0.397191 1.93472 88 149 135
-4.2656 -1.62277 8.50434 154 225 209
-1.72746 -0.976319 5.06904 168 240 227
-0.533537 -0.672356 3.45586 77 130 103
-2.11251 -1.07355 5.60237 137 189 189
-1.93099 -1.02695 5.35186 153 198 231
-0.564383 -0.675849 3.49432 79 134 109
-2.40606 -1.12999 5.98633 194 243 235
-4.06873 -1.54683 8.22034 138 181 154
0.177287 -0.488779 2.50415 53 132 113
-2.12456 -1.03861 5.58592 76 108 121
-0.711851 -0.688244 3.66791 80 142 120
0.110489 -0.497848 2.59348 66 113 104
0.545074 -0.393781 2.01392 92 157 135
-2.06437 -1.00977 5.51171 135 178 181
-0.549635 -0.644669 3.45755 105 140 114
0.0930002 -0.476216 2.60808 91 138 129
-1.65593 -0.873032 4.94474 98 170 140
-1.93591 -0.934821 5.33655 63 103 85
0.0953469 -0.474876 2.61339 84 133 125
-4.34275 -1.47381 8.55301 124 161 151
-2.92896 -1.15794 6.67039 59 98 73
0.414097 -0.397473 2.18062 66 76 63
0.575692 -0.364035 1.97575 80 125 108
-2.26626 -0.989754 5.77115 72 123 119
-1.99181 -0.928189 5.40547 71 114 93
-2.43295 -1.02091 5.9873 116 116 130
-2.52044 -1.03641 6.109 99 110 130
-2.6865 -1.06715 6.34515 176 224 252
-2.43236 -0.97578 5.98055 58 120 114
-3.02573 -1.09696 6.79953 87 114 128
-1.74962 -0.822643 5.0527 68 154 114
0.408791 -0.373931 2.18108 84 131 109
-3.0241 -1.08068 6.78092 174 214 242
0.534936 -0.347763 2.0235 103 162 148
0.417615 -0.365252 2.16947 172 218 199
0.352432 -0.375936 2.26056 159 229 206
-2.25674 -0.900004 5.72649 78 142 112
0.368015 -0.370338 2.23127 151 205 188
-3.91152 -1.21869 7.94913 95 138 105
0.352399 -0.363781 2.25384 132 191 171
0.375316 -0.359652 2.22284 154 213 198
-1.22489 -0.651669 4.24415 48 90 65
-3.24784 -1.05979 7.06243 158 216 205
0.381434 -0.355441 2.21713 101 157 146
-1.32948 -0.666955 4.39488 47 79 55
0.153248 -0.397855 2.51759 89 168 154
-4.334 -1.26616 8.49879 86 137 99
0.363689 -0.35501 2.24083 104 147 132
0.364534 -0.355207 2.23949 157 200 187
-1.26017 -0.645299 4.30287 128 172 155
0.447825 -0.331841 2.12457 67 112 95
0.0219537 -0.397352 2.68491 125 194 167
-2.99167 -0.931203 6.69532 164 221 236
-3.93142 -1.08178 7.92011 77 117 89
-1.40045 -0.622279 4.49048 53 82 67
-1.28995 -0.599176 4.31581 75 129 100
-1.21519 -0.588493 4.22647 147 203 180
0.812243 -0.259924 1.67545 86 149 133
0.0661642 -0.373846 2.60355 74 118 101
-1.29074 -0.594778 4.32732 74 133 102
0.564311 -0.293272 1.98142 102 153 145
0.0131014 -0.379045 2.68779 151 208 193
-3.13475 -0.880351 6.86997 95 142 133
-2.02326 -0.6949 5.34987 72 161 118
0.133981 -0.347704 2.53157 71 128 113
-0.457876 -0.433662 3.29604 100 153 133
-2.02417 -0.682707 5.35538 137 228 179
0.0781686 -0.339152 2.58454 77 105 92
-1.14914 -0.520513 4.12567 120 162 127
-0.0560081 -0.354013 2.76358 83 132 116
0.620009 -0.256884 1.90664 81 117 100
-1.26423 -0.520356 4.29456 42 64 39
0.277343 -0.291563 2.33848 161 212 208
-2.29663 -0.645163 5.69421 161 237 203
-0.0225847 -0.320894 2.7246 149 190 163
-2.35423 -0.62382 5.77122 156 251 214
0.0536015 -0.300466 2.60725 132 191 160
-0.785602 -0.400649 3.66358 50 114 79
-0.0189968 -0.306091 2.72098 120 173 153
0.208388 -0.276268 2.42002 66 116 106
-2.21394 -0.585386 5.57808 142 216 180
-0.894105 -0.387815 3.76878 154 218 183
0.196442 -0.264669 2.43466 161 222 208
-0.0275261 -0.286053 2.722 88 157 137
-2.01163 -0.507557 5.2901 112 151 125
-0.229084 -0.297271 2.98087 71 130 110
-2.16708 -0.51266 5.48185 43 82 56
-2.1116 -0.509088 5.41745 154 214 190
-1.72029 -0.458854 4.89129 111 174 130
-0.420388 -0.31284 3.22687 113 176 156
-0.366363 -0.30179 3.16017 53 114 100
-2.12528 -0.487535 5.43105 143 216 176
-2.31385 -0.484968 5.66965 165 255 217
-2.33777 -0.480118 5.70093 66 162 126
-0.564331 -0.295932 3.39839 106 176 163
-2.46209 -0.47661 5.86176 52 121 88
-2.44286 -0.452776 5.82424 65 116 88
-1.48314 -0.354642 4.58023 10 67 52
-1.47301 -0.345443 4.54656 22 77 60
-1.50852 -0.334357 4.59397 36 97 83
-1.52392 -0.3177 4.61467 73 151 127
-0.391794 -0.210177 3.17024 59 130 114
-0.413516 -0.20722 3.19535 78 130 113
-0.970703 -0.228672 3.81685 94 113 104
-2.77846 -0.310342 6.2063 76 134 99
-2.53022 -0.288474 5.88508 144 231 187
-2.462 -0.260197 5.8148 71 137 102
-2.81273 -0.255385 6.25464 171 243 201
-1.77808 -0.203156 4.91563 46 96 66
-2.54045 -0.215403 5.90045 82 118 96
-1.88516 -0.185901 5.05536 100 139 117
0.25547 -0.0935499 2.32649 74 153 134
0.193118 -0.0658106 2.39738 96 127 128
-1.24795 -0.0549363 4.1101 67 116 96
0.125795 -0.0465008 2.47607 95 148 135
0.212544 -0.0411501 2.36098 73 136 116
-0.911563 0.0040167 3.76043 88 147 119
0.240585 -0.0144698 2.32378 83 139 118
-1.62398 0.0327963 4.55399 80 128 104
-0.851615 0.176449 3.58626 69 135 86
-0.000435885 0.128361 2.59408 84 139 124
-2.86049 0.475673 6.08107 100 146 133
0.0753398 0.179656 2.48793 102 164 140
-0.74786 0.37535 3.4493 51 99 75
-2.00559 0.571447 4.7091 50 77 57
-0.788648 0.408006 3.48386 56 107 79
-0.853343 0.612573 3.48786 88 134 121
-0.867135 0.627132 3.49687 95 130 120
-2.03457 1.02217 4.67787 40 52 40
-2.55179 -3.21394 6.49581 133 182 180
-3.05214 -3.55834 7.22597 88 152 140
0.389504 -1.11795 2.25696 161 191 162
0.545497 -1.00847 2.05002 163 204 196
-3.53291 -3.82636 7.90965 59 100 73
0.547062 -0.985955 2.0385 114 146 145
0.529714 -0.997397 2.06962 145 178 181
-3.93629 -4.05896 8.5124 107 183 149
0.386249 -1.07461 2.2844 58 95 93
-0.512408 -1.65961 3.56225 79 138 124
-6.45242 -5.5455 12.0782 53 91 69
-0.637686 -1.70025 3.7431 102 151 129
-0.449293 -1.57934 3.47925 98 123 125
-0.454318 -1.56514 3.48603 132 149 146
-0.684632 -1.70188 3.81138 223 253 254
-0.110635 -1.31419 2.95204 98 140 122
-0.111418 -1.31479 2.95738 98 138 120
-0.84803 -1.78235 4.03433 87 140 120
-0.815312 -1.71679 3.98463 165 241 209
-1.30797 -1.98268 4.69073 107 163 150
0.75647 -0.747924 1.75158 112 167 152
-0.464201 -1.41615 3.40692 146 227 194
-0.471048 -1.40974 3.41255 63 128 103
-0.454258 -1.38917 3.40442 84 140 121
0.625887 -0.796279 1.93627 89 145 132
-0.401041 -1.34155 3.33951 146 230 202
0.760496 -0.71705 1.7514 78 145 116
-0.9543 -1.62526 4.07803 86 134 110
-0.474578 -1.36057 3.41576 71 116 83
-0.271086 -1.27076 3.18603 155 222 213
-0.983519 -1.62984 4.11487 67 122 89
-0.635665 -1.43011 3.60891 151 245 210
-0.262757 -1.25969 3.17361 90 117 114
-0.565938 -1.39549 3.53436 126 168 145
-0.161575 -1.20374 3.03904 95 109 98
-0.527171 -1.3756 3.49501 142 237 193
-0.252714 -1.24281 3.15972 121 180 152
-0.49825 -1.34962 3.44388 73 99 85
-1.01984 -1.62793 4.17205 70 136 107
-0.260928 -1.23963 3.16801 74 100 84
0.0251343 -1.08721 2.76709 111 156 160
0.748388 -0.705879 1.76865 91 140 108
-1.78961 -2.08885 5.38798 107 170 160
-0.949125 -1.57272 4.05348 154 224 188
-0.493913 -1.3361 3.44096 158 213 174
-0.995205 -1.60344 4.13243 155 227 184
0.739111 -0.698919 1.78439 88 119 112
-0.299051 -1.2319 3.22286 121 150 127
-0.908947 -1.52772 4.01954 27 46 29
-1.06592 -1.6065 4.23142 185 238 194
-1.05079 -1.60038 4.21916 42 84 53
-1.18181 -1.66455 4.40214 134 184 154
0.737847 -0.69065 1.78658 108 155 146
-0.404652 -1.25718 3.34484 122 191 180
-3.03425 -2.67246 7.1437 124 175 167
0.0115633 -1.05471 2.79634 159 210 202
0.75686 -0.672401 1.75662 101 148 115
0.458919 -0.815893 2.1694 93 137 130
-0.412824 -1.25315 3.36925 109 158 144
9.99216e-06 -1.03973 2.80021 145 209 204
0.761132 -0.664883 1.75583 101 154 134
-0.263317 -1.15103 3.16754 156 221 206
0.0874527 -0.976991 2.68713 89 116 106
0.567586 -0.743554 2.01707 83 102 93
0.643553 -0.70183 1.9135 86 151 129
-0.434241 -1.2133 3.37624 83 139 118
-0.385579 -1.19397 3.33375 44 68 56
0.135689 -0.944167 2.61836 113 167 154
-0.368444 -1.18504 3.30717 137 183 161
-0.0782351 -1.04348 2.91243 69 81 75
0.108278 -0.957157 2.6576 102 149 141
0.63817 -0.70145 1.92327 83 125 107
0.676717 -0.680937 1.86747 89 139 129
-4.15135 -3.08749 8.723 86 120 113
-0.173563 -1.08646 3.04631 151 196 187
0.545535 -0.739342 2.04812 96 122 122
-1.13303 -1.50857 4.31184 144 217 171
-0.259443 -1.10953 3.1658 145 207 185
-0.0459632 -1.00853 2.86225 163 199 187
0.755811 -0.6349 1.75931 107 147 152
0.574189 -0.71379 2.00997 94 150 137
-7.98432 -4.90284 14.1794 101 141 129
-0.128629 -1.03649 2.97691 64 91 75
-0.246382 -1.09223 3.14232 83 114 99
0.00924399 -0.96512 2.7839 139 197 186
-0.0910608 -1.00579 2.92102 100 136 119
-0.934354 -1.382 4.05194 38 53 32
-0.021732 -0.972327 2.8314 134 175 167
0.492183 -0.735939 2.11913 128 180 163
-0.959461 -1.37892 4.0627 158 227 190
0.347311 -0.796479 2.3239 134 189 174
0.384807 -0.777449 2.26453 187 241 224
0.59008 -0.687983 1.99007 91 142 138
0.541603 -0.705751 2.05081 82 124 117
-0.557736 -1.18779 3.52156 46 82 66
-0.227772 -1.05399 3.11774 68 86 63
-0.83124 -1.31306 3.90802 39 86 60
-0.0917724 -0.98559 2.92227 172 223 216
-0.376648 -1.11251 3.31161 156 216 192
-0.0295768 -0.953592 2.83904 137 188 181
-0.0184244 -0.944934 2.82137 71 88 79
0.365373 -0.77403 2.29491 74 106 101
0.62867 -0.656359 1.93214 230 255 247
-0.10593 -0.976981 2.94089 171 212 207
0.33742 -0.779679 2.32824 62 96 89
-0.267301 -1.04713 3.16893 90 126 104
-0.0129373 -0.931919 2.80886 163 205 217
0.444083 -0.728477 2.17914 157 222 207
-0.881472 -1.30566 3.98735 29 86 71
-0.0105662 -0.923905 2.80917 111 135 133
-3.02364 -2.26962 6.96966 110 184 156
-0.836066 -1.2765 3.91982 54 74 51
0.34712 -0.763701 2.30968 86 119 112
0.651482 -0.636256 1.90069 86 141 122
-1.01678 -1.34801 4.15203 59 87 58
0.369461 -0.751594 2.28259 205 235 230
0.433885 -0.723792 2.1956 85 125 114
-0.304251 -1.03804 3.2117 158 251 222
0.317356 -0.768531 2.35325 68 103 89
0.328026 -0.763581 2.33787 81 112 103
0.574762 -0.659631 2.00201 103 162 142
-0.878395 -1.27998 3.97901 64 121 106
-0.710481 -1.20553 3.74714 132 227 193
-0.436103 -1.08506 3.39435 146 210 188
-0.051595 -0.917145 2.87204 119 156 164
0.198305 -0.809828 2.52 89 138 116
0.65185 -0.62197 1.90185 99 165 136
0.268206 -0.778616 2.42797 160 234 210
0.334278 -0.746374 2.32698 69 113 100
0.121226 -0.833734 2.61554 96 138 120
-0.606179 -1.14372 3.62614 155 218 192
-0.109163 -0.925355 2.93716 171 214 235
-0.897451 -1.2378 3.97732 80 122 105
-0.128795 -0.929835 2.96706 112 136 148
0.141446 -0.814101 2.58787 161 223 201
-0.398687 -1.03959 3.34069 169 233 197
0.282337 -0.753007 2.40121 152 219 216
-6.10057 -3.41991 11.1527 158 214 191
-0.112214 -0.913222 2.94386 90 112 117
0.133742 -0.811688 2.60382 53 70 66
0.190079 -0.790171 2.52894 102 147 128
-0.609787 -1.11774 3.63168 63 82 65
-0.538619 -1.08522 3.53009 61 78 69
-1.03278 -1.27603 4.16722 98 161 152
0.232278 -0.767627 2.47203 212 246 239
-1.06276 -1.28157 4.19196 178 234 213
-0.368041 -1.00982 3.2878 53 94 67
0.165895 -0.792006 2.56292 109 143 136
-0.606764 -1.09682 3.62014 85 127 116
-0.51444 -1.05978 3.49354 89 102 70
-1.11737 -1.28668 4.27018 253 255 255
-0.975598 -1.23663 4.08786 94 153 139
0.144323 -0.789849 2.584 81 115 98
0.660754 -0.583925 1.88335 124 175 155
-0.528539 -1.05282 3.50886 133 202 165
0.166856 -0.764023 2.55875 82 141 127
-0.541915 -1.04255 3.53032 78 113 93
0.637151 -0.581798 1.91545 81 132 98
-0.0133437 -0.824681 2.79854 68 125 100
0.559919 -0.604209 2.01331 91 132 117
0.600264 -0.590229 1.96288 85 135 117
-0.666485 -1.06374 3.69769 66 121 102
0.0916703 -0.774678 2.65952 159 217 206
0.436853 -0.641362 2.18637 102 154 144
0.660441 -0.559561 1.88674 83 129 107
-0.475981 -0.984145 3.43549 99 147 121
0.62645 -0.568148 1.93034 158 229 189
-0.852027 -1.10717 3.90485 150 221 178
-0.925586 -1.119 3.99084 61 118 93
-1.03189 -1.15313 4.14256 60 90 61
0.611082 -0.554605 1.94791 65 113 84
0.324951 -0.651185 2.33075 77 130 116
0.589622 -0.556644 1.97403 66 105 84
0.50117 -0.585676 2.09254 189 241 223
0.536469 -0.572457 2.04031 76 101 91
-6.73126 -3.2716 12.1335 167 243 211
-0.306673 -0.86385 3.19365 200 232 221
0.494987 -0.574871 2.09895 160 212 195
0.538417 -0.558837 2.03938 108 141 137
-0.664573 -0.975005 3.6867 106 159 146
0.571812 -0.539417 1.99698 72 116 99
-3.48978 -1.95651 7.57173 143 213 177
-3.79404 -2.04651 7.99142 93 130 92
-3.59816 -1.97037 7.71557 167 235 194
-0.800025 -0.99264 3.86512 175 225 215
-4.48272 -2.26185 8.9385 93 132 107
0.513022 -0.545226 2.0736 180 221 206
0.465699 -0.546997 2.13833 91 132 135
-3.94758 -1.99631 8.17981 152 242 207
0.498701 -0.528139 2.09297 78 125 109
0.514367 -0.516715 2.06258 196 237 230
-3.59474 -1.84474 7.69619 138 199 163
0.512398 -0.509919 2.07016 52 90 78
0.812441 -0.425241 1.68229 101 159 148
0.497418 -0.513693 2.09317 150 196 183
-3.43491 -1.74046 7.47263 154 228 198
0.162586 -0.594497 2.54293 103 153 143
-3.4667 -1.69778 7.5065 135 197 173
0.271423 -0.545463 2.39436 101 155 138
-3.40092 -1.61434 7.39662 88 108 79
-2.75018 -1.40571 6.49136 150 173 145
0.71773 -0.41437 1.80208 102 151 137
0.529834 -0.451269 2.03819 74 109 95
0.533529 -0.448478 2.03218 104 153 137
0.577619 -0.438265 1.98123 86 122 108
-0.0175649 -0.593731 2.7723 90 160 137
-0.392356 -0.688079 3.27626 91 129 111
-3.51452 -1.54845 7.51526 147 205 181
-0.000285462 -0.577165 2.74159 73 137 115
-0.437338 -0.686942 3.33104 74 98 86
-4.05436 -1.65649 8.2259 76 138 102
0.310096 -0.490076 2.33095 90 134 121
-4.3714 -1.74006 8.68762 159 221 199
-0.784962 -0.772766 3.79503 99 152 125
-0.457839 -0.686516 3.36195 155 210 201
-2.15897 -1.1315 5.68256 154 219 203
-0.472947 -0.685903 3.39001 94 131 111
-3.00632 -1.34763 6.81336 126 183 145
0.373582 -0.462303 2.24801 89 138 122
-4.3242 -1.65776 8.60195 76 122 100
-0.548676 -0.676915 3.48288 145 207 183
0.560576 -0.407061 1.99813 77 130 116
0.761779 -0.361585 1.74135 82 153 120
-4.26069 -1.61061 8.48247 176 237 223
-0.53231 -0.670507 3.45297 80 134 105
0.442995 -0.431467 2.1433 82 114 90
0.340339 -0.452387 2.28468 82 144 130
-4.28591 -1.60207 8.54393 168 220 202
-0.567634 -0.668997 3.50067 60 106 87
0.177365 -0.488881 2.50355 53 132 113
-3.6637 -1.43374 7.67619 173 223 211
-3.38866 -1.3532 7.30621 152 205 208
-2.3958 -1.11306 5.96863 58 94 78
-3.53464 -1.38537 7.52011 160 220 214
-0.724563 -0.68707 3.69551 72 111 95
0.410968 -0.423952 2.18973 62 111 91
-3.39793 -1.32938 7.32069 115 146 145
-0.710521 -0.677718 3.66559 139 215 183
-2.2068 -1.02487 5.70034 170 202 225
-0.70913 -0.668215 3.65517 76 119 98
-3.12898 -1.23442 6.93059 81 122 95
-2.66944 -1.1181 6.33666 159 223 204
-1.87164 -0.925047 5.23228 83 161 130
0.0930317 -0.476318 2.60752 92 137 128
-3.81594 -1.36755 7.85488 158 223 214
-1.93488 -0.93493 5.33122 66 101 81
-1.69469 -0.863902 4.98424 94 169 131
-1.98872 -0.928221 5.39885 77 117 92
-2.52705 -1.03654 6.12478 98 107 127
-1.77966 -0.871035 5.10589 98 149 122
-0.725129 -0.622597 3.66451 117 187 147
0.511205 -0.365022 2.04781 65 107 84
-2.85636 -1.08172 6.5587 150 217 214
0.418611 -0.378253 2.17253 45 74 58
-0.194436 -0.502567 2.9822 90 162 132
0.526841 -0.357848 2.03325 86 133 117
-3.60347 -1.22346 7.55515 159 212 198
-3.02823 -1.09948 6.79308 93 116 118
-0.403389 -0.545138 3.27182 70 119 91
-3.12523 -1.11637 6.91887 121 164 153
-2.80492 -1.04777 6.49136 103 117 153
0.368816 -0.383616 2.24154 136 197 171
-0.056165 -0.463844 2.78882 102 173 133
0.409371 -0.373444 2.18264 70 113 92
-0.0549282 -0.462844 2.79321 78 139 103
-3.88559 -1.23092 7.90942 139 203 167
-0.0816759 -0.455269 2.83261 97 162 141
-3.01799 -1.04278 6.75667 88 117 114
0.427519 -0.353991 2.15453 125 190 174
0.428609 -0.354864 2.15043 134 195 181
-1.86852 -0.801511 5.20468 90 127 101
0.284273 -0.375361 2.3473 82 126 113
0.392349 -0.35429 2.19758 87 125 113
-4.338 -1.26643 8.50789 86 137 99
-2.99804 -0.997511 6.72645 103 150 142
-1.92927 -0.783965 5.26777 129 214 170
0.0293537 -0.415208 2.67514 149 227 203
0.425794 -0.339503 2.15679 99 130 121
-3.53028 -1.0696 7.41643 86 120 89
-2.35184 -0.844262 5.84318 71 112 85
-3.43632 -1.02738 7.28288 95 119 101
-3.42014 -1.02708 7.25466 86 118 94
-2.32479 -0.821898 5.79706 96 151 136
-2.05583 -0.76047 5.42071 62 110 82
0.52366 -0.303547 2.03405 108 151 142
-1.52226 -0.642919 4.68282 32 70 48
0.438914 -0.31509 2.13454 58 85 75
-1.29219 -0.59459 4.33004 57 116 85
-1.24485 -0.574061 4.26877 28 78 54
-2.999 -0.883015 6.68977 83 134 114
-1.47514 -0.614836 4.60333 31 66 56
-3.13198 -0.880331 6.86671 95 137 126
-0.807157 -0.48813 3.71396 63 122 91
-0.289593 -0.41161 3.08331 163 231 206
-0.458139 -0.433432 3.29747 100 153 133
-1.42617 -0.576768 4.49015 180 243 204
0.460158 -0.283807 2.10943 92 148 137
0.432733 -0.283966 2.13912 78 111 97
-2.23363 -0.680961 5.61566 74 128 98
0.132659 -0.322744 2.52233 95 145 127
-1.53089 -0.550541 4.60131 78 135 102
-0.789025 -0.445828 3.68606 68 115 89
-1.54721 -0.548873 4.64623 76 139 97
-0.872614 -0.450794 3.76619 24 67 40
-2.48997 -0.687666 5.97227 92 159 128
-0.0119041 -0.33175 2.71148 50 70 51
0.276416 -0.291549 2.34119 178 226 220
0.0568503 -0.311241 2.60614 95 121 108
-2.22249 -0.620746 5.60113 131 208 171
0.0487584 -0.307847 2.61729 90 126 112
-2.5112 -0.646937 5.98997 97 156 112
0.493454 -0.249619 2.06106 108 174 155
-2.01657 -0.56658 5.31457 61 111 79
-1.87248 -0.523295 5.10035 120 195 163
-0.658303 -0.361598 3.52749 78 120 95
-2.02218 -0.513046 5.31206 129 187 146
0.352677 -0.239576 2.23206 72 115 104
-0.229854 -0.296863 2.98304 66 122 103
-2.03984 -0.488757 5.31688 140 208 173
0.0177056 -0.258601 2.66393 77 130 116
-2.12587 -0.487527 5.4315 142 218 176
-1.48895 -0.400845 4.58931 93 151 116
-0.651323 -0.315652 3.51126 70 130 99
0.530841 -0.194369 2.01101 76 141 125
-1.4077 -0.366847 4.48251 25 61 47
-1.4469 -0.363447 4.52389 150 234 199
-1.20437 -0.323804 4.09112 80 115 89
-0.640388 -0.279761 3.49441 63 116 102
-2.41617 -0.412172 5.78053 49 81 50
-1.50863 -0.334106 4.59549 36 97 83
-1.28308 -0.304336 4.19205 42 59 46
-2.54799 -0.423969 5.95992 78 151 101
-2.8772 -0.442751 6.3894 161 234 194
0.398488 -0.171112 2.16609 110 163 153
-1.66567 -0.316636 4.77716 187 249 219
-0.389089 -0.222987 3.16624 72 149 122
-3.62356 -0.45883 7.35042 72 129 98
-2.48297 -0.37108 5.8616 153 242 192
0.421549 -0.162154 2.13503 91 133 122
-2.98358 -0.402781 6.5096 143 221 197
-1.26886 -0.266861 4.16562 148 207 186
-2.65502 -0.364288 6.0701 154 230 196
-3.03291 -0.381935 6.58725 76 119 98
-0.970029 -0.228552 3.81701 77 104 94
0.0965028 -0.162819 2.54303 94 128 121
-3.02508 -0.354449 6.57784 139 223 195
-1.58204 -0.258055 4.65242 180 247 215
-1.72068 -0.234475 4.83845 150 237 201
-2.57297 -0.254021 5.96545 59 127 92
-2.54763 -0.214041 5.91232 85 119 95
-2.09007 -0.175275 5.32272 81 134 114
0.208123 -0.0972517 2.38793 41 94 74
0.193637 -0.0658664 2.39694 86 118 117
0.126054 -0.0465887 2.47569 95 148 135
-1.91513 -0.01846 5.04392 153 228 200
0.221283 -0.00616841 2.34629 64 94 75
0.210711 0.00306843 2.35881 77 128 114
0.269423 0.00738397 2.28922 86 140 127
0.110218 0.0700386 2.47108 86 110 98
0.199913 0.0750809 2.36241 63 137 103
-1.04469 0.156379 3.81244 151 240 191
-1.69499 0.208932 4.46684 55 85 60
-2.62847 0.315286 5.85228 161 234 202
-0.867522 0.180468 3.60363 70 143 97
-1.6654 0.260433 4.40629 83 119 95
-0.722576 0.236126 3.45904 84 133 125
0.0287012 0.200799 2.53764 105 163 145
-2.35864 0.492131 5.39026 151 199 175
-0.261256 0.250434 2.87736 73 113 95
-0.787079 0.376381 3.49632 80 128 100
-0.751208 0.375954 3.45017 69 113 90
-0.781808 0.421344 3.47714 99 141 134
-2.73796 0.914115 5.81496 123 189 160
-0.848708 0.594164 3.49765 51 79 66
-2.54075 1.0253 5.50921 129 179 167
-0.872611 0.635991 3.49674 86 121 117
-0.22584 -1.53783 3.1543 169 198 212
-0.207075 -1.5196 3.1284 182 215 231
-4.23201 -4.26466 8.89643 89 200 150
-4.63911 -4.51708 9.51239 115 207 166
0.370864 -1.09679 2.30362 123 154 155
0.398209 -1.0675 2.26175 150 203 190
-4.55138 -4.38288 9.39131 149 220 204
0.3863 -1.07457 2.2837 58 95 93
-5.64675 -5.06217 10.9195 52 103 69
-0.511529 -1.65962 3.56241 83 136 126
-5.71 -5.10304 11.0569 42 81 56
-8.11823 -6.55938 14.4965 40 86 64
-0.448601 -1.56441 3.46843 125 146 147
-8.03623 -6.44013 14.4371 94 118 108
-0.627888 -1.65456 3.72369 95 142 139
-0.110502 -1.31433 2.95341 98 140 122
-1.06467 -1.91655 4.35059 121 175 168
-0.65795 -1.66976 3.77502 99 120 121
-0.112177 -1.29486 2.96096 47 62 54
-0.167356 -1.31142 3.02443 40 51 41
-0.112512 -1.28749 2.96952 145 195 165
-0.83639 -1.71728 4.02428 91 129 107
-0.433982 -1.43503 3.38068 94 155 129
-0.219649 -1.30195 3.09516 94 155 127
0.666317 -0.800083 1.87634 123 182 162
-0.157242 -1.26371 3.02256 132 186 157
-0.470157 -1.41116 3.41696 67 115 97
0.42261 -0.923134 2.21809 95 150 157
0.672239 -0.784841 1.87459 79 131 121
-0.271423 -1.30333 3.17378 113 170 155
-2.09782 -2.34997 5.82192 108 155 147
-1.99869 -2.28074 5.66045 77 108 93
-0.281906 -1.29686 3.2109 152 217 195
-0.163882 -1.2211 3.03255 112 133 100
-0.627086 -1.43481 3.59514 130 197 166
-0.271154 -1.27112 3.19036 181 233 226
-0.25803 -1.2596 3.1709 64 84 71
-0.529599 -1.37817 3.48023 80 116 94
0.290684 -0.949452 2.40278 220 247 255
-0.409857 -1.31263 3.35052 33 70 54
-0.31412 -1.26914 3.23869 160 216 193
-0.272338 -1.2416 3.17812 156 227 187
0.0249991 -1.08742 2.77304 160 201 196
-0.937807 -1.56976 4.05397 44 71 31
-0.941051 -1.55319 4.0366 40 61 39
-0.362495 -1.27487 3.31614 147 202 183
-0.603202 -1.38231 3.60097 45 60 39
-0.424128 -1.30552 3.40011 175 244 224
-0.159926 -1.17168 3.04041 120 169 147
-0.134109 -1.14946 2.98943 128 183 166
-1.03124 -1.59367 4.17724 107 171 141
-0.532755 -1.32941 3.49875 61 92 59
-0.029546 -1.08288 2.84759 139 198 177
-0.445084 -1.27811 3.39081 51 89 67
-0.0716343 -1.08991 2.91027 110 140 127
-0.632578 -1.35864 3.64733 144 220 196
-1.22089 -1.65945 4.45839 206 245 224
0.0547324 -1.0195 2.72997 103 132 123
0.319808 -0.884849 2.36507 106 168 156
0.669261 -0.714987 1.88255 116 152 146
0.660286 -0.715639 1.89098 114 157 146
-1.25066 -1.65471 4.49214 61 82 60
0.557521 -0.760743 2.03137 76 125 117
-0.633313 -1.33677 3.6387 36 49 35
0.73787 -0.673616 1.78553 81 121 109
-0.578762 -1.31237 3.57659 39 84 57
0.00395545 -1.03026 2.79497 162 229 222
0.164312 -0.95094 2.58593 78 104 91
-0.511503 -1.27253 3.48755 67 98 71
-0.0134083 -1.03523 2.82495 63 87 79
-1.14633 -1.58245 4.34864 34 66 41
-0.370575 -1.20436 3.30852 157 218 192
-0.118983 -1.08489 2.97311 92 97 88
0.0992525 -0.980029 2.67433 139 189 185
-1.12117 -1.54804 4.28792 126 209 157
-0.484276 -1.25296 3.46104 27 50 35
-0.313376 -1.17426 3.23629 132 192 182
-0.134989 -1.08858 2.98667 124 168 162
0.569373 -0.742199 2.01295 100 121 112
-1.12698 -1.54914 4.29528 130 205 154
-0.459555 -1.2357 3.42007 152 247 210
0.0847975 -0.97129 2.67913 81 98 85
-1.07144 -1.51266 4.20979 148 242 195
0.0259771 -1.00186 2.76786 113 127 121
0.0532231 -0.987972 2.72895 72 93 84
0.13744 -0.943634 2.61536 109 159 147
0.523971 -0.754923 2.06835 161 214 201
-0.385959 -1.19395 3.33297 45 69 57
0.0427614 -0.987712 2.74261 120 158 146
0.10828 -0.95715 2.65823 105 152 144
0.150537 -0.938196 2.60384 71 127 108
-0.956599 -1.46021 4.09403 144 230 188
0.527718 -0.75393 2.07485 171 208 198
0.545828 -0.739309 2.0481 104 130 130
-0.246727 -1.11065 3.14042 128 177 163
-0.791992 -1.35025 3.83991 136 184 158
-0.476651 -1.2068 3.42484 60 96 74
-0.362302 -1.16473 3.302 40 77 57
-0.347971 -1.15483 3.28057 96 140 123
0.504384 -0.748695 2.10384 95 128 124
-0.53864 -1.23129 3.51448 59 109 79
-0.742283 -1.31907 3.78884 59 90 63
0.424504 -0.777202 2.20632 181 228 212
0.525608 -0.733766 2.07791 165 221 200
-0.79803 -1.33298 3.86126 57 85 55
-0.271419 -1.09565 3.17323 156 217 219
0.467445 -0.753285 2.15372 85 108 104
0.476066 -0.748514 2.1409 101 126 116
-0.981611 -1.40273 4.10031 179 235 216
0.412661 -0.773402 2.22369 55 90 76
-1.02955 -1.42608 4.16987 73 118 91
0.0208457 -0.955591 2.78005 145 202 199
0.39546 -0.780261 2.24816 163 216 203
-1.12972 -1.46098 4.27827 56 84 61
-0.237073 -1.06301 3.12213 129 183 166
0.0764799 -0.922199 2.68716 108 158 154
0.435181 -0.758672 2.19587 57 85 65
-1.15896 -1.46455 4.32372 157 225 184
-0.676806 -1.25303 3.7013 131 201 164
0.00872127 -0.952375 2.79179 84 101 92
0.346528 -0.796786 2.32067 115 174 160
0.589978 -0.68802 1.98986 91 142 138
-0.227982 -1.0538 3.11902 72 91 70
-0.165609 -1.02443 3.02633 129 176 167
-0.904124 -1.35802 4.02043 35 55 36
-0.833029 -1.31374 3.91636 73 133 109
0.0137503 -0.940941 2.77768 141 195 195
-0.0882881 -0.985141 2.91964 157 208 201
0.390111 -0.771202 2.26234 90 103 95
-0.837591 -1.30737 3.91956 130 224 177
-0.565416 -1.1854 3.53711 58 90 71
-0.0283877 -0.953454 2.84188 142 193 186
0.506924 -0.70995 2.09402 116 157 142
-0.0178574 -0.944849 2.82349 81 100 91
-0.373948 -1.10155 3.31318 66 86 57
-0.0861317 -0.968762 2.91806 81 111 98
-0.134741 -0.988264 2.9799 65 88 74
-0.106083 -0.97697 2.94335 162 203 196
0.337453 -0.779793 2.32671 69 102 95
0.501473 -0.707947 2.10503 161 227 216
-0.876323 -1.30547 3.9737 52 100 74
-0.346676 -1.08107 3.27705 121 163 138
0.466628 -0.718279 2.15296 96 132 120
0.494877 -0.704136 2.11293 80 120 115
-0.955383 -1.32948 4.07536 82 154 118
-0.266606 -1.03641 3.16684 151 232 207
0.236775 -0.81483 2.47204 84 121 105
0.673995 -0.626125 1.87234 102 151 143
-0.836162 -1.27673 3.92351 55 77 49
0.197409 -0.829539 2.52734 81 126 110
0.325376 -0.774675 2.34258 165 213 201
-0.898455 -1.29518 3.99873 183 237 230
-0.023089 -0.922228 2.82974 156 201 205
-0.288165 -1.03294 3.20037 135 217 198
0.57518 -0.659317 2.00402 104 169 148
0.329399 -0.763304 2.33942 102 134 123
-0.292374 -1.03331 3.21488 150 233 218
-5.29206 -3.16262 10.0437 84 105 97
-0.0916639 -0.929116 2.9143 78 88 76
-0.0548409 -0.915202 2.86894 133 179 187
-0.645806 -1.16086 3.66953 134 199 167
-0.601344 -1.14412 3.61668 153 221 198
0.0381564 -0.876747 2.74809 125 175 163
0.385442 -0.722657 2.25546 108 142 136
-2.97811 -2.14114 6.88314 56 78 60
-0.123327 -0.932866 2.96032 110 128 129
-0.0815889 -0.918221 2.90387 164 216 233
-0.539261 -1.09103 3.52777 70 86 75
-0.496673 -1.06931 3.46444 97 120 92
-0.851631 -1.20844 3.94284 59 92 77
0.096477 -0.825527 2.65404 114 145 130
-5.58696 -3.20419 10.5214 39 50 40
-5.25313 -3.04999 10.036 149 188 166
-0.500063 -1.06303 3.47551 255 247 198
0.0252837 -0.844942 2.74633 92 144 126
-0.865193 -1.20353 3.94707 68 104 98
-0.370072 -1.00912 3.31096 69 125 96
-5.87603 -3.27063 10.9111 44 62 55
-0.544563 -1.06792 3.52977 129 190 170
0.0714623 -0.816313 2.68527 85 124 109
0.661744 -0.58383 1.88584 96 145 129
-0.88022 -1.18809 3.96597 164 235 195
-7.34181 -3.81969 12.9084 152 200 171
-6.06675 -3.30777 11.1727 150 195 178
-0.236892 -0.9303 3.11162 103 130 150
-0.0383076 -0.852544 2.83728 86 129 102
-0.142973 -0.889996 2.97422 109 144 130
-0.682443 -1.09999 3.72189 86 126 121
0.753736 -0.544162 1.76838 86 129 114
-0.526744 -1.03168 3.51534 81 127 104
0.200284 -0.746803 2.5177 93 147 140
0.63715 -0.581842 1.91519 81 132 98
0.576172 -0.598942 1.99174 125 172 140
-0.557191 -1.03484 3.54686 196 248 218
0.666903 -0.561673 1.87378 99 152 132
0.516106 -0.612316 2.07742 165 226 206
-0.667835 -1.06836 3.70807 57 106 86
0.667656 -0.558064 1.87695 72 137 115
0.659346 -0.559289 1.88667 88 130 112
-1.01536 -1.16447 4.11142 113 179 150
0.436335 -0.628189 2.18706 108 160 143
0.501182 -0.607155 2.09736 72 128 115
-0.255053 -0.882539 3.12954 79 126 100
-6.84795 -3.3572 12.3352 77 124 102
-0.563804 -0.975982 3.55598 84 138 125
0.488366 -0.587189 2.11434 103 138 128
-0.839733 -1.05567 3.90213 37 53 35
-0.306619 -0.863778 3.19503 185 223 211
0.488916 -0.586743 2.11666 99 130 123
-0.660105 -0.985731 3.67387 145 237 202
-0.45335 -0.906181 3.40126 90 159 138
-0.309032 -0.863204 3.2111 190 242 219
0.539217 -0.558892 2.04314 107 151 145
-0.32749 -0.858917 3.21963 88 140 123
0.338285 -0.62797 2.3195 104 153 139
-0.699588 -0.982313 3.73037 75 121 99
-5.16788 -2.5594 9.90849 67 109 86
-0.798732 -1.00816 3.85387 146 194 170
0.571916 -0.539358 1.99721 72 116 99
-0.907516 -1.03706 3.98969 46 72 58
-0.833229 -1.01168 3.90321 59 96 70
-4.84222 -2.41408 9.4218 148 223 195
-0.816947 -1.00558 3.89136 58 97 75
0.498547 -0.550756 2.1052 60 89 80
0.502406 -0.5397 2.09249 96 120 112
-1.07386 -1.04851 4.20702 133 198 173
0.289899 -0.598308 2.38032 96 156 145
-3.94466 -1.97868 8.17117 130 226 186
-3.60264 -1.84679 7.71497 141 202 164
0.506769 -0.521693 2.08486 70 106 82
0.805225 -0.428675 1.69275 89 142 133
0.513934 -0.504239 2.06948 113 141 135
0.819374 -0.418832 1.67368 119 177 166
-1.0388 -0.977833 4.18328 99 141 130
-2.95366 -1.54858 6.7909 236 252 241
-1.06481 -0.963841 4.22609 106 148 171
0.293402 -0.549115 2.36538 155 220 205
-3.87445 -1.78588 8.0349 109 143 112
-3.83142 -1.73997 7.99068 137 216 177
0.505094 -0.473476 2.08161 94 158 136
-3.29125 -1.56689 7.22793 161 221 197
0.302625 -0.520306 2.3482 99 146 143
0.528037 -0.458682 2.03936 163 227 197
-3.84504 -1.69556 7.98346 68 110 79
-3.66161 -1.65144 7.74445 75 113 85
0.537082 -0.456584 2.03813 111 153 136
-3.4771 -1.57736 7.49699 147 225 201
0.000507743 -0.576828 2.74319 68 132 113
-2.74397 -1.32451 6.49816 95 120 100
-4.07 -1.65621 8.25564 53 111 83
-3.78 -1.58036 7.85424 63 105 70
-0.457469 -0.686245 3.36422 153 208 199
0.343766 -0.482233 2.28442 101 156 139
-3.87962 -1.57698 7.98922 136 214 177
-2.21698 -1.1392 5.75473 168 232 220
0.525852 -0.429803 2.03955 73 111 89
-4.38746 -1.71177 8.69507 130 176 154
-0.725003 -0.74042 3.71089 90 158 135
0.373384 -0.462591 2.24677 89 138 122
-0.0393086 -0.557947 2.79457 95 168 142
-0.515333 -0.66858 3.43747 127 198 172
-2.36935 -1.14343 5.94676 76 91 77
0.232565 -0.485815 2.43382 92 152 134
0.271975 -0.473225 2.37814 84 126 115
-4.30911 -1.61763 8.57807 179 233 220
0.323743 -0.457655 2.30962 85 138 125
-2.77015 -1.22088 6.48755 138 168 169
-1.88417 -0.99878 5.29133 85 141 130
-1.4104 -0.875464 4.61793 73 120 94
-0.780075 -0.724548 3.79261 75 133 108
-0.741468 -0.710205 3.71414 97 134 118
0.289386 -0.460822 2.35504 77 125 113
0.444585 -0.420395 2.1243 81 107 83
-3.70211 -1.45012 7.74787 169 226 217
0.518026 -0.406314 2.04901 84 123 115
-4.31621 -1.58241 8.55715 99 127 114
-2.24727 -1.07223 5.76037 82 107 93
0.438512 -0.418734 2.15013 56 64 54
-0.725782 -0.686727 3.7001 57 99 82
0.411479 -0.423766 2.1902 57 106 86
-2.53644 -1.11314 6.1593 151 200 186
-0.580124 -0.642154 3.50069 98 148 124
-3.64672 -1.36422 7.62729 154 206 199
0.550056 -0.381505 2.00569 108 140 129
-2.66122 -1.1177 6.3154 158 218 200
-1.63191 -0.873346 4.90651 104 163 132
0.231466 -0.44708 2.41966 83 134 114
0.799937 -0.32631 1.69345 87 147 129
-3.15462 -1.21328 6.9692 117 176 145
-4.37391 -1.47734 8.61529 77 126 110
-2.21432 -0.985032 5.71138 174 226 226
-2.40961 -1.02537 5.96848 101 114 116
-1.37275 -0.777015 4.506 151 211 181
0.342711 -0.41054 2.28151 78 140 126
0.414355 -0.39379 2.18921 44 69 49
-2.57375 -1.03737 6.17066 146 187 236
0.312999 -0.408883 2.31743 74 137 121
0.361299 -0.398536 2.25118 79 128 108
0.453129 -0.375373 2.12236 64 89 69
0.407709 -0.383094 2.18273 136 203 174
0.475301 -0.369127 2.10093 88 114 100
0.568614 -0.352205 1.98673 85 138 124
-2.44922 -0.980876 5.99917 70 124 111
0.434329 -0.375636 2.14885 45 66 51
-0.193519 -0.50224 2.98344 89 164 136
0.353764 -0.387176 2.25712 70 110 98
0.411032 -0.373077 2.18182 87 127 109
0.437874 -0.367987 2.13968 125 174 146
0.43779 -0.368424 2.13802 148 198 168
-2.99578 -1.07434 6.74622 184 216 245
0.485037 -0.355339 2.07804 126 202 178
0.790898 -0.29806 1.70068 78 133 116
-2.68136 -0.990871 6.31669 79 105 92
-2.23663 -0.892857 5.69454 90 147 114
-1.51682 -0.746379 4.69724 69 114 81
0.43786 -0.357134 2.14222 68 96 77
-0.0815256 -0.454686 2.83555 62 131 110
-4.1291 -1.2681 8.24284 137 225 202
-3.15656 -1.07344 6.93577 167 210 229
0.41671 -0.359007 2.16963 69 102 88
0.54575 -0.334621 2.00963 100 169 149
-3.7787 -1.18731 7.77321 144 220 186
0.427382 -0.354265 2.15338 118 180 166
-2.2464 -0.878859 5.7296 119 167 143
0.284846 -0.374653 2.34986 88 131 118
0.392546 -0.353581 2.20021 88 131 118
-3.61565 -1.12853 7.54511 177 220 241
0.036146 -0.4189 2.67268 49 126 98
-3.23417 -1.05053 7.03793 154 211 196
-2.99222 -0.997456 6.71487 99 147 141
-1.20645 -0.639245 4.21795 103 154 127
-3.79126 -1.13169 7.77663 188 224 248
-4.53893 -1.2672 8.77258 75 128 101
-3.53364 -1.06966 7.42509 97 120 98
-2.34731 -0.843242 5.83812 74 113 87
-0.367469 -0.478848 3.20596 58 141 119
0.389689 -0.340069 2.2005 79 118 103
-2.79727 -0.923548 6.43941 106 152 160
0.347059 -0.348866 2.26367 88 111 107
-2.42878 -0.847863 5.93658 93 171 147
0.0280204 -0.401141 2.66701 80 126 104
-3.4344 -1.02735 7.27955 89 115 97
-3.98664 -1.0958 8.0051 86 119 92
-3.08735 -0.942193 6.83802 72 105 84
-3.8096 -1.04782 7.76242 142 220 189
-1.12976 -0.552203 4.09207 65 123 94
0.426271 -0.310862 2.15224 125 169 156
-1.1024 -0.534718 4.05981 60 90 65
-1.38206 -0.574901 4.43654 55 76 54
-0.329031 -0.419099 3.14154 68 132 110
-0.275608 -0.407158 3.06389 79 133 110
-2.09581 -0.685724 5.433 52 116 81
-1.59256 -0.59164 4.70936 60 123 79
-1.87213 -0.633017 5.14378 54 96 89
-0.287264 -0.388868 3.06229 150 223 197
-2.36207 -0.690724 5.80032 84 151 112
-1.28038 -0.518088 4.29477 136 191 158
0.61775 -0.256129 1.90905 90 126 110
-1.53195 -0.550177 4.60502 84 144 110
-2.49461 -0.686978 5.98519 84 154 124
-2.16578 -0.62977 5.52747 141 239 195
0.284067 -0.286516 2.3287 76 100 82
-2.52483 -0.645739 6.01505 88 148 114
-0.0269402 -0.309783 2.73742 60 81 66
0.312901 -0.266201 2.28784 197 239 228
-2.17119 -0.572638 5.51028 61 98 66
-2.34212 -0.580646 5.75243 68 140 93
-0.0243686 -0.296074 2.7325 141 214 182
-2.00842 -0.520298 5.26917 123 218 167
-0.227563 -0.310868 2.98663 77 138 124
-2.25879 -0.536778 5.62876 127 219 168
-1.98148 -0.502205 5.2339 41 63 44
0.297963 -0.240126 2.28944 91 137 125
-1.02167 -0.371366 3.90325 85 134 102
-2.05328 -0.485701 5.35043 136 218 183
-1.90502 -0.467211 5.13827 41 53 41
-1.60315 -0.43497 4.67785 46 62 45
-2.26445 -0.498816 5.62041 41 71 46
-1.55467 -0.419595 4.64857 158 233 189
-2.23489 -0.474689 5.56933 218 255 241
0.0312894 -0.233289 2.63253 107 182 154
-1.20544 -0.322987 4.09598 75 115 90
-0.640447 -0.279325 3.49639 77 127 115
-1.65652 -0.36316 4.73473 67 117 83
0.592543 -0.151279 1.92821 107 169 153
-3.02437 -0.383383 6.57059 78 110 85
-0.731159 -0.224226 3.57756 101 169 146
-3.02631 -0.35325 6.56907 156 231 210
-2.135 -0.277535 5.40513 71 103 78
-1.81402 -0.249886 4.9693 67 118 98
-2.57179 -0.282823 5.93469 66 115 77
-1.72007 -0.235689 4.83168 145 235 192
0.520772 -0.125233 2.00935 100 145 136
-2.02366 -0.255107 5.24025 52 94 63
-2.56655 -0.256004 5.94939 60 114 85
-2.0985 -0.212985 5.32921 60 111 77
0.232823 -0.113392 2.36094 115 180 159
-1.46948 -0.139598 4.43396 73 111 93
-0.886994 -0.0506025 3.73308 167 235 210
-1.91534 -0.0181709 5.04529 153 228 200
-1.45394 -0.0228504 4.39349 49 57 50
0.203645 -0.0269314 2.37366 60 102 84
0.309289 -0.0284278 2.24858 55 110 83
-0.878587 0.0328022 3.6936 57 113 92
0.0896849 0.0116556 2.5114 85 139 116
-0.166383 0.0516025 2.81513 52 86 69
0.12636 0.0509583 2.45088 57 88 73
-0.269078 0.0871273 2.94614 114 151 143
0.11252 0.068437 2.46852 79 103 93
-1.74971 0.205745 4.54282 144 221 183
-1.39029 0.189655 4.17266 173 228 195
-2.62152 0.312204 5.83797 146 221 189
-0.896981 0.180718 3.66246 148 226 179
0.142404 0.114515 2.41718 78 126 102
-0.887255 0.200627 3.63015 46 89 56
-0.914818 0.227182 3.65912 104 165 139
-1.69282 0.291888 4.41897 45 86 58
-1.53356 0.355375 4.19426 40 68 38
-2.40258 0.488578 5.44221 52 65 49
-2.21162 0.475144 5.17902 130 168 156
-0.92711 0.368694 3.68672 93 117 135
-0.376359 0.299499 3.01093 87 136 122
-0.351759 0.305501 2.96656 132 175 164
-0.491278 0.339151 3.1398 117 170 157
-2.72041 0.74359 5.82714 90 116 100
-2.64679 0.762807 5.74376 111 143 162
-2.76911 0.920068 5.8756 122 187 162
-0.864489 0.544472 3.51396 139 213 165
-0.872876 0.63702 3.4989 92 127 123
-1.65573 0.973792 4.28959 88 141 108
-5.08976 -4.82201 10.1412 28 108 79
-12.5136 -9.91075 20.9215 168 242 224
-7.00526 -6.0626 12.8195 63 144 111
-4.44619 -4.35052 9.22171 50 77 57
0.393475 -1.06842 2.26702 155 214 194
-12.0414 -9.3844 20.2191 89 156 141
-6.48026 -5.54955 12.188 57 83 69
-0.451182 -1.57126 3.46442 102 128 140
-6.96138 -5.79577 12.8752 92 106 102
0.39683 -1.026 2.25557 108 163 148
-10.2615 -7.93481 17.675 66 92 86
-0.57171 -1.62889 3.65057 132 169 177
-0.652729 -1.66761 3.76429 90 111 109
-0.643363 -1.66167 3.73144 99 121 103
-9.49106 -7.265 16.4955 85 97 85
0.443704 -0.968081 2.18548 208 241 255
0.776975 -0.763293 1.72284 255 255 255
-0.116601 -1.27453 2.98648 24 32 25
-0.275937 -1.30012 3.17665 130 185 168
-0.454233 -1.36493 3.38296 132 215 183
-0.564433 -1.40099 3.51716 48 84 67
-0.512245 -1.37683 3.46737 149 233 204
-0.318718 -1.2732 3.24213 184 239 224
-0.24935 -1.23839 3.15181 124 173 145
-0.627158 -1.41017 3.60455 60 95 75
0.762089 -0.699925 1.74921 115 148 134
-0.351751 -1.28315 3.29274 100 124 116
-2.1057 -2.24335 5.82721 93 154 140
-0.8844 -1.53311 3.96617 44 52 35
-0.00692658 -1.07722 2.81054 136 202 191
-0.926893 -1.52078 4.04133 136 205 168
-1.07013 -1.57439 4.23755 136 223 185
0.101683 -0.998418 2.67435 150 210 216
-0.906178 -1.46977 4.02333 131 179 150
-0.270339 -1.15928 3.17342 158 217 209
-0.0399043 -1.04902 2.86455 67 88 80
-0.419659 -1.22273 3.375 49 76 56
-0.317915 -1.17095 3.23638 141 197 184
-1.05482 -1.50995 4.19649 134 220 166
-0.0836321 -1.04499 2.91129 71 82 74
0.086126 -0.971196 2.69256 74 101 91
0.579945 -0.731451 2.00429 71 84 82
-0.743488 -1.34847 3.78468 146 217 190
0.0936262 -0.954356 2.67449 101 124 120
-0.479388 -1.20713 3.42604 58 96 74
-0.182297 -1.0864 3.07561 136 184 172
-0.0715819 -1.02254 2.89668 157 205 211
-0.250718 -1.10716 3.14563 133 191 180
0.521935 -0.741954 2.08026 94 109 101
-0.495087 -1.20065 3.44367 52 93 66
-1.14579 -1.48473 4.32299 31 47 30
-0.160227 -1.04046 3.01164 74 77 62
-0.982419 -1.39304 4.09087 164 219 192
-0.112445 -1.01343 2.94807 144 204 193
-0.760146 -1.29274 3.80237 147 235 199
0.430407 -0.759161 2.19791 75 101 78
-0.072148 -0.980793 2.88982 156 213 204
-0.970586 -1.37555 4.0932 76 112 88
-0.25356 -1.06546 3.15119 167 227 216
-0.228636 -1.05219 3.1082 72 91 66
-3.19518 -2.37498 7.15913 98 130 125
0.42695 -0.742012 2.20145 163 224 198
0.631909 -0.653508 1.92676 237 251 247
-0.271707 -1.04903 3.18812 84 125 110
-0.0798237 -0.961381 2.9045 142 191 175
0.491957 -0.704399 2.11607 121 166 163
-0.118098 -0.959188 2.95418 156 213 212
0.207792 -0.813046 2.50379 86 131 112
-0.296228 -1.03299 3.20478 143 225 207
-0.141242 -0.961534 2.97865 82 89 76
3.18484e-05 -0.900829 2.79574 155 200 221
0.0028126 -0.900798 2.78958 152 201 227
0.156172 -0.836354 2.57156 76 136 118
-1.08623 -1.34614 4.22427 77 108 81
-0.603673 -1.1447 3.63069 160 223 191
0.309271 -0.758971 2.3642 62 99 91
0.138113 -0.821617 2.58867 84 120 98
-0.377887 -1.03715 3.30586 83 129 106
-0.172313 -0.946875 3.02621 139 191 203
-0.0368498 -0.896053 2.84369 80 98 81
-0.916581 -1.23935 4.01187 69 111 86
-0.605593 -1.11282 3.61872 67 91 73
-0.573951 -1.09711 3.57619 171 224 211
-4.96371 -2.92588 9.66191 44 51 36
-5.06245 -2.90199 9.79348 139 206 177
-0.236597 -0.930422 3.10615 99 131 150
-0.14344 -0.889809 2.98001 94 128 117
-0.500147 -1.02286 3.47548 177 223 204
