ply
format ascii 1.0
element vertex 571
property float x
property float y
property float z
property uchar blue
property uchar green
property uchar red
end_header
-0.836014 -0.265906 -2.65784 131 140 143
0.351495 -1.29539 3.93147 92 125 121
-0.373873 -0.843302 3.8798 71 88 91
1.79304 -0.714096 4.02074 188 217 222
1.6995 -0.517542 4.02946 167 213 237
0.334435 -0.106344 1.81118 79 111 94
0.723298 -0.0834632 1.97571 203 237 213
0.653957 0.88324 3.87692 164 214 196
-0.286323 -1.59164 3.85312 120 148 142
0.561121 -1.61786 3.96623 121 142 140
0.856232 -1.61894 4.01859 165 211 212
-0.0757759 -1.556 3.89882 233 254 251
-0.676972 -1.52173 3.83876 136 157 154
0.233465 -1.52381 3.85182 181 247 222
0.774515 -1.53878 3.99387 90 129 121
0.780452 -1.54166 4.01472 83 116 112
-0.2632 -1.47637 3.85355 103 134 131
0.498683 -1.5028 3.95627 129 190 176
0.154623 -1.45388 3.91097 96 109 111
0.143313 -1.4469 3.8998 199 225 219
0.11973 -1.3949 3.92786 95 126 119
0.701466 -1.38991 3.9625 173 210 202
0.683539 -1.36954 3.96772 188 240 217
0.646552 -1.2767 3.96145 162 203 195
0.449391 -1.2222 3.93602 143 198 181
0.7264 -1.09876 3.97082 160 201 196
0.717482 -1.09585 3.97143 182 228 229
0.680037 -1.05272 3.96482 159 212 202
0.819317 -0.974256 3.96702 120 135 131
0.114888 -0.898239 3.91219 96 119 114
-0.37371 -0.843405 3.87712 71 88 91
-0.229965 -0.778437 3.89964 109 123 119
1.10527 -0.751917 3.97568 174 211 209
-0.158407 -0.7331 3.88753 125 150 152
0.944502 -0.747175 3.96171 176 217 210
-0.280773 -0.703015 3.8925 86 106 111
1.79105 -0.719611 4.02289 94 128 128
1.66902 -0.558468 4.02131 75 112 92
-0.0652812 -0.504395 3.90491 137 172 175
1.69676 -0.515835 4.02229 167 213 237
0.996638 -0.38459 3.94235 95 135 124
1.17434 -0.368767 4.0022 62 85 81
-0.0360382 -0.30872 3.93478 93 105 109
-1.23874 -0.284706 3.77094 158 219 193
-1.26909 -0.275205 3.74382 65 101 87
1.59693 -0.2499 3.89844 43 68 54
1.57347 -0.239679 3.88082 64 74 68
2.12846 -0.230078 4.03717 129 130 134
-0.198843 -0.215189 3.93223 100 122 117
1.00154 -0.170282 3.94707 121 153 129
1.7526 -0.102787 3.88085 62 75 67
-1.69442 -0.0891059 3.93422 96 133 141
1.57239 0.0162134 3.84231 178 233 208
0.712364 0.0420175 3.96235 212 255 255
0.971466 0.0474921 3.98775 178 207 204
1.22003 0.0918595 3.79881 154 192 164
-1.25464 0.104314 3.97696 121 163 168
-0.338654 0.181626 3.98808 141 196 179
1.26353 0.194902 3.79569 121 159 131
-0.484842 0.207812 3.98904 112 168 157
0.921468 0.222814 3.98458 59 85 69
1.35193 0.300937 3.76241 131 176 143
-2.08479 0.339184 4.03227 109 141 122
0.409341 0.599525 4.01859 184 220 226
1.32055 0.593949 3.69126 193 248 215
-2.26637 0.744094 3.96493 61 92 83
0.63724 1.20158 4.12058 118 145 142
1.21213 -1.64714 4.04644 98 159 133
0.856047 -1.61766 4.01001 173 219 220
-0.234261 -1.55254 3.88155 99 131 126
0.776378 -1.53843 3.99073 83 110 101
0.111342 -1.45823 3.92216 106 144 138
1.11037 -1.47902 4.01618 195 235 230
0.188257 -1.41784 3.89318 149 166 157
1.36454 -1.39653 4.03352 178 226 220
0.683672 -1.36813 3.96598 190 232 214
0.237713 -1.33806 3.93959 133 154 156
0.615967 -1.32087 3.95674 126 155 160
1.27633 -1.32882 4.01106 137 173 167
1.32222 -1.31361 4.02437 221 248 244
0.633949 -1.28014 3.95723 83 100 96
1.45764 -1.14917 3.60832 91 131 103
0.46035 -1.21526 3.94732 106 127 124
1.24511 -1.20994 4.00814 80 89 79
0.719048 -1.09594 3.97401 174 221 219
-0.489691 -1.04434 3.85043 74 88 77
-0.421199 -1.01958 3.82198 78 113 99
-0.0852799 -1.00352 3.88855 114 135 136
-0.502008 -0.970431 3.86502 98 141 128
-0.464268 -0.859766 3.86434 103 138 134
0.229177 -0.86543 3.90913 76 93 102
0.0719539 -0.8492 3.90913 113 150 146
-0.792933 -0.79935 3.84485 118 166 167
-0.229593 -0.77842 3.9002 94 108 102
0.963329 -0.77123 3.93699 168 205 203
1.05499 -0.768177 3.94852 167 187 174
-0.677503 -0.752392 3.86542 111 123 129
-0.245959 -0.735918 3.88363 117 144 140
1.61111 -0.657813 4.0098 123 144 141
-0.512439 -0.605183 3.88795 124 138 132
1.65209 -0.615381 4.01558 107 118 115
1.60295 -0.609285 4.03553 70 75 76
0.509508 -0.584696 3.94097 110 138 138
0.934432 -0.515641 3.95598 134 168 162
-0.17569 -0.51221 3.914 158 189 186
1.7393 -0.485055 4.03304 138 190 207
0.711984 -0.457861 3.97176 104 122 121
0.996927 -0.384269 3.94436 95 135 124
1.16665 -0.371989 3.99392 52 69 66
1.48359 -0.279218 3.89619 63 102 86
-1.29055 -0.252651 3.7705 60 84 60
1.56614 -0.251905 3.87541 163 206 185
-0.252199 -0.20779 3.93813 110 136 148
1.61503 -0.184427 3.90089 78 88 88
0.712527 -0.169043 3.86851 104 135 104
-1.74959 -0.158575 3.92369 171 223 229
0.558794 -0.147764 3.96053 153 161 161
-1.63899 -0.114162 3.92533 92 109 105
1.41635 -0.00710223 3.84351 159 219 185
1.57866 0.00765064 3.85387 67 100 93
0.708648 0.0235767 3.96625 149 200 186
0.706568 0.0239277 3.96729 189 227 221
0.971024 0.0478207 3.9889 194 223 220
-1.15183 0.0909096 3.97509 101 107 112
1.23118 0.094621 3.81104 131 177 148
-1.00604 0.106054 3.9593 146 172 178
0.484865 0.182238 4.01086 97 106 103
0.913106 0.223343 3.99804 115 159 136
0.766547 0.228051 3.98712 205 231 231
1.44811 0.301589 3.77792 177 234 209
-2.08453 0.338911 4.03142 109 141 122
-1.45485 0.346396 4.05293 114 144 149
1.25172 0.360703 3.78408 54 66 68
0.163687 0.411401 4.017 103 131 131
-0.774293 0.441805 4.03698 103 125 120
-1.01381 0.464403 4.03718 86 96 90
0.383459 0.468134 4.01505 108 128 133
0.762501 0.861641 3.84656 130 176 157
1.00586 0.89975 3.81973 161 222 178
-2.24911 0.958478 4.05045 175 205 186
-3.57172 -3.89795 -8.74166 165 228 196
1.41412 -1.5539 4.00664 153 201 159
0.183501 -1.50791 3.89162 71 80 70
0.894752 -1.54917 4.0081 111 158 155
0.262818 -1.46938 3.82823 114 138 130
0.141186 -1.48968 3.92691 170 210 209
0.514091 -1.46696 3.94615 68 73 71
0.808979 -1.48301 3.99278 101 127 127
-0.719114 -1.4091 3.82641 132 171 169
1.11147 -1.47937 4.019 193 233 228
0.501306 -1.4565 3.9687 99 146 138
-0.170375 -1.40158 3.87371 113 126 128
1.33921 -1.45534 4.02987 90 113 105
-0.213849 -1.39228 3.86718 106 132 126
0.12504 -1.39458 3.9302 114 148 141
0.704382 -1.4101 3.9629 95 119 109
0.393459 -1.39867 3.96118 86 113 110
0.297909 -1.36725 3.92026 99 100 104
0.252202 -1.36871 3.93712 99 108 111
0.406926 -1.36588 3.95552 100 108 107
0.68655 -1.36951 3.98067 161 200 175
1.15478 -1.37323 3.99891 203 227 227
1.21015 -1.36093 3.97988 123 158 144
1.16194 -1.33153 3.98982 83 96 88
1.32331 -1.33989 4.02322 152 181 172
1.27779 -1.32901 4.01307 138 171 167
0.7076 -1.30177 3.98087 168 202 195
-0.727932 -1.25378 3.83473 88 119 112
0.628125 -1.28632 3.95254 150 176 170
-0.700368 -1.23326 3.8339 87 114 110
0.831403 -1.22868 3.97351 124 145 142
1.21836 -1.2484 4.01898 77 89 89
0.460388 -1.21523 3.94666 97 119 114
1.24231 -1.21609 4.00945 95 107 95
0.601567 -1.17787 3.95307 85 142 134
0.489916 -1.17054 3.95043 98 166 155
0.913975 -1.17301 3.97191 121 164 153
1.22068 -1.17502 4.02252 167 221 208
1.13976 -1.12079 4.01341 89 103 91
0.717089 -1.09579 3.96889 182 228 229
1.13359 -1.08861 4.01513 114 181 154
0.682556 -1.03364 3.9577 84 118 112
-0.48914 -0.994071 3.85253 158 195 187
0.875996 -1.03132 3.97962 91 134 123
-0.506041 -0.988139 3.87855 195 230 226
-0.501249 -0.970454 3.86614 102 142 130
0.145518 -0.966627 3.91211 112 139 130
-0.138938 -0.957067 3.88579 144 185 177
2.42366 -1.00253 4.12959 137 196 176
0.813598 -0.949296 3.96739 162 209 201
1.27936 -0.953471 4.0102 131 163 168
-0.258104 -0.917092 3.87275 130 181 174
0.165027 -0.881504 3.8929 112 141 138
0.169064 -0.880498 3.92936 105 128 120
-0.00663225 -0.83398 3.88893 104 142 136
0.252712 -0.848798 3.94802 194 231 239
-0.43083 -0.825138 3.87328 104 122 115
0.338001 -0.838756 3.93278 101 133 132
1.25095 -0.855905 4.00524 127 158 155
0.0381454 -0.819452 3.87787 130 157 153
0.865659 -0.832581 3.96014 70 67 59
0.895504 -0.814155 3.99144 66 69 67
-0.352505 -0.771828 3.88144 88 101 93
-0.22916 -0.778019 3.90788 99 120 111
1.05165 -0.768431 3.94304 163 188 174
1.65299 -0.757819 3.97632 192 229 213
1.09695 -0.74882 3.97754 180 216 210
0.948347 -0.74684 3.96822 190 217 214
0.639724 -0.722108 3.96442 155 198 187
1.46423 -0.725422 4.0165 113 126 134
1.6576 -0.726041 3.99319 92 102 102
-0.545884 -0.693417 3.87741 104 119 121
1.36268 -0.698365 3.99263 145 182 216
1.79023 -0.702951 4.02341 120 150 139
1.15827 -0.677664 3.96708 97 114 110
-0.559249 -0.657821 3.88793 109 144 148
1.17997 -0.672313 3.98604 150 208 203
1.54053 -0.63994 4.01803 193 243 243
-0.512685 -0.604261 3.8784 121 139 132
1.19702 -0.615664 3.9791 93 127 110
1.64149 -0.614432 3.99638 114 130 123
-1.15555 -0.578843 3.84249 102 150 126
-1.08635 -0.568582 3.85445 117 136 133
0.503129 -0.581362 3.95333 99 127 127
0.388974 -0.574874 3.94518 98 146 140
1.17957 -0.574814 3.96959 70 89 80
0.933527 -0.51606 3.95252 136 170 164
1.12742 -0.494259 3.96542 88 113 109
1.73051 -0.481036 4.0448 189 231 236
1.74151 -0.484358 4.03849 151 204 224
-0.793684 -0.46051 3.90138 117 163 157
0.691475 -0.468758 3.97459 89 118 109
-0.890326 -0.452151 3.871 140 187 171
1.32725 -0.437274 3.99281 89 127 127
0.873232 -0.414121 3.96707 92 107 103
1.81949 -0.415833 4.02049 79 114 110
1.00618 -0.408591 3.97928 115 129 127
2.38991 -0.416049 4.03697 152 186 185
-1.36041 -0.372186 3.73989 177 244 223
-0.180101 -0.384585 3.92152 98 132 132
1.16387 -0.370906 3.99967 64 87 83
2.35344 -0.351906 4.04351 216 241 237
-1.75079 -0.330402 3.83027 88 80 67
-1.25172 -0.269139 3.76778 80 107 91
1.48301 -0.279199 3.89618 58 100 83
1.55477 -0.27119 3.8835 157 186 161
1.48271 -0.226457 3.8926 82 113 106
1.64994 -0.220831 3.90436 74 106 95
-0.200297 -0.213663 3.94091 130 154 152
-0.252431 -0.20864 3.93424 94 120 127
-1.26967 -0.189927 3.84601 129 211 176
1.61126 -0.193794 3.87054 57 74 65
2.35825 -0.194801 4.04786 111 141 130
1.31563 -0.175217 3.84991 19 42 34
0.705418 -0.16907 3.89373 46 53 38
1.78725 -0.162436 3.87248 72 98 85
1.7538 -0.158274 3.89378 89 107 90
-1.25893 -0.152736 3.90068 90 121 114
1.45032 -0.136226 3.86035 176 232 213
1.56862 -0.119393 3.81949 175 237 213
1.59291 -0.103917 3.85264 62 88 75
-1.29461 -0.105344 3.928 91 125 115
1.3435 -0.0890419 3.86191 69 87 80
1.39822 -0.0855777 3.8482 89 120 99
0.598839 -0.0736969 3.9568 165 188 184
1.41531 -0.0620109 3.82832 162 210 181
-1.4721 -0.0347587 3.9571 124 152 146
0.468222 -0.0146064 3.99566 168 178 196
0.986635 -0.00900793 3.99274 178 224 218
0.387483 -0.00125779 3.96906 129 141 151
1.17208 0.00993562 3.80197 74 87 79
0.720981 0.0178847 3.95335 86 136 112
-1.78077 0.0294619 3.96414 96 121 117
0.548147 0.0310563 3.98301 222 251 235
1.2012 0.0378328 3.79117 162 226 190
1.63219 0.035173 3.88806 30 44 40
1.17971 0.0689497 3.8222 91 119 96
0.642759 0.0903088 3.9962 67 94 85
-1.62528 0.11132 3.9953 112 140 140
-1.32971 0.120456 4.00057 154 181 185
0.914082 0.122314 3.99586 166 216 206
0.890191 0.148224 3.98385 97 117 112
0.884491 0.186608 3.99589 210 234 234
1.98642 0.183853 3.8349 44 42 41
0.832581 0.206723 4.00021 108 130 128
0.7791 0.208881 3.9895 54 105 78
1.17619 0.212518 3.77487 48 62 51
1.57799 0.280335 3.79535 55 60 51
-0.790865 0.303673 4.00088 134 168 157
1.46993 0.292326 3.76729 42 52 46
1.44853 0.301177 3.77681 182 236 213
-2.09022 0.342332 4.04171 102 144 126
1.40358 0.33043 3.78763 204 247 226
-0.983088 0.391241 4.03489 108 142 142
0.846365 0.381194 3.90102 98 126 113
-0.837926 0.395223 4.00589 110 144 137
0.0308077 0.394695 4.00832 106 168 150
1.30066 0.385734 3.75927 49 78 63
1.07401 0.41266 3.90055 40 60 37
0.0943835 0.43507 3.99187 132 174 173
-1.03546 0.438578 4.03586 104 129 131
0.291692 0.454421 4.03264 104 131 145
0.384007 0.471795 4.02504 120 142 148
0.941746 0.500745 3.85709 176 223 190
1.317 0.497723 3.7451 79 120 92
0.0424343 0.545948 4.01903 108 149 142
0.865114 0.566276 3.75987 144 172 152
0.435244 0.617771 4.04375 136 157 159
0.913016 0.590119 3.76878 88 107 82
1.34264 0.588032 3.72739 72 87 73
0.188169 0.661429 4.06896 144 166 164
-0.11373 0.678655 4.04839 89 125 131
0.841864 0.627861 3.74888 58 79 64
-0.951022 0.68697 4.07942 98 145 129
1.46926 0.616728 3.62842 52 60 43
1.34844 0.650766 3.71945 164 224 190
1.35266 0.656473 3.7323 166 213 181
0.387655 0.74179 4.04251 136 144 137
-0.321076 0.754843 4.08962 101 127 121
0.760464 0.749822 3.81624 188 222 205
0.603521 0.78287 3.88587 214 225 222
0.45698 0.943007 4.09323 157 194 208
1.12208 0.870694 3.73532 47 44 29
1.00802 0.903662 3.82761 148 194 152
0.475424 0.978467 4.09653 70 68 60
1.51831 1.06399 3.90701 51 61 45
-0.356932 -1.53102 3.85912 91 125 119
0.19557 -1.5571 3.9258 98 129 120
0.223327 -1.50529 3.85382 187 232 216
0.985108 -1.55712 4.00688 96 132 115
0.18341 -1.50953 3.90413 68 79 69
1.12846 -1.55022 4.01923 82 117 103
-0.685775 -1.46223 3.82395 122 159 151
0.505185 -1.49782 3.93166 93 134 119
0.507444 -1.50086 3.95581 88 126 114
1.35163 -1.51772 4.02721 86 96 90
0.159479 -1.47191 3.93934 88 92 87
0.190249 -1.45432 3.89622 176 203 199
0.353769 -1.45167 3.93915 110 125 128
0.503917 -1.4561 3.94866 121 148 138
1.10753 -1.47755 4.00421 173 220 218
1.13741 -1.46205 4.01669 125 148 144
-0.351951 -1.39896 3.86095 81 108 92
-0.160104 -1.39573 3.87534 94 114 115
1.00034 -1.44395 3.98815 120 163 154
0.256596 -1.39143 3.88958 151 175 163
0.249516 -1.3696 3.94769 121 136 139
0.182067 -1.35825 3.90982 93 103 97
0.250997 -1.3697 3.94829 106 119 121
0.691023 -1.36419 3.97696 141 167 153
0.731478 -1.35565 3.92754 58 67 57
0.0485443 -1.32379 3.91563 118 149 148
0.668771 -1.34119 3.97982 82 90 79
1.16778 -1.33307 4.00808 81 95 89
1.32353 -1.33972 4.02088 128 154 148
0.70427 -1.30085 3.96938 135 172 164
0.462614 -1.28448 3.95147 97 137 126
0.638143 -1.28924 3.99094 79 94 90
0.148354 -1.26375 3.90136 113 137 135
0.631568 -1.28739 3.96679 132 152 147
0.658217 -1.27476 3.94526 103 131 125
-0.354139 -1.21458 3.84582 126 172 159
0.458121 -1.21887 3.94386 97 114 105
0.260533 -1.13363 3.91691 107 161 156
0.544611 -1.1135 3.96228 94 121 118
0.891832 -1.12435 3.98806 122 153 146
0.130375 -1.00545 3.91127 107 138 135
-1.21828 -0.956145 3.79155 231 250 247
1.2816 -0.95357 4.01494 123 155 154
1.29386 -0.953454 4.03889 96 108 114
-0.446631 -0.903112 3.8602 105 152 143
0.791637 -0.912868 3.94662 92 110 97
0.119205 -0.895053 3.91875 99 125 119
0.794612 -0.912548 3.96145 82 105 91
-0.265151 -0.877677 3.87425 71 87 80
-0.0153271 -0.881816 3.90427 109 143 132
0.162395 -0.88111 3.92273 122 147 143
0.798513 -0.882995 3.95009 182 225 216
-0.441098 -0.856666 3.86439 100 134 127
0.887331 -0.843554 3.95498 168 211 202
-0.364342 -0.818741 3.89823 120 149 126
0.939363 -0.833041 3.95935 171 205 205
0.0323245 -0.816737 3.89177 124 172 160
-1.0882 -0.788688 3.81754 110 138 125
0.894905 -0.814546 3.98377 56 59 57
-0.424544 -0.775958 3.87398 108 140 135
1.78718 -0.798253 4.00852 96 135 127
0.867236 -0.784799 3.95947 171 215 209
1.65168 -0.757968 3.97372 192 229 213
0.526716 -0.745271 3.96371 102 148 142
1.09274 -0.747214 3.97135 174 210 204
0.631304 -0.739599 3.97962 99 138 123
1.03916 -0.736941 3.97255 178 216 204
1.1133 -0.731434 3.97503 85 105 86
0.533963 -0.719269 3.93774 104 127 123
-0.45025 -0.700239 3.87573 99 137 137
1.35256 -0.722329 4.01797 136 177 202
1.22725 -0.710076 3.99354 80 90 73
1.19107 -0.698221 4.01137 149 182 175
1.30676 -0.688616 4.00302 72 81 78
1.18131 -0.674822 3.99808 160 215 212
2.25834 -0.680321 4.04712 115 123 123
1.22434 -0.650939 3.94784 103 142 127
1.37625 -0.662765 4.01039 145 202 193
1.42559 -0.666021 4.01712 84 88 77
2.31642 -0.675364 4.0749 86 104 103
1.21192 -0.643469 3.98391 175 217 199
1.42009 -0.636871 4.0284 123 160 168
1.24476 -0.597592 3.97849 101 120 111
-0.518122 -0.581186 3.90002 89 109 104
1.14731 -0.594904 4.00113 70 118 106
-1.20131 -0.558527 3.87024 141 192 178
1.17938 -0.574307 3.97388 75 102 93
1.31809 -0.557851 3.99921 131 165 165
1.7879 -0.549168 4.03356 92 118 102
1.82202 -0.534099 4.00573 129 152 148
-1.16475 -0.508046 3.86568 59 101 83
1.13198 -0.492609 3.97863 109 132 127
1.71613 -0.504471 4.03685 112 132 133
1.63622 -0.455023 4.01838 76 106 95
1.38855 -0.43366 3.98571 201 233 232
1.82287 -0.422571 4.02185 93 136 123
0.870346 -0.401395 3.98705 148 171 167
1.16172 -0.372168 3.99166 62 88 82
-0.370097 -0.357268 3.91461 104 130 130
1.12938 -0.361236 3.97136 154 218 188
1.75852 -0.348995 4.00732 93 144 137
-1.87534 -0.327133 3.87759 100 134 133
1.14262 -0.330492 4.01374 68 96 90
-1.32981 -0.302351 3.72997 158 221 201
-0.98672 -0.31579 3.9028 112 149 133
0.554373 -0.301536 3.94467 95 126 117
0.557583 -0.291573 4.00019 69 101 82
1.52849 -0.264168 3.90162 61 80 59
1.58405 -0.263245 3.89147 116 142 126
1.76459 -0.269418 3.99677 113 163 153
2.27382 -0.254 4.02916 97 124 115
2.32145 -0.264988 4.04834 187 240 207
-0.0293716 -0.240796 3.94731 148 178 179
0.637368 -0.252161 3.96735 158 203 194
2.12711 -0.233341 4.03008 96 100 95
0.679081 -0.205934 3.88534 63 67 55
0.583563 -0.208428 3.99917 224 242 243
1.10344 -0.200219 3.9241 53 58 59
0.942158 -0.206029 3.97787 82 111 102
-1.18985 -0.181949 3.89465 105 137 126
1.81194 -0.164683 3.88284 182 227 201
-0.403348 -0.159576 3.92047 97 135 129
1.5008 -0.150365 3.85179 179 217 189
1.60295 -0.151425 3.8472 57 78 69
2.17278 -0.151193 4.04566 108 149 142
0.958577 -0.138245 3.95592 95 127 116
1.0043 -0.139414 3.9846 52 63 55
1.02079 -0.138306 3.95348 132 185 171
1.14248 -0.123291 3.91933 38 50 44
1.57193 -0.125624 3.83256 165 233 210
0.43867 -0.116759 3.91548 87 119 108
1.86914 -0.111296 3.9293 58 85 75
0.773769 -0.0905185 3.95772 158 211 202
1.43535 -0.0636335 3.82264 53 65 47
1.40644 -0.0601881 3.82651 139 183 154
0.643489 -0.0537098 3.94862 82 115 100
0.554006 -0.0441643 3.98271 187 222 212
0.816974 -0.0464478 3.9923 163 201 201
0.755129 -0.0271139 3.99127 58 101 80
0.180588 -0.0122476 3.9833 119 155 155
0.520946 -0.0150209 3.98637 99 128 125
0.618541 -0.0124142 3.9483 36 92 57
0.339444 -0.00372255 3.96449 129 128 137
1.83635 -0.000922021 3.90956 66 94 81
0.645209 0.00902714 3.97627 201 238 230
1.13905 0.00249866 3.8312 49 54 45
1.85535 0.00892902 3.91268 113 137 125
-1.37298 0.0418363 3.96629 106 129 121
-0.973344 0.0412315 3.95345 146 169 164
0.395758 0.0479872 3.98238 130 133 141
1.29539 0.0535168 3.79352 163 223 192
0.52196 0.0582004 3.98914 132 146 142
0.910879 0.0649851 3.99013 122 142 143
1.34482 0.0586243 3.80721 174 221 189
1.21337 0.063013 3.80385 76 85 64
1.22252 0.0953567 3.78204 115 161 138
-1.32406 0.12129 4.00512 150 181 180
0.554626 0.114077 3.95593 148 184 190
0.838 0.116736 3.989 82 90 83
1.63839 0.113308 3.83613 182 222 204
1.32236 0.112922 3.76335 146 219 187
1.25443 0.124068 3.80082 161 215 185
1.19822 0.1361 3.78578 179 230 203
-0.188346 0.148816 3.97541 102 182 151
0.395356 0.163286 3.98621 90 92 92
0.423448 0.159435 3.97558 210 234 226
0.493742 0.155995 3.96731 113 143 154
1.14022 0.160949 3.82757 78 92 80
1.372 0.161505 3.77246 128 166 136
1.42589 0.162378 3.78551 95 113 100
1.05322 0.169225 3.82052 138 176 154
1.21525 0.169948 3.8057 165 220 203
0.685994 0.194848 4.00151 88 130 119
1.17498 0.189999 3.77786 185 235 211
1.32667 0.190687 3.77063 32 41 31
1.68192 0.19723 3.77156 114 144 119
0.257801 0.219505 3.98966 120 145 147
0.577984 0.216922 4.01256 110 119 129
0.905252 0.209017 3.99018 78 89 81
0.908711 0.232151 3.98648 110 157 135
-1.32568 0.246837 4.00332 148 181 197
1.95397 0.230354 3.82391 104 123 102
1.15811 0.242657 3.78528 184 223 208
1.39232 0.242637 3.77611 43 60 47
1.53723 0.249529 3.77194 52 61 48
0.357344 0.290287 3.99206 131 142 146
0.365562 0.321866 4.01453 118 125 128
1.43981 0.29952 3.77191 164 220 197
0.91435 0.327527 3.97471 71 85 74
0.427603 0.338632 4.01284 112 122 122
1.50636 0.323325 3.77986 78 94 76
1.40819 0.336198 3.80393 179 230 202
-1.74563 0.363722 4.05099 100 123 139
-1.72397 0.360379 4.03706 105 140 144
1.33013 0.348692 3.78644 48 54 49
-2.09278 0.372505 4.03684 95 154 116
0.880426 0.353721 3.92224 104 118 107
1.24502 0.343028 3.77419 37 42 40
1.29002 0.374705 3.82166 173 216 195
0.186515 0.396933 4.01028 99 116 113
1.13954 0.377621 3.85052 52 75 71
1.22536 0.383462 3.77181 181 218 202
0.188076 0.408271 4.0429 106 120 116
1.38559 0.385528 3.73493 44 68 44
-0.825866 0.423973 4.04422 92 126 109
1.36734 0.407394 3.77064 49 56 41
1.31512 0.416216 3.80261 49 66 62
1.15932 0.425612 3.80957 78 99 96
0.996854 0.45363 3.85341 162 198 176
1.3876 0.445733 3.71754 159 200 162
-0.593334 0.497196 4.01064 101 160 146
1.40375 0.467628 3.71452 45 53 36
0.483113 0.526127 4.02397 190 227 225
0.557946 0.531191 4.02377 168 229 225
0.586234 0.533016 4.04322 128 188 178
1.35926 0.495728 3.75153 67 86 71
1.49936 0.497863 3.77191 53 70 56
1.2167 0.492528 3.70844 156 182 166
0.941587 0.518617 3.84143 72 106 89
0.459993 0.561312 4.06675 113 137 135
0.269687 0.573008 4.04518 104 109 108
0.455165 0.57286 4.02395 105 114 111
0.426349 0.588388 3.97008 179 213 212
0.432083 0.613728 4.03344 149 172 174
0.0906565 0.648636 4.06139 161 200 192
0.857542 0.607446 3.75292 136 179 152
0.37563 0.673983 4.02175 187 223 239
1.45591 0.609908 3.61693 52 63 43
1.32321 0.686617 3.74737 148 176 157
-0.137627 0.767572 4.07403 105 133 133
-0.728137 0.804236 4.10135 198 228 233
0.647523 0.75772 3.87582 94 97 88
0.36835 0.804684 4.03401 160 199 197
0.671321 0.768793 3.87101 164 198 187
0.603054 0.784196 3.8887 210 221 218
1.07705 0.867031 3.82567 67 80 56
0.408479 0.934292 4.07578 117 131 149
0.45058 0.947825 4.09722 184 218 231
-0.146636 0.958927 4.12305 105 122 118
0.202063 0.959863 4.10025 107 113 126
1.20211 0.884604 3.76375 169 211 180
0.717606 0.960432 3.86549 147 197 173
0.912932 0.966515 3.84799 26 26 20
0.875585 0.999002 3.85083 157 205 181
0.204154 1.10606 4.12775 125 155 174
