ply
format ascii 1.0
element vertex 1284
property float x
property float y
property float z
property uchar blue
property uchar green
property uchar red
end_header
1.12269 0.243967 3.55601 85 155 138
1.55252 0.241142 3.5282 66 119 105
1.66029 0.241682 3.52378 82 143 133
1.69118 0.241558 3.5227 81 130 122
1.77273 0.244901 3.51802 88 148 137
-1.66413 0.263304 3.78369 72 128 115
0.553738 0.249474 3.58639 54 112 88
0.0317181 0.25563 3.61057 177 229 222
0.41479 0.253729 3.57747 47 102 83
-1.9726 0.272008 3.82651 145 197 167
-1.63495 0.268586 3.78148 65 107 82
-1.56033 0.268239 3.77013 139 207 172
-0.900631 0.265144 3.70016 192 242 238
-1.96428 0.276901 3.8259 129 159 130
-1.77198 0.271311 3.77799 155 211 170
0.424941 0.259245 3.57708 68 154 120
0.504705 0.261735 3.57567 79 151 131
1.74953 0.257669 3.51633 104 163 149
-1.74601 0.279028 3.77754 193 247 212
0.853752 0.263224 3.57157 80 142 136
-0.747425 0.274188 3.68317 102 164 150
0.411142 0.267345 3.58099 65 120 105
0.786171 0.267487 3.56845 72 131 116
-2.04142 0.288583 3.84322 142 192 162
-1.99679 0.288187 3.83467 78 98 85
-1.5445 0.2886 3.77135 53 97 60
-1.53091 0.289974 3.7683 85 152 131
1.89742 0.268683 3.51361 77 137 127
-1.99305 0.295626 3.83535 132 174 156
-1.75429 0.29146 3.78938 55 83 77
0.856388 0.273154 3.56547 63 122 107
0.532097 0.279526 3.57996 61 141 124
0.438418 0.280179 3.58036 76 140 121
1.52982 0.279326 3.53762 68 110 93
0.499116 0.286927 3.58235 76 144 133
-2.01584 0.308516 3.83564 204 248 241
-1.73245 0.307387 3.78724 71 155 120
0.37171 0.291463 3.58325 93 149 138
1.05116 0.289134 3.55903 59 133 109
-0.131474 0.29909 3.62104 83 136 127
-2.01069 0.321399 3.83307 184 232 220
1.73761 0.299631 3.51739 89 163 139
-1.95203 0.329348 3.82181 97 124 115
-1.83658 0.330287 3.8096 74 139 118
0.878231 0.30727 3.56703 67 133 121
-1.63403 0.330773 3.77721 83 131 119
0.816036 0.312505 3.57311 76 137 117
2.1454 0.309677 3.50105 202 245 232
-1.7898 0.338213 3.79953 153 235 200
-1.89018 0.346112 3.80719 86 137 110
2.14577 0.317932 3.499 78 129 115
-1.93335 0.353429 3.82346 90 143 133
-1.92615 0.352688 3.82844 172 233 213
-1.82867 0.351109 3.80388 99 159 129
1.73676 0.32455 3.52708 89 149 131
-0.170976 0.339837 3.63189 92 159 150
-1.71837 0.356988 3.78847 88 148 130
-1.69599 0.357417 3.78152 202 240 234
-1.82411 0.369357 3.79987 89 150 114
0.822635 0.345449 3.5738 76 145 134
-0.866957 0.363104 3.69442 99 156 147
-0.153595 0.354954 3.62865 85 156 140
0.810965 0.353918 3.57416 51 134 109
1.12666 0.356649 3.56355 73 152 133
-1.8016 0.38338 3.79823 77 133 112
0.506043 0.364775 3.58447 57 128 111
1.83667 0.362016 3.52869 87 150 140
-2.08829 0.402905 3.84201 224 250 255
-1.73696 0.397331 3.78865 114 160 148
1.22137 0.378323 3.55938 70 139 136
-1.63408 0.402809 3.77677 101 175 147
0.280019 0.381792 3.59148 69 151 129
1.90376 0.377638 3.53 79 131 124
0.829738 0.38431 3.5746 78 137 122
-1.76284 0.412235 3.79404 109 156 140
0.778337 0.388097 3.57612 53 128 106
0.858728 0.389524 3.5725 52 113 93
1.27563 0.387429 3.56136 68 145 131
1.69597 0.384986 3.53772 87 152 136
-2.0773 0.422437 3.83628 104 113 123
0.41155 0.395129 3.58912 76 132 133
1.26709 0.396463 3.56076 71 133 119
1.4168 0.396552 3.55131 68 134 122
0.000357909 0.407312 3.61876 83 142 127
-2.09794 0.434027 3.83114 80 88 125
-0.557674 0.420623 3.66235 78 151 125
1.7314 0.406019 3.5337 192 250 232
0.320489 0.416895 3.59459 92 154 148
1.25083 0.412886 3.56462 95 159 153
0.88034 0.41767 3.57549 151 229 192
0.776226 0.420302 3.58029 132 214 192
1.94525 0.414886 3.53039 40 94 95
-0.373156 0.43301 3.64829 93 165 153
1.50157 0.421742 3.54804 66 132 121
1.92355 0.420801 3.53372 77 100 102
-2.34111 0.461227 3.86551 206 234 251
1.15114 0.424685 3.56561 92 150 139
0.0538223 0.433924 3.61388 84 144 120
1.04799 0.427641 3.5656 155 218 192
1.95392 0.423927 3.53594 58 120 108
-1.68482 0.456127 3.77707 94 131 123
0.579028 0.436141 3.58831 73 153 130
1.05158 0.43296 3.55939 77 120 93
-0.712037 0.451187 3.67588 80 150 137
0.83992 0.437588 3.57795 59 126 99
1.43977 0.438884 3.55183 81 143 129
0.855258 0.444022 3.57851 55 122 107
1.06533 0.444876 3.57003 71 133 109
1.80447 0.437789 3.53709 211 247 235
-1.00808 0.462581 3.70338 95 162 147
1.81691 0.444756 3.538 244 255 252
1.62937 0.447245 3.54536 49 121 108
-0.712673 0.466194 3.67656 86 147 137
0.765661 0.454489 3.58012 87 162 148
1.33447 0.453383 3.56157 53 122 112
1.53625 0.451571 3.55226 54 97 82
1.08377 0.456688 3.5685 64 125 97
1.71006 0.453053 3.54237 65 125 107
0.255805 0.462167 3.59828 73 126 116
1.89606 0.454915 3.54113 78 147 134
-1.7839 0.492333 3.79714 134 169 172
1.20374 0.462325 3.56483 83 150 135
1.39213 0.461937 3.56073 67 138 118
1.70442 0.461053 3.54045 57 140 115
1.44465 0.464494 3.55761 85 137 119
1.95819 0.460673 3.53621 64 120 109
-0.601369 0.485062 3.6688 77 134 113
0.692401 0.473694 3.59199 96 166 143
1.23259 0.471763 3.56818 93 146 137
1.04164 0.475908 3.57039 63 116 89
1.72182 0.47109 3.54011 217 255 247
1.0313 0.483062 3.57229 91 157 138
2.02356 0.476822 3.52524 129 193 171
2.01756 0.478908 3.53214 63 116 107
-1.68859 0.518897 3.77286 123 135 141
-0.0106215 0.497025 3.6248 104 161 160
0.259018 0.492141 3.59914 54 110 81
1.29637 0.489038 3.5643 67 138 121
1.83253 0.488256 3.53962 71 130 116
1.01455 0.496508 3.57619 75 145 122
1.39927 0.494231 3.55949 69 135 123
-0.725277 0.510512 3.67426 168 240 218
0.256854 0.498883 3.5945 64 119 102
1.88732 0.493979 3.53862 84 157 147
-0.325607 0.513363 3.64628 96 144 132
-0.715991 0.521666 3.67622 46 125 104
0.544193 0.510395 3.59039 83 155 125
0.567787 0.508721 3.58555 88 143 116
1.3473 0.507544 3.55894 78 150 128
0.405122 0.514276 3.60007 71 124 114
1.85998 0.510193 3.54432 87 137 127
-0.264823 0.527326 3.64207 105 164 150
1.08473 0.519909 3.57323 65 135 122
1.34961 0.517676 3.56574 71 142 125
1.58557 0.515884 3.55432 77 150 134
-0.504257 0.534366 3.66193 107 170 154
0.444387 0.529395 3.59858 85 159 133
0.914959 0.524508 3.57894 103 165 147
1.42569 0.525016 3.56103 94 148 135
1.15419 0.527102 3.57177 56 121 99
1.07807 0.531767 3.5707 91 149 148
-1.07011 0.55357 3.71212 77 151 133
-0.340246 0.544724 3.64548 90 147 132
0.41456 0.538987 3.59182 82 149 128
0.354518 0.543182 3.60186 85 151 140
0.00694259 0.544911 3.61981 73 134 120
1.06962 0.5389 3.56978 68 134 122
1.24677 0.539292 3.57346 197 245 233
-2.11583 0.586642 3.83931 177 226 204
0.0825211 0.548225 3.6107 61 119 95
-2.21848 0.586862 3.84201 91 82 108
-1.76654 0.577861 3.78269 102 104 112
1.57401 0.544211 3.55755 53 125 105
-1.77664 0.580781 3.77797 194 216 221
1.12352 0.55152 3.57696 62 141 128
0.0786203 0.558647 3.62139 79 141 135
0.252691 0.559769 3.60194 86 164 133
1.01574 0.557209 3.57494 82 153 127
1.90305 0.55239 3.54587 73 149 131
-2.13918 0.604403 3.84146 105 159 152
1.08585 0.562079 3.57427 73 136 126
1.85912 0.556564 3.54738 50 110 99
0.158746 0.573114 3.61432 79 142 133
1.2278 0.566887 3.5746 72 134 118
0.903257 0.572152 3.58074 106 168 162
1.42602 0.570286 3.56047 73 148 127
1.87868 0.572179 3.55062 78 134 121
-0.973963 0.599466 3.69232 80 150 119
1.03502 0.591785 3.58055 72 130 119
-2.1157 0.636053 3.83653 173 215 198
-0.0420223 0.598507 3.62005 98 163 142
-0.858763 0.611758 3.67635 174 241 212
-0.684597 0.610902 3.67126 93 150 141
-2.11849 0.644989 3.83605 113 135 123
-1.8943 0.641869 3.80725 103 163 157
1.74108 0.599296 3.55564 214 248 247
1.8767 0.599387 3.55138 56 119 110
1.30809 0.605633 3.57328 74 142 125
1.54015 0.603194 3.55827 66 125 110
-0.82458 0.627072 3.67712 105 153 129
1.47755 0.610144 3.56747 101 172 152
1.47709 0.609505 3.56604 99 171 151
-0.624789 0.631092 3.66178 76 133 112
1.96528 0.610095 3.54971 88 156 145
1.55341 0.616781 3.56156 82 136 131
-0.631643 0.637039 3.66351 177 238 224
-0.438444 0.635334 3.64904 90 137 121
1.62543 0.620833 3.55863 80 158 141
-0.897922 0.648052 3.68038 210 255 246
1.56366 0.627623 3.5644 67 117 105
-1.00029 0.649349 3.6954 91 155 125
1.5382 0.630073 3.56068 85 160 144
-0.893019 0.65593 3.68363 199 249 237
1.94128 0.633301 3.55127 93 154 140
1.56853 0.640098 3.56344 79 143 131
0.0177967 0.656137 3.62515 192 234 227
-2.07966 0.694713 3.8244 193 227 221
-2.07197 0.695552 3.82038 81 123 116
-2.03096 0.692162 3.81161 46 66 61
-0.623017 0.664506 3.66532 96 156 138
-2.04192 0.699476 3.82817 142 186 180
1.50612 0.652326 3.56136 94 151 136
1.67365 0.650672 3.563 82 153 133
-2.05951 0.701741 3.82481 87 117 112
0.192402 0.66299 3.60861 72 127 100
-1.50511 0.689034 3.74212 186 230 243
-0.136379 0.670134 3.6373 86 159 143
1.22192 0.66148 3.58091 80 151 135
-0.0453057 0.67432 3.6323 76 150 144
0.809409 0.664696 3.58264 79 136 128
-0.706188 0.683037 3.66378 87 146 118
-0.0385141 0.678492 3.62993 64 139 125
-0.765847 0.689926 3.67832 88 155 126
-2.03421 0.718254 3.81269 114 160 148
-0.00484851 0.683563 3.6315 55 151 134
-0.809019 0.697305 3.68025 95 175 138
-0.670138 0.692003 3.65981 101 168 147
1.12563 0.677818 3.58417 70 131 121
0.739452 0.683641 3.58715 101 155 148
-0.680931 0.700688 3.66459 188 232 233
1.34774 0.686895 3.57991 63 139 121
1.41814 0.686424 3.57207 93 155 141
-0.645042 0.706514 3.66825 70 126 113
1.53649 0.695509 3.56684 193 241 229
1.84367 0.698829 3.56033 65 128 119
-0.648659 0.720753 3.66163 78 162 128
1.26302 0.711596 3.5791 56 113 98
-1.08259 0.747092 3.70744 83 158 136
1.64407 0.718026 3.56538 81 152 135
1.85661 0.717637 3.56055 65 121 108
1.19189 0.723745 3.58087 78 140 134
1.19486 0.725745 3.58496 90 149 145
1.28708 0.727797 3.58398 73 141 124
1.87689 0.722572 3.55935 65 135 118
0.0309992 0.737588 3.63054 64 142 119
1.03168 0.728696 3.5868 69 140 120
2.20527 0.721087 3.54074 94 143 141
0.983365 0.732023 3.58818 78 143 122
-1.35838 0.766419 3.73279 81 99 86
0.165739 0.743342 3.61559 237 255 255
1.30426 0.739595 3.58125 93 161 150
-0.444617 0.755794 3.65472 179 243 221
0.169427 0.745397 3.60922 250 254 255
1.51971 0.739297 3.5747 69 144 116
-1.72879 0.786861 3.77381 90 133 136
0.956605 0.746387 3.58914 77 133 112
-1.31826 0.777743 3.72601 94 148 135
1.01922 0.757294 3.59155 72 146 122
0.0538964 0.765708 3.61774 134 240 199
-2.10777 0.810154 3.81771 248 255 255
0.440826 0.764249 3.60074 58 139 112
0.021443 0.773879 3.62901 73 149 131
1.27636 0.763815 3.58552 81 144 134
1.13692 0.768968 3.58916 83 139 134
1.15128 0.770006 3.58716 76 137 141
-1.88193 0.820994 3.80907 250 255 255
0.984977 0.773662 3.59079 63 127 108
-0.349407 0.789307 3.63983 54 129 107
0.0217871 0.794494 3.62447 106 147 132
1.08818 0.787054 3.59038 52 115 105
1.40338 0.785454 3.57914 78 142 130
-0.488133 0.801961 3.64911 166 232 221
1.06629 0.794881 3.59148 75 155 138
1.36518 0.796634 3.58079 69 135 124
-2.28853 0.857157 3.84523 255 254 254
0.120223 0.809009 3.61923 111 171 160
1.0818 0.807563 3.59434 84 144 138
-1.36144 0.842875 3.74438 87 128 107
-0.335765 0.823204 3.6413 101 157 138
-0.163283 0.821354 3.63476 103 177 159
0.0474434 0.822696 3.62987 66 123 102
-1.37471 0.856675 3.73961 113 162 142
1.55497 0.817835 3.5799 60 123 113
-1.30625 0.858164 3.72855 56 78 66
-1.04096 0.849346 3.69491 99 155 132
1.29723 0.825661 3.58904 80 152 140
-1.55455 0.866418 3.75855 90 113 109
-1.29235 0.860569 3.72347 74 114 103
-0.00380627 0.839616 3.62936 85 155 138
-1.04131 0.857701 3.69616 142 223 198
0.990422 0.837789 3.60108 82 147 132
-1.03549 0.860973 3.69616 66 129 103
0.440612 0.843828 3.60889 108 172 166
0.304578 0.84539 3.61397 89 157 140
-1.93597 0.89101 3.78664 225 255 255
0.721657 0.847538 3.59755 77 134 113
0.659405 0.851872 3.60578 78 142 123
0.830975 0.853086 3.59379 70 141 125
-0.0258225 0.86188 3.63052 93 154 134
-0.73404 0.873036 3.66091 138 230 195
-1.66531 0.91068 3.7552 226 255 255
0.10317 0.880534 3.62578 82 146 134
-1.74724 0.935445 3.76674 227 255 253
-0.709768 -1.62189 3.63449 105 152 136
0.686049 -1.51042 3.39627 175 237 197
-1.83399 -1.70738 3.84282 109 161 151
1.18471 -1.48961 3.35727 237 255 249
-0.178919 -1.56673 3.54184 77 114 94
1.16222 -1.47832 3.35253 73 94 91
0.722751 -1.49253 3.38607 201 255 230
1.02043 -1.48376 3.36315 228 246 245
0.143168 -1.53883 3.49854 82 133 119
0.774872 -1.48347 3.37353 118 145 111
-1.55953 -1.65998 3.78504 101 177 159
-0.328682 -1.5593 3.55874 84 138 108
1.14259 -1.46719 3.36073 218 236 235
-0.96485 -1.60051 3.67121 84 117 103
1.00211 -1.47512 3.37825 81 81 95
-0.592031 -1.5715 3.617 89 135 129
-0.638965 -1.56759 3.62475 80 138 127
1.02248 -1.4607 3.3755 210 238 239
-0.655208 -1.56515 3.62681 105 152 150
-0.736698 -1.56973 3.64428 67 113 100
-0.152313 -1.51823 3.5392 70 127 106
0.684997 -1.45447 3.38947 196 243 217
0.787149 -1.45146 3.38324 173 238 192
1.32903 -1.43585 3.34479 66 142 124
-1.02159 -1.57635 3.68605 68 124 111
0.650894 -1.45411 3.40358 184 254 217
0.7576 -1.44662 3.39431 78 113 99
0.715027 -1.44287 3.38954 185 255 215
0.723477 -1.4387 3.38681 102 149 133
-1.35354 -1.58969 3.74969 94 160 141
0.249318 -1.48327 3.49549 116 162 139
-0.142073 -1.49978 3.54104 75 129 100
-0.00201365 -1.48853 3.5207 81 131 121
0.194326 -1.47935 3.50373 124 164 139
-1.08893 -1.55704 3.7025 70 132 114
-0.829384 -1.54077 3.66087 82 128 129
0.767735 -1.42533 3.38755 59 82 67
-0.721605 -1.52596 3.63564 82 144 122
-0.291845 -1.49329 3.55664 148 228 199
-0.0418147 -1.47864 3.52216 97 153 148
-0.257577 -1.48887 3.55552 151 239 186
1.42269 -1.39863 3.34215 85 133 109
-0.245382 -1.48262 3.56325 98 135 109
0.074674 -1.46592 3.51693 94 157 141
0.990017 -1.41125 3.38506 133 135 145
-1.9231 -1.60207 3.85291 94 135 128
1.01141 -1.40824 3.39241 215 242 239
-0.351353 -1.48082 3.57221 62 105 78
0.995284 -1.40752 3.39962 118 114 133
1.44884 -1.38206 3.33697 69 92 87
1.45549 -1.37949 3.32935 191 231 220
-2.01853 -1.59607 3.86627 93 147 134
-2.13407 -1.60217 3.89447 93 157 145
-0.361707 -1.47317 3.5796 70 128 103
0.711459 -1.39935 3.41423 208 212 207
1.27845 -1.37871 3.36135 81 152 125
-0.952083 -1.49318 3.67015 95 162 131
0.709485 -1.39225 3.42503 65 76 73
0.754169 -1.38879 3.41113 168 213 187
0.764916 -1.38101 3.41232 83 85 109
0.832517 -1.38132 3.41753 195 196 186
0.836933 -1.37284 3.40381 101 99 88
0.757362 -1.37716 3.41705 156 209 200
0.934372 -1.37 3.40322 74 57 84
-1.34612 -1.50527 3.75049 89 157 140
0.839999 -1.37353 3.4104 122 138 127
0.893228 -1.36708 3.39857 80 89 98
0.322075 -1.3882 3.47897 82 135 102
0.918222 -1.35817 3.4033 124 149 175
-1.49976 -1.49851 3.77734 81 145 133
0.78395 -1.35993 3.42459 248 255 254
0.845389 -1.35742 3.41505 246 255 254
-0.555867 -1.43 3.61422 91 128 112
0.988146 -1.34211 3.40602 85 102 93
0.260991 -1.36327 3.48128 105 143 107
-0.322315 -1.39522 3.57649 65 94 71
0.0734966 -1.37292 3.51226 152 204 186
0.098836 -1.37408 3.52296 89 116 82
-0.915532 -1.43159 3.6765 102 164 146
-1.09252 -1.44652 3.71946 97 157 147
0.0883003 -1.37226 3.52485 52 74 46
-0.377201 -1.38749 3.58438 73 128 101
1.03522 -1.32202 3.40598 200 234 223
-0.771087 -1.41597 3.65672 118 172 155
0.31864 -1.3487 3.48512 102 165 139
0.254728 -1.34562 3.48446 80 124 93
0.883062 -1.31779 3.41509 161 222 202
1.52527 -1.29029 3.34838 206 244 226
-0.359554 -1.37554 3.58442 80 133 100
-0.33065 -1.37351 3.58302 69 130 110
0.344393 -1.33636 3.48571 88 164 133
0.895981 -1.31318 3.41838 87 113 107
0.0724307 -1.34877 3.51707 58 86 57
1.03708 -1.30346 3.40379 143 193 169
-0.508459 -1.37546 3.61988 75 142 127
-0.403352 -1.36964 3.59546 76 112 90
0.255745 -1.32796 3.49328 95 136 109
-0.867204 -1.38603 3.66603 96 135 120
1.09414 -1.28524 3.40069 86 148 126
0.372521 -1.31341 3.48217 72 135 115
-0.922603 -1.38284 3.66931 84 139 122
-0.311924 -1.34675 3.57334 72 90 73
0.246622 -1.31825 3.50407 255 255 255
0.281474 -1.30888 3.48144 136 224 188
-0.714976 -1.3638 3.64642 99 154 137
-0.626104 -1.3611 3.63791 151 219 194
0.253475 -1.30936 3.51133 72 121 101
0.87086 -1.26767 3.4277 96 151 134
-0.90841 -1.35182 3.67755 96 139 112
1.48715 -1.22755 3.36208 75 140 118
-0.316502 -1.30339 3.58148 93 146 119
0.258299 -1.26388 3.49135 218 255 251
0.059535 -1.26258 3.51037 67 90 75
-0.106579 -1.27693 3.5464 216 253 245
1.26817 -1.21817 3.39637 80 136 115
0.233438 -1.25556 3.51094 143 234 189
0.213515 -1.2447 3.50333 115 175 127
-0.74224 -1.29099 3.649 76 138 116
1.44302 -1.19505 3.37032 103 169 150
0.404035 -1.23439 3.49759 70 133 113
-2.40233 -1.38751 3.93719 102 159 150
0.190019 -1.23507 3.52367 45 87 70
-0.922359 -1.28517 3.67923 81 134 114
0.246716 -1.22789 3.50716 72 116 93
-0.901658 -1.27515 3.67037 52 96 83
0.129051 -1.23048 3.53806 57 78 56
-0.736704 -1.26668 3.65782 86 108 103
0.44994 -1.20047 3.47615 145 210 208
1.54526 -1.1632 3.36553 79 140 120
-1.03009 -1.27438 3.70063 76 150 132
1.07571 -1.17753 3.42173 92 147 130
-0.875822 -1.25829 3.67528 122 172 162
0.187 -1.20413 3.52948 97 151 128
0.887611 -1.17509 3.44118 78 128 110
1.31166 -1.15934 3.39768 83 155 133
-1.14413 -1.26522 3.72323 76 128 111
-0.296877 -1.22076 3.586 88 136 124
0.368762 -1.19165 3.49449 81 130 98
-0.883735 -1.24729 3.67511 168 240 218
-0.786213 -1.24291 3.663 95 147 137
-0.614682 -1.22959 3.63486 82 141 127
-0.368031 -1.2151 3.59349 72 120 94
0.0456205 -1.1905 3.53107 211 239 233
1.1093 -1.15323 3.42396 99 172 146
0.362678 -1.17405 3.48822 128 167 141
1.00735 -1.14974 3.43679 75 122 113
0.612893 -1.16134 3.47279 99 140 125
1.79894 -1.1182 3.33585 181 228 225
1.22805 -1.13395 3.41102 67 113 101
1.33784 -1.12303 3.40069 85 144 130
2.03429 -1.08901 3.30517 99 155 136
-0.525977 -1.19005 3.62188 85 146 118
0.493053 -1.14165 3.48573 89 153 131
-0.566134 -1.18209 3.62637 84 135 121
-0.297236 -1.1654 3.58584 81 143 119
0.0570063 -1.14435 3.54035 83 130 108
1.80877 -1.07666 3.34195 80 151 118
0.614109 -1.11877 3.47874 65 111 92
0.0901889 -1.13637 3.54356 58 109 82
1.57606 -1.08196 3.37037 77 131 118
1.21614 -1.09211 3.41785 64 110 97
0.922872 -1.09589 3.4493 231 250 241
0.903356 -1.0935 3.45525 82 134 110
0.6462 -1.09821 3.47533 160 234 210
0.919243 -1.08815 3.44686 135 152 149
1.26802 -1.07403 3.41249 79 137 126
0.920172 -1.07993 3.44846 197 234 214
-0.774132 -1.14032 3.66242 98 152 139
0.175657 -1.09366 3.52051 123 155 138
-0.610948 -1.12571 3.64651 70 120 110
-1.06131 -1.13171 3.70359 104 148 141
-0.558586 -1.10681 3.63144 197 235 235
-0.533998 -1.10322 3.61984 85 148 132
-0.0875009 -1.08374 3.56018 148 226 203
-0.533606 -1.10348 3.62987 84 146 132
0.456931 -1.06144 3.49551 56 101 85
1.30994 -1.03619 3.41199 88 141 131
-1.87624 -1.16737 3.85652 81 150 135
1.22189 -1.03336 3.41936 81 130 132
0.0887679 -1.06461 3.53904 82 135 121
0.655717 -1.05052 3.48234 103 147 124
0.954114 -1.00871 3.46196 105 162 137
1.86349 -0.973758 3.34527 104 158 158
-0.65242 -1.05313 3.64894 95 146 138
0.714623 -1.00312 3.47294 77 135 107
1.99642 -0.956047 3.33047 158 225 198
1.38597 -0.975192 3.41212 77 142 120
-0.853635 -1.04827 3.67801 74 115 110
1.51137 -0.963873 3.39615 93 156 136
0.373507 -0.993114 3.50911 84 125 110
1.22148 -0.967866 3.43348 65 120 117
0.310028 -0.987386 3.52501 88 127 112
0.68352 -0.973986 3.47411 161 225 203
0.71771 -0.972309 3.47121 250 255 255
-0.801046 -1.02354 3.67338 110 156 144
0.799633 -0.967647 3.47264 55 104 84
0.390686 -0.968163 3.50689 136 171 157
1.74229 -0.933009 3.36479 89 142 122
-0.804343 -1.0069 3.67567 81 134 124
1.87679 -0.917445 3.34792 86 137 129
0.372676 -0.947611 3.52316 99 142 121
0.724621 -0.944075 3.48587 111 163 140
0.822092 -0.934198 3.46659 173 238 206
-1.15018 -0.995519 3.72801 96 161 146
0.0683809 -0.948705 3.55989 100 131 116
-0.877031 -0.980359 3.68404 88 144 123
0.415713 -0.929218 3.49439 88 117 91
0.674815 -0.925021 3.49247 100 158 134
0.342498 -0.929278 3.52167 94 126 109
0.538867 -0.908895 3.47079 128 190 174
0.826047 -0.909407 3.48211 67 129 113
0.188811 -0.920832 3.55582 126 183 168
1.89381 -0.869684 3.36512 89 127 121
-0.886152 -0.948497 3.68648 86 139 126
0.730747 -0.897954 3.48676 111 173 155
0.294931 -0.901069 3.52722 103 135 124
0.0593948 -0.904793 3.55754 93 143 139
1.80161 -0.85157 3.37716 208 246 228
1.8053 -0.851728 3.37362 213 249 232
0.49037 -0.875917 3.50373 121 194 178
1.43433 -0.852084 3.42185 140 209 176
1.44352 -0.846153 3.40034 49 71 46
-0.840865 -0.908843 3.67807 104 158 151
0.486876 -0.870164 3.51489 124 199 178
0.34796 -0.866278 3.52038 110 137 121
1.42881 -0.841204 3.41886 52 96 73
1.49596 -0.839517 3.40555 51 98 66
1.01464 -0.85029 3.46509 128 189 169
1.54276 -0.833969 3.41014 77 137 103
1.79383 -0.827577 3.37948 64 105 90
0.986301 -0.848579 3.46693 156 217 203
1.61251 -0.829306 3.39414 65 104 96
0.41062 -0.854969 3.52023 109 140 125
0.994796 -0.840857 3.47239 89 133 120
0.0848298 -0.858359 3.56066 79 151 128
0.783915 -0.838802 3.49087 111 164 161
1.03206 -0.824183 3.46812 145 214 194
1.37499 -0.814881 3.43511 75 141 122
1.89248 -0.793171 3.36552 86 140 123
1.03751 -0.816229 3.47779 67 113 101
-0.880655 -0.858105 3.68392 102 165 149
0.217062 -0.821379 3.55116 64 100 83
1.57547 -0.794001 3.41505 72 132 98
0.470831 -0.81176 3.52785 80 124 107
-2.08149 -0.884634 3.87777 215 255 250
1.21959 -0.787293 3.4595 89 148 134
1.49068 -0.783823 3.41993 93 148 129
-1.14783 -0.848158 3.73361 219 255 249
0.196586 -0.802361 3.54262 110 165 146
1.37523 -0.771561 3.4355 70 126 103
0.192725 -0.787614 3.54983 92 127 113
0.906442 -0.771169 3.4875 63 100 90
1.39842 -0.754964 3.4402 89 150 124
0.329995 -0.770212 3.54238 96 141 132
0.234707 -0.767025 3.54392 117 177 169
0.840474 -0.72644 3.49234 92 158 133
1.00435 -0.719056 3.48311 104 161 146
1.0296 -0.71473 3.48095 50 109 95
1.21179 -0.702686 3.46773 92 154 136
1.33663 -0.701892 3.45385 71 124 110
0.832412 -0.700728 3.4988 96 153 138
-0.669744 -0.730175 3.66327 121 183 169
-1.99557 -0.767183 3.86011 253 255 255
-1.33601 -0.744782 3.76793 102 168 156
0.800839 -0.693097 3.50299 69 137 112
1.22522 -0.678183 3.46386 53 120 81
1.57024 -0.67745 3.43148 161 219 195
-2.00641 -0.756904 3.8675 62 110 128
-0.708942 -0.712205 3.66199 91 160 139
0.993411 -0.673009 3.48883 63 115 97
0.906086 -0.669645 3.49367 178 240 200
-0.311294 -0.68909 3.6108 106 175 160
1.20792 -0.662057 3.46544 77 134 113
-0.351267 -0.681857 3.61382 82 160 143
-0.507841 -0.677943 3.63799 89 169 134
-0.316769 -0.668399 3.60903 98 162 143
-0.746847 -0.676706 3.67469 83 132 112
1.2229 -0.626591 3.46958 94 144 132
-0.442007 -0.651249 3.62137 74 130 107
2.05963 -0.609897 3.38018 104 148 135
-0.0254531 -0.638495 3.57495 85 147 123
-0.111699 -0.636075 3.57753 79 127 101
-0.674027 -0.6432 3.66023 93 146 126
1.40901 -0.608449 3.45769 67 132 117
-0.329109 -0.630105 3.6072 69 133 103
1.0382 -0.610963 3.49139 76 132 121
1.91753 -0.589689 3.39999 95 153 129
-0.536394 -0.625573 3.6384 46 82 70
-0.175369 -0.614182 3.5842 60 95 69
-0.360542 -0.612298 3.61318 155 250 199
0.22917 -0.594429 3.54586 89 147 122
0.859105 -0.588596 3.50648 72 137 122
-0.628024 -0.606203 3.65531 102 133 126
0.958249 -0.580784 3.50776 123 181 163
-0.712916 -0.602376 3.65715 73 127 104
0.796883 -0.575493 3.50937 90 149 135
-0.462545 -0.577813 3.61865 37 73 49
-0.257372 -0.568591 3.60274 148 234 200
-1.21693 -0.580506 3.74092 84 152 141
-0.489031 -0.55003 3.62187 67 120 93
-0.353531 -0.547432 3.60467 60 118 93
-0.189212 -0.543305 3.57283 153 235 192
0.229425 -0.535759 3.54946 66 125 105
0.093571 -0.532996 3.5685 110 178 155
-0.167637 -0.523123 3.58328 33 88 61
-0.529523 -0.524429 3.62111 187 232 246
-0.241587 -0.519494 3.58354 141 240 190
-0.867334 -0.531158 3.68275 97 149 132
-0.178964 -0.514619 3.57712 147 237 201
0.940587 -0.503565 3.50334 72 134 110
-0.197714 -0.509848 3.57641 40 87 54
-0.0959462 -0.502341 3.55456 54 118 89
-1.91122 -0.539843 3.84351 101 149 137
1.69677 -0.480776 3.43958 181 228 226
0.4198 -0.480743 3.53986 78 140 122
0.7763 -0.47719 3.53075 63 93 74
-0.230911 -0.481113 3.60256 53 115 85
-0.555605 -0.482147 3.62009 30 96 55
1.01436 -0.462297 3.50316 62 143 118
-0.26851 -0.468817 3.60045 53 117 88
0.739295 -0.457481 3.5207 95 160 134
1.13693 -0.447589 3.49432 69 133 98
-0.176924 -0.459922 3.59238 46 111 86
0.694972 -0.449424 3.5211 65 136 110
-0.327067 -0.453074 3.60445 68 144 110
-0.31231 -0.452219 3.61563 57 119 101
-0.261164 -0.453168 3.60151 95 153 118
0.20788 -0.443152 3.5553 53 100 67
0.147924 -0.439068 3.5667 63 145 126
-0.571994 -0.441246 3.61774 76 134 116
1.41504 -0.424196 3.47381 93 139 126
-0.810397 -0.445704 3.67716 79 141 123
-0.280806 -0.434877 3.61482 37 94 61
0.438179 -0.430278 3.54386 115 177 159
0.00438532 -0.431572 3.57721 56 123 86
0.100451 -0.431717 3.57141 69 127 99
-0.397103 -0.42971 3.603 37 109 87
0.786005 -0.41631 3.52144 82 140 122
1.66936 -0.412839 3.45875 150 235 203
-0.705504 -0.433237 3.66716 139 179 137
-0.261003 -0.427034 3.60778 156 232 191
-0.634374 -0.41858 3.61971 75 115 97
-0.505508 -0.414477 3.59919 26 60 49
-0.227595 -0.420156 3.60607 44 74 49
1.11809 -0.408017 3.50263 76 133 108
-1.10297 -0.427477 3.71731 87 152 137
-0.778907 -0.422145 3.6777 82 129 113
-0.44893 -0.409688 3.5934 149 233 178
-0.334712 -0.412062 3.61326 67 158 119
1.15707 -0.39515 3.49726 72 123 96
-0.928053 -0.411456 3.68441 77 139 125
-0.555987 -0.405673 3.60761 64 109 112
-0.29521 -0.406369 3.60871 42 83 51
-0.724559 -0.406124 3.66345 159 225 184
-0.468009 -0.394905 3.58826 151 240 190
-0.354853 -0.398449 3.60177 27 111 83
1.64272 -0.379515 3.46414 65 120 101
-0.781153 -0.401171 3.67331 83 134 136
-0.62206 -0.394858 3.60902 179 238 217
-0.515224 -0.396459 3.59805 28 73 100
-0.319247 -0.395546 3.62385 125 228 177
-0.232059 -0.395279 3.60855 70 132 102
1.1718 -0.383427 3.50063 155 216 190
-0.139615 -0.386909 3.57454 164 245 200
-0.476011 -0.381297 3.5865 55 108 65
0.19241 -0.379709 3.55863 75 156 111
-0.627111 -0.380792 3.60134 66 99 72
-0.542936 -0.378921 3.6115 91 144 177
-0.460996 -0.377926 3.57658 141 225 166
1.48175 -0.357691 3.46154 135 209 175
1.53724 -0.357836 3.47275 65 113 101
-1.09208 -0.378377 3.72463 85 152 137
-1.04762 -0.37112 3.70328 69 144 116
1.13384 -0.351331 3.50435 56 111 86
1.7045 -0.34938 3.46269 72 122 112
-0.130957 -0.356074 3.58387 127 230 179
0.0665421 -0.3555 3.5692 170 255 214
-0.570943 -0.354126 3.60114 55 105 105
1.49369 -0.339086 3.48249 76 116 105
-1.02746 -0.355963 3.70349 81 150 137
-0.929021 -0.354474 3.69399 162 232 226
1.50918 -0.338383 3.48063 198 232 231
1.72645 -0.332742 3.45901 81 136 121
-0.503361 -0.344512 3.60832 135 233 181
-0.252201 -0.34696 3.60358 132 226 191
0.0691613 -0.341385 3.57054 157 250 205
1.08845 -0.335698 3.51104 37 81 64
-0.447193 -0.337585 3.58499 71 141 100
-0.749208 -0.343432 3.66624 148 212 193
-0.129451 -0.331401 3.58238 39 92 49
0.0547399 -0.331318 3.58108 108 166 148
0.0904374 -0.332098 3.56174 40 110 70
-0.489994 -0.333906 3.60284 157 243 183
-0.463297 -0.328587 3.58672 135 202 157
0.143589 -0.330246 3.57121 77 134 113
-2.1351 -0.352653 3.86585 83 117 106
0.272786 -0.325252 3.55817 83 169 129
-2.10371 -0.349621 3.85793 113 168 143
-0.727366 -0.329758 3.6654 144 218 170
-0.252418 -0.320834 3.59879 131 227 167
-0.300323 -0.318856 3.60519 69 156 106
-0.733284 -0.318409 3.66377 48 75 59
-0.50215 -0.316208 3.61125 49 93 80
-0.365247 -0.315939 3.6087 175 233 168
0.0731544 -0.311402 3.57395 57 121 91
-0.0686938 -0.309252 3.58144 52 127 89
1.71926 -0.300947 3.46591 87 129 112
1.05943 -0.301234 3.51548 162 242 199
1.77554 -0.29614 3.45758 77 126 118
-0.487903 -0.302694 3.59779 54 107 64
-0.466265 -0.30462 3.59536 33 81 53
-0.540072 -0.301025 3.60774 145 209 167
1.05243 -0.295207 3.51632 66 88 76
1.41892 -0.292113 3.48195 54 76 71
1.49184 -0.289812 3.48474 82 149 134
0.0140078 -0.289805 3.57388 66 134 111
0.869637 -0.284193 3.5343 168 245 201
1.08288 -0.282721 3.50882 153 235 193
1.40029 -0.280679 3.49049 94 127 113
-0.722607 -0.289342 3.67067 155 224 204
1.05028 -0.279726 3.5162 165 247 205
-0.758007 -0.288325 3.67249 148 216 191
-0.466705 -0.282508 3.59889 34 129 68
-0.251815 -0.284943 3.61792 30 86 51
0.335406 -0.279284 3.55764 70 144 120
0.8582 -0.276591 3.52484 56 116 76
1.10322 -0.2747 3.51591 70 122 99
1.74552 -0.27206 3.46749 73 123 113
-1.36472 -0.291111 3.75943 75 145 132
-0.212058 -0.275782 3.59619 83 179 125
0.0105416 -0.27851 3.5815 169 251 208
0.284224 -0.277232 3.55754 71 115 84
0.698542 -0.260857 3.54197 99 151 134
-1.77473 -0.276953 3.81561 100 137 135
-0.242823 -0.257683 3.61183 47 134 100
-1.75745 -0.269809 3.80446 58 98 86
-0.732097 -0.257167 3.66885 80 108 88
-1.65978 -0.261763 3.79154 89 149 143
-0.373307 -0.25302 3.62281 137 226 182
0.0611675 -0.247537 3.56837 155 243 203
-0.774239 -0.249304 3.67484 81 116 102
-0.393231 -0.245357 3.62277 127 213 203
0.673442 -0.236263 3.54903 84 153 133
-1.56868 -0.248916 3.78276 100 152 129
-1.69473 -0.24231 3.78229 95 141 99
-0.846928 -0.233928 3.68868 66 122 111
-0.396329 -0.232712 3.6352 86 137 129
0.457493 -0.221847 3.55456 71 134 118
0.0784796 -0.222872 3.5689 56 119 93
1.4294 -0.21574 3.50047 104 166 154
0.11872 -0.216573 3.56125 61 125 89
-0.703795 -0.218333 3.66847 86 135 107
-0.456371 -0.216841 3.60757 29 77 53
1.47448 -0.208385 3.49349 91 147 136
-1.74607 -0.224239 3.78946 63 96 61
0.615211 -0.199631 3.5522 85 144 129
-1.71633 -0.210281 3.78876 66 119 79
-1.61642 -0.212422 3.77777 88 138 104
-0.120802 -0.202266 3.58755 67 127 96
1.29636 -0.194795 3.50936 80 139 119
-0.464535 -0.197293 3.62538 41 67 53
0.0951032 -0.185938 3.57002 125 214 165
-1.70825 -0.190033 3.79097 40 84 55
-0.750726 -0.188191 3.66225 93 148 121
2.1287 -0.173451 3.44008 198 235 215
-0.722067 -0.179782 3.67929 66 107 79
-0.304248 -0.183493 3.62409 63 133 96
0.267413 -0.179692 3.55751 35 86 49
1.47078 -0.171481 3.50072 58 129 113
1.3066 -0.167406 3.50975 45 107 85
-1.40645 -0.17116 3.76034 71 118 102
0.163245 -0.159377 3.57469 61 107 88
1.26145 -0.157179 3.51397 58 107 87
1.59791 -0.157976 3.49373 94 144 132
2.12197 -0.154452 3.43863 89 150 130
1.89794 -0.151905 3.46776 89 151 135
-0.489577 -0.153129 3.6246 172 235 203
-0.129176 -0.155275 3.59835 34 89 62
-0.802224 -0.154862 3.68416 193 243 239
-0.684368 -0.151505 3.67313 85 128 115
1.18584 -0.146383 3.5184 95 153 135
-0.778478 -0.150093 3.68474 57 116 95
-0.702143 -0.148718 3.66851 66 111 94
1.43277 -0.138086 3.5012 244 255 255
-1.5401 -0.143465 3.77963 51 120 93
1.81083 -0.136012 3.47281 84 143 128
0.947905 -0.13314 3.5313 81 137 116
-0.658443 -0.13554 3.66463 149 220 200
-0.294784 -0.134978 3.61865 127 215 199
0.017507 -0.133072 3.56554 90 169 130
-1.39162 -0.134357 3.76767 103 155 138
-0.732845 -0.131979 3.67002 55 106 86
-0.695312 -0.131227 3.67708 62 106 77
-0.581835 -0.133155 3.64793 173 240 208
-0.101703 -0.128659 3.5988 55 111 82
1.95288 -0.125311 3.46022 74 127 118
-0.799181 -0.128456 3.68583 52 111 91
0.143558 -0.124226 3.5839 53 103 71
0.820845 -0.114045 3.55125 67 150 128
1.01682 -0.11465 3.53209 49 106 91
-0.0616106 -0.1165 3.59354 148 227 186
2.09939 -0.111876 3.45329 86 153 148
-1.46672 -0.113975 3.76577 91 154 122
-0.531927 -0.111807 3.64339 48 78 59
-0.523772 -0.107694 3.64241 139 196 163
-0.16176 -0.108467 3.60912 66 151 101
0.0246477 -0.108912 3.57929 155 239 204
0.18576 -0.107353 3.58125 64 152 116
-0.510518 -0.10869 3.64285 52 81 58
-0.482892 -0.105831 3.63599 154 240 216
1.87915 -0.099485 3.47027 69 124 85
-0.275284 -0.0947334 3.6177 148 237 194
0.904419 -0.0921879 3.54597 179 234 217
-0.14518 -0.0911206 3.61226 42 81 55
1.6598 -0.0796161 3.49488 92 154 140
-1.46718 -0.080365 3.76006 80 117 79
0.351348 -0.0680442 3.57458 78 150 128
1.09181 -0.0666624 3.52206 88 150 120
1.50061 -0.0674927 3.50733 78 147 134
1.97533 -0.0670312 3.46793 96 149 139
2.0273 -0.0667396 3.45457 117 180 171
-0.539734 -0.0632931 3.65335 85 126 98
-0.761021 -0.0624611 3.67857 70 126 115
0.405438 -0.0577506 3.5719 90 162 150
0.0915132 -0.0569932 3.59601 42 109 78
1.95089 -0.058941 3.47481 81 136 121
-2.39652 -0.0586599 3.89772 117 164 156
1.49411 -0.0546713 3.50767 78 120 103
1.52401 -0.0523736 3.50668 72 127 110
-0.412042 -0.0392012 3.63802 70 103 82
-0.530196 -0.0350725 3.65118 73 141 110
1.70201 -0.0343286 3.50107 79 147 130
-1.82642 -0.0275589 3.66386 151 211 163
1.26094 -0.0293482 3.52618 74 109 95
-0.366706 -0.0264828 3.63485 85 141 118
0.168242 -0.0188102 3.58574 55 118 98
1.93974 -0.0108128 3.48054 92 134 116
1.98443 -0.00756335 3.47189 173 225 208
-1.6985 -0.00512573 3.75517 81 114 99
0.141882 -0.00402988 3.5953 80 138 110
0.49923 -0.00549513 3.56728 64 131 116
-1.63775 -0.000375242 3.77226 82 134 171
-0.488684 0.0039253 3.64221 59 124 102
0.0492549 0.00361857 3.59456 90 148 107
-1.58535 0.00768214 3.75743 51 94 83
-0.0814612 0.00325831 3.61028 93 163 122
1.9622 0.00471783 3.47795 76 103 99
-0.134332 0.0101913 3.63516 67 144 106
-0.00413384 0.0136089 3.60741 79 139 108
1.50254 0.0135712 3.51548 93 151 140
1.56179 0.0149354 3.50388 74 130 119
-1.43763 0.0230061 3.76428 54 112 88
0.38746 0.0278174 3.56505 72 145 129
1.08166 0.0392352 3.54047 70 128 99
-1.60958 0.0420941 3.75034 84 135 98
-0.305524 0.0431982 3.63049 53 95 77
-1.84622 0.0521133 3.6644 81 113 88
-0.217037 0.055423 3.62624 91 139 110
-1.45215 0.0589021 3.76859 41 108 69
1.99685 0.0515539 3.48452 69 131 119
-0.49397 0.0637413 3.64971 79 126 100
-0.843694 0.0655389 3.69032 63 135 115
1.29848 0.0637354 3.53613 81 150 135
-2.21994 0.0752106 3.87678 167 231 212
2.00847 0.0685506 3.48222 74 124 114
-1.64817 0.0784568 3.77724 160 247 197
-1.54785 0.0799998 3.76786 158 247 198
-1.76588 0.0764023 3.65683 70 100 65
-0.188372 0.0814463 3.62732 94 159 134
-1.64978 0.0862088 3.76199 94 109 112
-2.19837 0.0895451 3.8602 108 134 118
1.98906 0.0820194 3.48304 86 155 140
-1.60409 0.0995811 3.76309 73 95 70
-0.245449 0.101547 3.62561 63 105 88
1.00821 0.0985897 3.55101 72 132 114
-1.58685 0.107687 3.7629 184 244 210
-2.07695 0.113104 3.84196 154 193 185
-1.62204 0.114872 3.78161 62 98 74
-0.162778 0.107257 3.62265 67 140 108
-2.12092 0.117577 3.85771 55 82 66
-0.528757 0.110464 3.65588 59 122 102
-0.49713 0.11227 3.65161 69 137 106
1.24596 0.113035 3.54098 49 123 99
-2.13146 0.129048 3.8567 92 149 140
-0.0833653 0.116003 3.61041 85 136 99
-2.14712 0.129646 3.85554 173 235 219
-2.11972 0.129947 3.85224 147 212 197
1.78782 0.120415 3.50831 69 135 116
2.05465 0.118861 3.48872 90 134 128
-1.86343 0.126151 3.63622 109 162 129
-2.07977 0.14127 3.8518 85 118 104
-1.80155 0.134645 3.67578 53 73 60
-2.15741 0.145909 3.86208 118 176 165
-0.34813 0.137151 3.63462 60 117 78
1.25464 0.133585 3.53958 50 105 78
-0.159874 0.139592 3.62171 66 125 110
-1.48377 0.15011 3.75637 72 157 113
-1.55643 0.153677 3.77285 65 96 89
-1.24199 0.155502 3.73798 81 138 130
-0.6295 0.152498 3.66771 107 180 158
-0.354272 0.153689 3.63536 81 131 107
-1.23172 0.165897 3.74503 98 156 145
1.67583 0.155647 3.517 47 90 77
1.875 0.156259 3.50259 91 159 142
1.09938 0.168405 3.55317 68 115 89
1.94731 0.183354 3.50821 154 211 202
-0.117173 0.189143 3.61703 59 120 86
1.09236 0.188518 3.55631 76 142 113
-0.512067 0.206271 3.65135 66 114 88
0.559538 0.219401 3.58322 85 143 125
0.58163 0.219498 3.57361 78 141 131
-2.07107 0.251913 3.85534 177 230 216
1.45 0.234844 3.5352 82 148 136
-2.06988 0.262767 3.85303 89 115 102
-1.50516 0.257185 3.77507 79 149 108
-0.220886 0.24864 3.62621 51 121 90
-2.31289 0.268072 3.87092 113 120 140
-1.59438 0.261583 3.77443 90 133 112
-0.30745 0.255746 3.63865 92 159 138
-2.06127 0.275121 3.84291 117 162 145
-1.68277 0.268315 3.78237 160 245 200
0.41463 0.25549 3.57849 50 110 86
-1.74283 0.272964 3.76371 131 182 148
1.26903 0.259772 3.54792 78 144 132
0.58447 0.262534 3.57406 83 150 123
1.55011 0.272702 3.53205 82 140 129
0.570098 0.279581 3.57263 203 246 233
1.4207 0.282224 3.53636 58 98 96
-2.01857 0.310195 3.84058 201 243 236
0.573161 0.297288 3.57201 75 149 119
2.15833 0.290156 3.49558 77 135 130
-1.94298 0.317718 3.80325 87 87 71
-0.967045 0.312336 3.7049 101 160 156
-2.00703 0.326541 3.82948 104 138 127
-1.93702 0.325635 3.82252 127 161 131
0.527267 0.30917 3.57719 63 142 123
1.74321 0.303714 3.52844 100 159 144
1.54664 0.307856 3.53678 108 163 154
1.73263 0.319539 3.52087 62 121 100
-0.569006 0.336848 3.66455 74 126 102
-1.82942 0.374213 3.80786 96 139 118
-2.07385 0.380679 3.82894 226 253 255
-1.80647 0.374967 3.79748 50 97 75
-2.08718 0.402583 3.84109 224 250 255
-1.61196 0.422142 3.77291 95 154 134
-1.2642 0.423414 3.73785 251 255 255
1.89573 0.402539 3.5334 84 145 135
0.827824 0.422924 3.57703 78 149 129
1.50182 0.422031 3.54876 66 132 121
0.0331563 0.434608 3.616 63 129 110
-0.239222 0.443856 3.63975 98 172 154
1.05167 0.434939 3.56736 69 112 91
0.264918 0.448568 3.59878 86 158 146
-1.21852 0.472874 3.7316 91 151 140
1.5542 0.457091 3.55018 50 99 85
-1.78246 0.490855 3.79339 131 163 168
1.52858 0.462637 3.54747 80 138 110
1.35615 0.471851 3.56028 109 172 156
0.243692 0.4882 3.60173 92 157 132
0.259337 0.497952 3.60203 60 113 93
1.88709 0.494074 3.53886 84 157 147
0.56781 0.509636 3.58774 85 146 112
-0.391195 0.524863 3.65157 84 149 134
1.24552 0.519738 3.56942 85 149 130
-0.363488 0.542978 3.64896 103 159 148
1.42851 0.529417 3.56709 88 144 131
-1.43628 0.56331 3.75389 106 148 160
-0.340069 0.544376 3.64465 90 147 132
-2.12459 0.579146 3.84312 115 158 147
1.90305 0.55239 3.54587 73 149 131
0.205253 0.574405 3.60955 82 146 134
-0.998944 0.594249 3.69503 71 127 92
1.35427 0.571612 3.56559 60 108 96
-1.00157 0.614996 3.69584 82 145 113
1.89204 0.592577 3.549 63 132 117
2.01 0.597755 3.53884 69 134 118
-2.11379 0.658928 3.83029 92 114 109
-0.80098 0.638899 3.67786 92 162 145
-2.10353 0.667963 3.82959 156 213 188
-2.05677 0.677237 3.82438 122 132 126
-2.08631 0.686126 3.82108 109 132 124
-1.86825 0.686354 3.79797 105 154 170
1.59878 0.63837 3.55439 86 151 129
-2.06802 0.69135 3.82727 136 189 175
1.38502 0.649159 3.57281 71 146 132
-2.0118 0.694373 3.81865 133 211 194
-1.51091 0.690508 3.75374 186 230 243
-0.0447577 0.66182 3.62517 60 130 113
-2.02997 0.705346 3.83017 112 140 147
-1.07182 0.682373 3.71548 108 161 141
-0.537432 0.675839 3.65582 103 172 151
-0.0407553 0.677435 3.63104 77 149 136
0.190706 0.672664 3.60731 92 132 114
0.371398 0.679425 3.60108 123 185 173
0.736956 0.676543 3.59078 94 138 131
-1.83487 0.722491 3.7709 134 183 199
-0.179918 0.710875 3.63801 85 156 140
0.064989 0.708945 3.62602 93 166 144
-0.688756 0.741803 3.66646 72 131 111
1.19233 0.724965 3.58538 78 140 134
-0.662268 0.741525 3.65619 53 119 100
0.975594 0.734329 3.58922 89 154 129
0.167791 0.745261 3.61259 251 255 255
-1.71814 0.796617 3.77197 74 74 88
-0.564387 0.77186 3.65453 64 144 121
-1.36005 0.842199 3.74175 87 128 107
-1.29719 0.84336 3.72643 101 141 140
0.0477831 0.821521 3.62752 73 133 109
-1.57213 0.854357 3.75317 87 91 116
-1.68044 0.86737 3.76953 112 146 169
0.957311 0.833345 3.59675 54 113 85
-0.81151 0.856447 3.67165 47 99 75
-1.91463 0.88556 3.78696 117 133 156
-1.42238 0.89242 3.74792 243 255 252
1.17864 -1.47992 3.35506 83 110 120
0.795721 -1.46879 3.36887 168 231 187
-0.168344 -1.54188 3.5441 83 131 105
1.25743 -1.45871 3.35282 180 239 219
1.06998 -1.4508 3.34653 120 136 149
0.80663 -1.4579 3.3661 164 231 186
-1.02311 -1.57725 3.69184 86 150 138
0.804831 -1.4514 3.38809 80 113 92
-0.88374 -1.56546 3.66421 65 116 108
-0.510274 -1.53547 3.59399 108 163 148
-0.458958 -1.53028 3.58379 60 105 88
-0.263482 -1.51236 3.53731 115 156 124
0.793264 -1.44163 3.38117 174 235 185
-0.922925 -1.56108 3.66268 134 184 166
-0.805858 -1.55378 3.65998 64 104 93
0.190016 -1.48137 3.50044 93 132 107
-0.433571 -1.5132 3.57939 84 141 120
0.103001 -1.48598 3.51377 83 136 116
-0.72045 -1.53118 3.63964 92 153 133
1.01456 -1.42262 3.38179 136 152 158
-0.181804 -1.48617 3.54525 76 123 101
-0.0380053 -1.48001 3.52531 106 163 162
1.4339 -1.3925 3.32929 159 229 198
-0.915114 -1.52833 3.66938 81 128 120
-0.244857 -1.48197 3.55847 83 122 97
-0.231424 -1.47931 3.56114 157 224 187
-0.870411 -1.51163 3.66953 135 190 175
-0.866591 -1.51288 3.6701 105 157 147
0.117833 -1.43938 3.48934 66 111 85
0.162539 -1.45043 3.51596 106 162 139
0.796456 -1.40576 3.39688 240 255 244
-0.790474 -1.49851 3.64279 102 158 139
-0.258576 -1.4649 3.5622 51 102 75
1.12569 -1.38665 3.3838 75 134 119
0.78435 -1.38636 3.39924 94 92 98
0.906299 -1.37849 3.39175 165 205 223
0.922047 -1.38599 3.40207 70 81 103
0.970524 -1.38654 3.40259 218 246 233
0.155564 -1.42751 3.52187 157 210 177
0.895076 -1.37288 3.4008 68 84 91
1.15145 -1.3672 3.38708 83 143 133
-0.486447 -1.44911 3.60537 88 144 131
-0.391583 -1.43807 3.58814 99 156 135
-0.722875 -1.44545 3.64535 96 146 136
-0.748755 -1.43976 3.65154 114 176 160
1.37898 -1.32436 3.35652 68 90 78
0.984859 -1.33231 3.41245 144 215 189
1.35371 -1.30583 3.35168 55 88 73
1.1865 -1.30699 3.38577 81 149 132
0.0729961 -1.34979 3.52744 43 74 53
-0.269552 -1.35578 3.57441 76 130 101
0.220367 -1.32319 3.4977 47 62 48
0.256057 -1.32956 3.5101 112 122 106
0.247551 -1.31875 3.50976 255 255 251
-0.263707 -1.34349 3.57342 58 109 82
0.224658 -1.31246 3.49757 140 187 148
0.253893 -1.30867 3.50371 48 87 66
0.0607419 -1.31076 3.53034 81 115 98
-0.524387 -1.33851 3.61963 85 130 111
0.221951 -1.29393 3.50078 53 105 58
-0.757656 -1.33734 3.64988 52 99 77
-0.730021 -1.33418 3.64563 59 123 81
-0.701972 -1.33481 3.64501 77 123 110
0.219041 -1.27561 3.50253 38 69 36
0.230254 -1.28175 3.50991 143 213 166
-0.905963 -1.32414 3.67124 68 100 81
-0.745528 -1.31308 3.65216 60 116 81
1.45744 -1.2109 3.36249 84 151 130
-0.784857 -1.31504 3.67655 81 119 101
-0.724706 -1.30409 3.64163 75 116 88
-0.773274 -1.29907 3.66374 56 95 70
0.100331 -1.25049 3.52341 59 83 59
0.178451 -1.25027 3.52125 140 227 183
0.213012 -1.2348 3.50442 67 108 80
0.405835 -1.23162 3.49593 90 153 133
0.137887 -1.23312 3.52346 47 53 36
-0.832747 -1.27338 3.66548 80 139 108
-1.15872 -1.28638 3.72462 255 255 255
-0.900649 -1.27483 3.66618 52 96 83
-0.0322258 -1.22439 3.54565 85 146 120
0.0614948 -1.22211 3.54158 94 155 141
0.450321 -1.20096 3.48441 186 236 242
0.322033 -1.20442 3.50547 68 139 113
-1.16655 -1.26544 3.73846 248 255 254
0.369259 -1.19175 3.49645 70 118 89
0.344336 -1.1783 3.49085 129 191 175
-0.600747 -1.21917 3.62951 77 125 113
1.33869 -1.14178 3.39884 77 132 115
-2.27329 -1.3078 3.91638 235 255 247
-0.959495 -1.2346 3.67984 61 113 89
0.351346 -1.17124 3.49543 59 80 65
1.79889 -1.11763 3.33834 177 218 210
-2.31054 -1.29855 3.91831 105 165 154
0.230288 -1.1609 3.51388 47 83 53
1.2387 -1.12898 3.41164 105 169 157
0.0744849 -1.16715 3.53326 105 130 120
1.05319 -1.12517 3.42339 92 156 126
-0.947816 -1.20545 3.69335 61 128 97
0.37722 -1.14055 3.49158 151 208 193
0.497496 -1.14062 3.4933 106 165 151
1.04988 -1.12202 3.42364 96 152 129
0.617336 -1.11864 3.48059 105 153 135
-0.853535 -1.17133 3.66359 171 238 223
0.92367 -1.09594 3.45121 232 253 244
0.156802 -1.0973 3.53308 56 80 56
0.470406 -1.08587 3.49305 77 128 108
1.14422 -1.0611 3.42766 53 107 102
-0.631438 -1.12401 3.64488 86 133 124
0.610887 -1.07218 3.48342 121 190 163
0.340126 -1.08074 3.51265 116 171 154
-0.53639 -1.10368 3.6293 80 145 130
0.0874464 -1.03435 3.52765 83 132 110
0.0901096 -1.03445 3.54191 74 114 89
-0.550007 -1.04681 3.63202 234 255 253
0.729849 -1.00211 3.4738 65 120 101
-0.219483 -1.02056 3.58224 255 254 255
0.309188 -0.998612 3.51616 160 215 206
0.392815 -0.998488 3.51649 121 174 165
1.99161 -0.945056 3.33648 78 115 111
0.712326 -0.966769 3.48668 56 86 75
-0.013591 -0.984159 3.56484 87 160 134
0.531026 -0.958514 3.4689 101 131 112
1.02688 -0.942468 3.45547 61 101 76
-0.880465 -0.998405 3.68304 103 152 136
-0.905609 -0.98786 3.68336 86 144 120
0.3622 -0.9432 3.52372 139 211 189
1.54746 -0.900883 3.39064 157 206 162
0.744289 -0.91933 3.4782 81 124 109
0.0942085 -0.933167 3.55651 66 82 65
0.827484 -0.909271 3.48718 68 131 115
0.0637976 -0.912058 3.55131 107 151 134
0.309553 -0.904401 3.53063 122 170 164
0.992727 -0.887135 3.46301 88 151 131
1.5583 -0.872438 3.39803 36 68 51
1.79898 -0.867803 3.36846 75 136 116
0.294081 -0.893758 3.51991 106 147 132
0.604724 -0.89395 3.49372 215 206 203
1.17969 -0.878118 3.4507 61 110 94
0.998919 -0.876859 3.4663 94 143 129
1.32251 -0.867387 3.43104 65 121 102
1.42845 -0.862328 3.41442 64 102 80
0.317165 -0.881756 3.5026 63 84 69
0.316551 -0.880668 3.53711 86 130 107
0.785935 -0.8676 3.49239 110 172 158
0.941477 -0.861629 3.48123 82 122 110
-0.114921 -0.883814 3.59025 58 129 119
0.979365 -0.849368 3.44975 176 229 216
1.4918 -0.840569 3.42014 60 106 84
0.317851 -0.860131 3.52869 147 204 195
1.57985 -0.822361 3.41043 58 87 84
-0.989508 -0.881822 3.70496 87 145 134
-0.858903 -0.867238 3.68453 83 143 133
0.568015 -0.825967 3.50563 46 91 75
0.252388 -0.826598 3.52275 152 221 184
0.983008 -0.815554 3.48141 59 91 80
0.366926 -0.817098 3.51995 53 82 59
0.972177 -0.808225 3.48241 69 91 79
0.962003 -0.802641 3.48015 77 93 75
-1.88245 -0.872708 3.8502 102 159 144
-1.92156 -0.871367 3.85449 79 128 120
0.935046 -0.788033 3.47892 65 94 85
0.728278 -0.785314 3.49356 80 149 136
-1.86611 -0.857932 3.84978 255 254 254
0.240579 -0.783786 3.54194 96 153 122
1.77644 -0.710636 3.39865 107 134 125
0.51247 -0.704662 3.52432 90 145 136
1.57064 -0.677467 3.43118 171 228 207
0.880525 -0.683451 3.49747 88 143 118
0.80834 -0.670294 3.4961 88 153 121
-0.636744 -0.694253 3.64936 70 134 99
-0.301909 -0.684691 3.61174 83 148 123
0.865777 -0.655714 3.49996 53 94 73
0.35483 -0.656995 3.53291 89 163 133
0.731193 -0.641653 3.51552 124 183 162
-2.35672 -0.714368 3.91952 95 165 152
-0.202865 -0.654742 3.60276 100 158 134
1.20828 -0.635506 3.48001 91 159 142
-0.630007 -0.66153 3.64896 71 117 111
-2.1073 -0.691325 3.87761 102 164 152
-0.704293 -0.655202 3.66627 101 153 143
1.91693 -0.589819 3.39891 91 145 122
-0.53487 -0.625517 3.63537 47 85 63
-0.12667 -0.611197 3.58339 123 196 164
0.19201 -0.589876 3.56866 77 141 119
1.82522 -0.558458 3.41152 84 140 105
-0.730592 -0.590287 3.66271 77 111 105
-0.360991 -0.580649 3.60916 50 93 72
-0.171604 -0.578933 3.58155 182 252 221
0.958721 -0.564644 3.49613 76 128 118
0.0541181 -0.562153 3.57234 56 110 93
-0.208246 -0.555739 3.59072 55 107 84
-0.520259 -0.545602 3.61205 126 181 164
0.229721 -0.535428 3.55198 64 127 107
0.900947 -0.529159 3.51421 89 148 128
-0.520383 -0.543377 3.62941 58 113 88
-0.248117 -0.528427 3.58677 18 87 50
0.963535 -0.510717 3.50877 80 150 119
-1.01937 -0.531599 3.70447 99 155 136
-0.363419 -0.522011 3.61456 42 75 54
0.825098 -0.501996 3.51341 110 168 139
-0.196924 -0.507454 3.57495 39 79 54
1.1098 -0.492033 3.49749 104 166 148
-0.183033 -0.497916 3.58628 132 228 187
-1.26111 -0.517452 3.75941 99 170 160
-0.456435 -0.500152 3.60795 34 92 63
-0.972966 -0.499756 3.70641 93 130 114
0.459272 -0.481705 3.54748 116 177 163
-0.577919 -0.488495 3.61194 72 115 88
-0.552528 -0.487634 3.61129 30 84 55
-0.780395 -0.468087 3.67105 94 143 135
-0.504468 -0.462996 3.61268 48 102 85
-0.0624473 -0.452246 3.55119 80 141 107
-0.262473 -0.459249 3.60909 163 231 190
-0.386442 -0.45266 3.60771 56 117 97
0.194884 -0.44974 3.56777 68 136 101
-0.742247 -0.450145 3.66236 75 114 88
-0.237569 -0.448712 3.59469 68 128 98
-0.0279355 -0.438068 3.56306 56 122 93
-0.284165 -0.441155 3.61962 42 78 54
0.0983697 -0.436551 3.5643 64 114 90
-0.743633 -0.448474 3.67341 64 102 74
-0.458692 -0.432361 3.57265 111 203 160
-0.027071 -0.437916 3.56392 73 140 111
0.114882 -0.434324 3.56309 64 127 87
0.16813 -0.433526 3.56111 105 178 140
1.34466 -0.423596 3.48018 53 114 100
-0.461372 -0.42918 3.5927 140 241 186
-0.439901 -0.423456 3.57375 87 147 107
-1.33626 -0.442754 3.75307 106 169 153
-0.554988 -0.420861 3.59046 43 75 64
0.784867 -0.41633 3.52147 88 147 132
-0.55899 -0.417311 3.61255 32 59 56
-0.311842 -0.417519 3.62431 153 228 196
0.0975956 -0.412592 3.57604 89 126 110
-0.76482 -0.413926 3.6729 109 183 171
-0.73821 -0.413577 3.66639 70 122 98
-0.720518 -0.409697 3.65152 109 166 133
-0.309437 -0.396915 3.63533 25 104 63
1.2366 -0.379582 3.49716 50 114 95
1.18146 -0.37441 3.49678 65 107 90
-0.626776 -0.381792 3.59559 71 97 73
0.98156 -0.372051 3.51461 89 157 134
-0.677657 -0.380388 3.64436 47 79 54
-0.607431 -0.372652 3.58589 130 173 164
-0.0012207 -0.376786 3.5697 48 102 65
1.18794 -0.367651 3.50264 72 145 123
-1.75342 -0.395573 3.80633 107 153 130
1.52355 -0.359557 3.47492 155 223 188
0.0973759 -0.365067 3.57847 66 131 106
-1.04536 -0.371877 3.69872 83 162 129
-0.780954 -0.360134 3.67244 78 129 115
-0.281272 -0.354472 3.61819 144 223 166
-0.540399 -0.345705 3.60186 91 124 140
1.26983 -0.331028 3.4885 116 175 161
-0.243154 -0.336349 3.61327 31 84 45
2.09285 -0.316883 3.42071 255 255 255
-0.0122373 -0.319181 3.5685 48 118 78
