ply
format ascii 1.0
element vertex 1290
property float x
property float y
property float z
property uchar blue
property uchar green
property uchar red
end_header
2.84928 -3.5967 -4.15199 182 200 207
2.82571 -3.60544 -4.15701 146 186 175
3.12444 -3.56171 -4.10553 90 116 122
2.78981 -3.6369 -4.18135 90 124 118
4.271 -3.43712 -3.92909 34 68 38
2.66099 -3.67958 -4.19493 140 192 182
2.79036 -3.68787 -4.1901 150 190 185
2.78734 -3.70296 -4.18559 127 179 161
2.85363 -3.70026 -4.17743 151 185 168
2.90485 -3.71313 -4.18243 69 90 82
2.89099 -3.7291 -4.18442 139 150 142
2.77295 -3.77539 -4.21604 157 206 186
2.731 -3.77045 -4.21414 150 184 173
3.54753 -3.64288 -4.06488 103 168 159
2.69038 -3.7807 -4.22049 135 173 155
2.30411 -3.86131 -4.30442 79 138 124
2.6727 -3.79317 -4.22655 144 192 180
2.88048 -3.76669 -4.19059 100 120 101
2.84232 -3.77882 -4.20507 172 200 207
2.73657 -3.80548 -4.22534 168 196 196
1.3303 -4.02969 -4.46912 156 176 177
2.83271 -3.80143 -4.20795 84 107 99
2.83023 -3.79753 -4.20453 92 113 105
2.33232 -3.89312 -4.29322 103 137 143
2.31909 -3.88797 -4.28967 96 122 134
1.48287 -4.04164 -4.4522 132 139 132
3.58128 -3.69606 -4.07487 104 153 139
2.88377 -3.81749 -4.19655 107 135 129
2.89383 -3.83133 -4.20864 116 150 143
2.79802 -3.85982 -4.23521 128 171 150
2.82398 -3.87936 -4.22539 117 151 134
1.77871 -4.09038 -4.44785 125 144 157
2.69419 -3.91116 -4.25495 187 213 213
2.85873 -3.89173 -4.2271 151 180 184
2.78539 -3.91773 -4.24848 82 107 97
2.7593 -3.91396 -4.24749 107 123 116
2.70088 -3.93002 -4.25953 97 114 110
2.75872 -3.92563 -4.24842 186 203 212
2.78625 -3.93448 -4.24744 99 113 107
2.71118 -3.95266 -4.26375 94 128 118
3.63017 -3.79531 -4.08902 90 124 124
3.52052 -3.82956 -4.11474 93 137 131
1.63826 -4.21442 -4.49024 97 118 96
2.54824 -4.05777 -4.32271 113 175 161
1.58062 -4.2331 -4.49804 96 120 118
0.794077 -4.42032 -4.6815 109 142 151
2.89801 -4.03474 -4.26291 120 164 147
1.62922 -4.25948 -4.49758 101 125 117
1.62947 -4.26083 -4.49874 101 125 117
1.68397 -4.35979 -4.52865 128 167 152
2.91732 -4.17626 -4.29579 141 188 179
2.85913 -4.2048 -4.31817 126 167 169
3.90164 -4.04793 -4.10855 111 165 152
3.96672 -4.05206 -4.09621 147 185 197
3.73303 -4.1479 -4.16021 102 168 157
4.05403 -4.13498 -4.08683 119 169 157
1.36249 -4.80682 -4.72656 123 168 159
4.12021 -4.17763 -4.10052 76 135 120
1.3135 -4.85957 -4.74735 128 145 142
1.48888 -4.8481 -4.71205 137 184 176
1.74473 -4.82286 -4.66318 121 153 152
4.46689 -4.22524 -4.0698 75 146 119
2.93423 -4.59337 -4.41383 116 163 160
4.50719 -4.23182 -4.06571 167 216 226
3.44298 -4.48518 -4.30252 121 166 163
1.01511 -5.21224 -4.91544 166 192 192
1.54253 -5.07797 -4.78372 108 159 155
1.83316 -5.021 -4.7193 77 131 118
0.87069 -5.29952 -4.9754 122 163 158
4.42105 -4.38681 -4.11413 123 185 161
1.72403 -5.08813 -4.75194 65 108 93
1.648 -5.14863 -4.80071 109 168 153
3.9895 -4.53283 -4.22579 103 168 159
1.67919 -5.1417 -4.78247 99 149 139
1.53469 -5.19905 -4.8321 113 162 154
1.83617 -5.12566 -4.73942 177 216 214
4.19486 -4.54117 -4.19526 214 236 224
1.80491 -5.15428 -4.75779 107 159 149
4.28087 -4.52637 -4.17384 100 168 143
4.37351 -4.5145 -4.15323 153 208 191
4.2047 -4.56896 -4.1984 89 153 134
3.11392 -4.83943 -4.44657 108 161 141
1.85011 -5.18811 -4.75548 100 141 136
1.42752 -5.31856 -4.8725 123 150 154
4.22586 -4.57628 -4.1936 52 108 79
1.77194 -5.24773 -4.80236 99 142 133
4.25461 -4.57305 -4.18449 147 209 179
2.04031 -5.18794 -4.73855 81 114 107
3.12426 -4.87539 -4.45424 91 135 104
2.36551 -5.10203 -4.65187 77 130 116
4.2468 -4.60998 -4.19862 55 115 81
4.231 -4.61469 -4.20207 69 131 101
3.20905 -4.90445 -4.45569 253 255 255
2.14887 -5.20326 -4.7237 62 109 100
4.25127 -4.6374 -4.21037 95 155 137
1.55778 -5.40202 -4.89504 110 172 160
1.95347 -5.26456 -4.76975 94 146 139
3.13444 -4.94304 -4.47835 82 118 106
1.72974 -5.35555 -4.84827 117 151 144
3.10802 -4.95806 -4.48962 88 141 121
3.148 -4.9249 -4.45486 75 120 93
1.66289 -5.36482 -4.84262 107 127 122
3.17627 -4.94588 -4.46353 111 133 128
3.12981 -4.97285 -4.48598 132 187 172
1.64426 -5.3936 -4.86298 111 128 125
4.52233 -4.62855 -4.16293 140 204 162
2.25984 -5.28351 -4.73484 94 152 127
1.62446 -5.45579 -4.88995 82 93 83
1.96374 -5.35329 -4.79388 112 143 134
4.23855 -4.73677 -4.24146 115 177 165
3.85374 -4.83348 -4.32627 116 163 154
4.4852 -4.67145 -4.17426 120 170 138
4.49737 -4.68274 -4.1826 103 147 111
4.23587 -4.75149 -4.24212 99 155 150
2.52446 -5.25687 -4.68679 106 175 154
2.43109 -5.27403 -4.6971 89 147 123
3.84679 -4.88268 -4.34721 75 108 93
2.96757 -5.12752 -4.55644 69 118 96
2.97478 -5.14645 -4.56591 141 192 172
2.44914 -5.30281 -4.7048 101 163 147
4.11132 -4.83719 -4.28758 75 118 97
2.49919 -5.30013 -4.6951 78 158 135
3.94042 -4.87461 -4.31546 60 89 74
3.83846 -4.9376 -4.36289 139 188 168
3.97868 -4.88567 -4.31504 131 196 175
3.01931 -5.16795 -4.56502 70 123 90
3.97755 -4.88254 -4.31276 130 199 179
3.06647 -5.14702 -4.5384 91 137 114
3.29019 -5.11177 -4.50619 119 170 166
4.20121 -4.83573 -4.26303 74 110 93
4.11454 -4.89469 -4.31292 100 132 113
3.98167 -4.90985 -4.32665 118 156 134
3.86909 -4.94339 -4.35764 117 141 123
3.79835 -4.96646 -4.37242 131 190 169
4.22567 -4.85083 -4.26608 69 123 106
3.8008 -4.98327 -4.38179 77 124 102
4.26514 -4.8762 -4.27503 71 114 99
4.22034 -4.86914 -4.26861 84 122 110
3.19496 -5.17425 -4.53547 227 240 248
3.17783 -5.19585 -4.54781 77 88 120
2.41963 -5.40521 -4.72908 62 94 83
4.2966 -4.87016 -4.26331 123 181 157
2.12839 -5.4766 -4.78954 121 167 155
3.24453 -5.19978 -4.54188 112 134 159
1.96619 -5.59539 -4.88642 98 141 132
4.24342 -4.8976 -4.27775 146 202 189
4.2552 -4.88983 -4.26659 62 105 78
3.20894 -5.21507 -4.54971 145 156 170
3.15956 -5.22206 -4.55703 161 202 241
2.4778 -5.44424 -4.74811 84 150 131
1.92489 -5.61651 -4.89711 83 133 123
4.0619 -4.96774 -4.33346 116 134 117
2.05513 -5.54544 -4.82439 71 98 82
1.08639 -5.94032 -5.16291 117 155 157
3.20843 -5.22537 -4.54636 104 128 150
3.0253 -5.29708 -4.60816 88 148 138
4.60415 -4.83528 -4.19973 96 163 126
1.94885 -5.6625 -4.90914 159 216 201
4.59459 -4.84731 -4.2021 99 155 120
4.24287 -4.94821 -4.28825 103 156 129
2.54833 -5.48072 -4.74664 76 136 112
2.36039 -5.54511 -4.79732 84 124 106
3.76476 -5.09009 -4.40442 122 173 165
2.3836 -5.5515 -4.80098 135 195 164
2.53243 -5.51358 -4.76129 90 151 131
1.96003 -5.68516 -4.90671 62 106 83
4.13782 -5.0174 -4.33169 63 86 58
4.13264 -5.03337 -4.33445 112 142 123
1.8662 -5.73675 -4.93567 96 132 126
4.14301 -5.04426 -4.3423 124 152 133
3.67647 -5.1662 -4.44696 215 237 243
4.52316 -4.92709 -4.24121 89 112 97
1.94652 -5.74564 -4.9355 104 139 142
3.88416 -5.1447 -4.4172 90 144 127
3.57444 -5.22744 -4.48428 110 150 149
3.67624 -5.19529 -4.45112 107 122 124
3.64533 -5.21475 -4.46742 162 196 196
2.59004 -5.57806 -4.77527 91 138 130
3.61549 -5.21367 -4.45665 154 198 192
4.23417 -5.02641 -4.29305 120 198 157
4.14114 -5.08862 -4.34852 106 134 121
3.92375 -5.15491 -4.40364 159 200 193
3.8058 -5.17731 -4.42399 189 216 220
3.78847 -5.20762 -4.44317 157 173 172
3.65898 -5.21019 -4.44606 147 202 183
3.62557 -5.22958 -4.46167 95 110 106
4.70248 -4.92411 -4.20109 62 104 69
3.81591 -5.20346 -4.43924 107 119 123
4.09451 -5.12947 -4.37133 109 134 114
3.79537 -5.21634 -4.44263 87 85 84
3.64579 -5.27411 -4.47965 144 179 182
4.00978 -5.18287 -4.39849 106 125 108
4.07895 -5.1591 -4.37723 52 75 61
3.63477 -5.29703 -4.49162 105 138 131
4.12422 -5.17178 -4.38079 119 166 158
3.8509 -5.2577 -4.4503 116 140 130
3.63442 -5.31108 -4.49531 164 213 205
3.76399 -5.28916 -4.47237 130 157 153
3.74452 -5.27162 -4.45649 117 140 136
4.13287 -5.1759 -4.37255 90 127 111
3.98176 -5.22018 -4.40887 103 150 124
3.9237 -5.24974 -4.43178 157 217 199
1.69619 -6.02816 -5.08552 92 124 113
2.39371 -5.76814 -4.86086 164 231 199
3.94005 -5.26619 -4.43865 142 192 174
3.6234 -5.35928 -4.51317 108 142 136
4.09742 -5.22242 -4.39859 135 149 138
2.33401 -5.80734 -4.88639 150 220 189
3.78991 -5.31429 -4.47086 114 129 125
3.65172 -5.36659 -4.51462 165 203 207
3.29659 -5.48875 -4.61417 113 169 158
3.29929 -5.49331 -4.61741 117 173 162
4.70334 -5.0367 -4.2346 124 187 155
3.74922 -5.34066 -4.48624 106 121 117
4.06762 -5.25918 -4.41126 114 142 123
2.35908 -5.84514 -4.89924 108 163 146
3.68602 -5.3772 -4.50408 125 162 154
3.2903 -5.5209 -4.62519 87 148 134
4.09383 -5.25604 -4.40082 62 92 79
4.0195 -5.28996 -4.42927 125 177 159
3.79634 -5.36372 -4.48628 134 170 176
3.62748 -5.39245 -4.51371 84 107 102
4.18852 -5.24823 -4.3897 70 72 73
4.12982 -5.26115 -4.39783 94 119 139
3.92343 -5.3015 -4.43293 107 150 139
3.92443 -5.3389 -4.462 126 172 153
3.76314 -5.38805 -4.50252 151 171 159
4.03168 -5.30338 -4.43038 118 181 155
3.64788 -5.42998 -4.53509 131 161 148
4.11986 -5.28099 -4.40367 115 151 169
2.65186 -5.80218 -4.83178 98 168 151
2.02404 -6.02491 -5.01471 124 158 157
1.98658 -6.02876 -5.01856 102 131 122
3.99071 -5.32819 -4.43476 101 148 145
3.78399 -5.40821 -4.50091 109 144 130
2.53114 -5.85254 -4.86582 108 161 152
3.50092 -5.4659 -4.54123 90 131 124
1.67072 -6.22173 -5.16126 103 169 157
2.3394 -5.94726 -4.93332 81 133 116
3.89264 -5.39206 -4.47418 119 148 155
3.93375 -5.39861 -4.47706 101 124 109
3.8191 -5.42153 -4.49551 166 195 202
2.3492 -5.97359 -4.94231 165 211 199
3.56103 -5.57114 -4.59985 116 131 123
2.65236 -5.8904 -4.85982 89 141 123
3.80579 -5.48797 -4.52672 121 145 137
3.84343 -5.46426 -4.50575 144 163 168
3.74958 -5.49483 -4.53093 170 189 202
2.67026 -5.88624 -4.85067 75 137 113
4.17522 -5.36832 -4.41749 62 116 99
4.17204 -5.36602 -4.41588 40 93 79
3.79627 -5.51884 -4.53056 129 169 164
2.70676 -5.91815 -4.85698 118 174 163
3.81574 -5.5262 -4.53277 114 148 147
2.55891 -6.00387 -4.9175 84 140 129
4.22815 -5.37437 -4.40117 67 81 75
3.08255 -5.80124 -4.75072 104 154 144
3.44678 -5.7043 -4.6664 118 160 149
2.30301 -6.11604 -5.00129 99 154 139
4.23691 -5.40134 -4.41281 133 197 185
3.91971 -5.53762 -4.51902 130 177 181
4.68357 -5.28997 -4.31295 115 179 143
3.38223 -5.75119 -4.68031 131 180 164
2.35759 -6.14704 -4.99576 105 163 152
3.93064 -5.58788 -4.52923 122 147 151
2.08099 -6.32475 -5.1152 120 167 145
2.26695 -6.24833 -5.04678 92 152 142
2.50268 -6.13787 -4.9534 100 161 147
3.17146 -5.96957 -4.79214 81 123 106
3.52036 -5.61219 -4.49942 104 139 129
3.17794 -5.95989 -4.76662 142 208 173
3.18712 -5.97893 -4.77967 137 200 168
2.35087 -6.36156 -5.07902 96 145 137
3.53566 -5.60057 -4.46664 111 137 124
3.19462 -5.99081 -4.77934 73 124 90
2.93138 -6.12616 -4.87804 142 177 181
2.77412 -6.19631 -4.93595 107 165 147
2.69081 -6.29079 -4.98841 81 143 127
2.43757 -6.44024 -5.07944 106 130 122
3.51956 -1.94798 -3.73965 47 83 67
3.81242 -1.9632 -3.72098 171 223 213
3.58774 -1.98313 -3.73832 124 173 157
3.81524 -1.98221 -3.73061 106 157 150
2.6484 -2.05468 -3.83504 183 224 249
3.75481 -2.01693 -3.73824 101 131 126
2.75813 -2.07089 -3.79731 183 230 222
2.79858 -2.08272 -3.81555 105 136 129
2.74786 -2.07922 -3.79272 97 113 106
3.59716 -2.05931 -3.75367 137 189 172
3.57396 -2.07383 -3.76832 99 158 144
3.65716 -2.09413 -3.75446 158 219 199
2.58576 -2.14998 -3.85492 94 126 132
3.57839 -2.11946 -3.75898 88 135 119
3.97806 -2.13398 -3.73882 105 156 149
2.56404 -2.21955 -3.86779 95 116 124
3.8414 -2.17153 -3.75235 103 155 145
3.82308 -2.1901 -3.75769 174 216 205
2.7937 -2.25007 -3.84585 161 214 205
3.86254 -2.20996 -3.75625 174 234 216
2.63813 -2.25355 -3.82946 120 151 142
3.77766 -2.23449 -3.77248 94 152 141
2.61196 -2.28445 -3.86282 107 136 133
3.81601 -2.23811 -3.75394 127 174 171
2.8173 -2.29964 -3.84809 121 183 165
3.79589 -2.2604 -3.7716 151 205 200
2.50036 -2.33365 -3.89793 102 162 154
2.81969 -2.31124 -3.84785 132 177 161
3.79172 -2.32184 -3.77957 101 145 152
2.63253 -2.38508 -3.8819 123 153 154
4.4026 -2.2896 -3.71237 140 219 176
4.445 -2.29394 -3.71418 124 182 157
4.36731 -2.30827 -3.72673 68 156 110
3.84978 -2.37266 -3.77859 39 56 42
4.39614 -2.35587 -3.73356 152 233 208
4.06925 -2.3816 -3.77163 181 225 219
3.53871 -2.4156 -3.8248 73 100 91
4.24439 -2.38351 -3.75389 101 153 136
2.43242 -2.50671 -3.93762 106 142 130
3.66917 -2.42684 -3.798 50 67 58
4.38657 -2.42614 -3.74701 184 219 223
2.75509 -2.5475 -3.9066 91 119 120
3.49264 -2.51878 -3.8448 83 135 111
3.70031 -2.50125 -3.80868 197 232 222
2.56708 -2.60027 -3.94467 93 135 118
3.75957 -2.51151 -3.80581 221 250 247
3.71162 -2.52532 -3.82007 84 128 111
2.56423 -2.60765 -3.93707 167 211 210
3.48407 -2.56329 -3.85418 51 80 57
2.72985 -2.6185 -3.92788 110 141 142
0.249896 -2.83994 -4.23661 100 159 139
4.33715 -2.53646 -3.77504 118 150 145
2.53131 -2.66841 -3.96407 142 176 176
2.81023 -2.65911 -3.92746 100 116 129
2.67369 -2.66599 -3.93838 157 185 185
3.47904 -2.62015 -3.86097 79 134 117
2.23522 -2.73299 -4.01803 82 148 129
2.44174 -2.71532 -3.98699 105 119 117
2.8251 -2.67873 -3.92604 169 206 210
2.51353 -2.71556 -3.97004 101 133 116
2.57604 -2.7137 -3.96261 94 149 132
3.34334 -2.67658 -3.88732 85 139 122
1.00587 -2.88492 -4.16892 167 230 214
2.34063 -2.79008 -4.02567 133 182 160
2.2777 -2.78684 -4.01382 153 215 197
2.26315 -2.8087 -4.0267 62 97 77
3.01378 -2.74825 -3.92292 97 150 141
2.70379 -2.77362 -3.95496 110 146 140
4.49811 -2.66482 -3.77531 110 120 120
2.30745 -2.84452 -4.01599 76 128 111
2.64235 -2.84401 -3.98766 185 221 229
0.990234 -3.01202 -4.20249 157 224 187
0.688748 -3.04298 -4.25549 180 181 195
4.41697 -2.72689 -3.79908 86 115 100
2.61497 -2.87408 -3.99296 71 90 71
4.49872 -2.74538 -3.78869 96 113 110
2.65911 -2.92593 -4.01449 158 205 203
2.27742 -2.95086 -4.05213 97 134 108
0.904355 -3.10337 -4.24227 156 216 182
2.3902 -2.96596 -4.05526 97 139 122
2.37677 -2.98531 -4.07454 182 230 224
0.870913 -3.10578 -4.23944 84 136 118
2.49905 -2.96028 -4.04132 162 183 174
2.3969 -2.97972 -4.05397 144 190 191
2.2178 -3.00282 -4.08776 121 172 158
2.52843 -2.97849 -4.03877 183 195 199
2.50182 -2.98954 -4.0425 131 174 171
2.47069 -2.98476 -4.03979 163 213 213
2.5077 -3.02657 -4.04557 154 186 191
1.98266 -3.14454 -4.15273 94 158 152
2.56511 -3.06863 -4.05315 93 124 121
1.27474 -3.30208 -4.25942 114 135 137
3.9155 -3.03477 -3.90084 201 240 249
3.35593 -3.11176 -3.97622 130 146 158
2.05738 -3.27873 -4.16198 116 163 154
3.87725 -3.12332 -3.91883 217 249 248
1.97389 -3.37082 -4.21257 180 227 248
1.1774 -3.46594 -4.33232 151 185 191
2.46274 -3.3157 -4.13708 121 172 164
0.210357 -3.63165 -4.50052 144 175 172
2.39577 -3.34945 -4.15333 226 246 251
4.60914 -3.09278 -3.82873 136 176 151
2.44153 -3.37101 -4.14406 99 157 146
4.52237 -3.1589 -3.85407 200 231 228
2.93054 -3.38231 -4.09069 130 153 149
2.96674 -3.37578 -4.07763 119 150 143
2.74487 -3.41196 -4.11961 148 201 191
3.72816 -3.29638 -3.97791 110 163 154
3.02947 -3.38637 -4.07995 92 129 121
2.9598 -3.40218 -4.09333 141 174 170
2.92183 -3.40883 -4.09716 159 179 180
3.73225 -3.30131 -3.95852 100 146 133
0.546062 -3.7493 -4.48767 144 178 178
4.58733 -3.20913 -3.84753 80 98 85
4.25436 -3.2575 -3.90273 109 152 141
2.7306 -3.46654 -4.13769 163 215 208
1.90967 -3.59324 -4.2887 96 108 112
1.51275 -3.64001 -4.33905 108 161 152
4.5503 -3.23916 -3.85892 78 88 76
1.89842 -3.57982 -4.25741 170 207 205
3.08665 -3.42689 -4.07021 97 124 120
2.12071 -3.55992 -4.22885 190 219 226
1.52165 -3.65483 -4.33805 80 139 119
2.75795 -3.48552 -4.13117 128 156 150
2.92218 -3.48824 -4.11395 140 180 175
4.54295 -3.28556 -3.86945 55 76 54
3.17784 -3.47321 -4.07761 156 209 199
3.13654 -3.47638 -4.08085 105 140 130
4.53585 -3.31167 -3.87779 59 91 67
4.55442 -3.32147 -3.87826 92 123 108
1.46106 -3.75793 -4.38267 112 169 161
3.96446 -3.39578 -3.95946 100 139 161
4.21694 -3.37357 -3.93064 95 157 139
4.53798 -3.3376 -3.88064 169 197 191
2.93689 -3.55776 -4.13175 111 146 132
2.17414 -3.65542 -4.2484 110 167 169
2.93662 -3.5556 -4.12982 109 143 132
1.63735 -3.7481 -4.34782 127 170 159
4.54951 -3.35153 -3.88574 73 67 62
2.89934 -3.57663 -4.14361 107 124 113
1.74936 -3.76471 -4.35468 121 157 175
2.7016 -3.61943 -4.18 107 144 136
2.6772 -3.61164 -4.17107 163 218 209
2.69828 -3.63934 -4.18178 144 181 177
2.67306 -3.65295 -4.19347 85 101 94
3.12915 -3.58514 -4.11294 91 100 103
4.08278 -3.45848 -3.95882 100 135 121
2.89288 -3.63195 -4.15131 129 171 160
4.2731 -3.43987 -3.93152 36 67 40
4.19419 -3.45944 -3.94352 170 223 196
2.82833 -3.67283 -4.1756 135 169 152
2.76635 -3.69123 -4.19442 140 157 146
2.91057 -3.66968 -4.16618 61 82 74
2.78817 -3.70697 -4.19095 123 174 154
2.93145 -3.69273 -4.16916 141 161 166
1.14742 -4.00286 -4.50521 90 114 104
4.00684 -3.53063 -3.97894 135 150 129
2.87165 -3.72662 -4.18735 110 133 125
2.895 -3.74016 -4.19559 119 129 117
2.68701 -3.78271 -4.22401 160 197 181
1.4515 -3.97627 -4.42678 144 170 170
2.83544 -3.77929 -4.20259 166 197 198
1.3867 -4.01896 -4.4535 177 213 213
2.74066 -3.83178 -4.23002 174 200 206
2.82488 -3.82695 -4.21624 153 176 172
2.79414 -3.85327 -4.2295 129 171 154
2.79851 -3.8786 -4.23375 131 167 153
2.85968 -3.87082 -4.22031 160 192 191
2.80237 -3.92092 -4.25867 151 188 180
2.76105 -3.91717 -4.25093 99 113 109
3.80061 -3.76538 -4.06132 73 82 72
3.63158 -3.79706 -4.09052 90 124 124
2.43988 -4.01742 -4.31763 141 182 191
0.722003 -4.35874 -4.6766 129 174 178
2.67602 -3.97893 -4.26967 115 178 162
1.56682 -4.21412 -4.48633 138 168 169
1.58573 -4.23855 -4.50277 90 111 109
2.8596 -4.01592 -4.26254 67 94 84
0.796108 -4.40261 -4.66567 118 150 155
1.63272 -4.25961 -4.50656 130 187 179
1.63316 -4.27122 -4.50763 106 133 124
0.335246 -4.54954 -4.79404 107 146 144
3.87514 -3.88786 -4.07707 96 163 148
1.61391 -4.33405 -4.53516 96 147 133
0.71161 -4.50681 -4.7143 130 164 164
2.86576 -4.11615 -4.28733 154 211 203
1.2811 -4.46295 -4.62793 90 128 122
1.69392 -4.37121 -4.52584 81 103 85
3.96145 -4.08446 -4.08632 112 149 141
0.245375 -4.97757 -4.95159 93 129 129
3.85326 -4.22432 -4.16128 110 172 166
3.96286 -4.19149 -4.12011 91 133 126
1.20692 -4.85502 -4.75688 131 165 165
1.33092 -4.82932 -4.72982 109 151 140
1.39774 -4.82651 -4.71455 116 154 148
4.16084 -4.20524 -4.11065 80 143 117
1.36119 -4.88444 -4.75003 70 80 68
4.33914 -4.20285 -4.0752 75 124 104
1.06603 -5.05195 -4.8604 104 137 146
1.34375 -4.97064 -4.78049 95 132 130
2.93678 -4.58941 -4.41095 107 157 153
1.90095 -4.86349 -4.65542 99 156 135
1.33556 -5.02126 -4.80295 178 227 211
0.951167 -5.25747 -4.95116 85 92 87
1.53942 -5.06801 -4.77587 105 161 156
1.02679 -5.20085 -4.89074 111 124 126
0.979009 -5.2457 -4.93737 164 177 179
1.97892 -4.94854 -4.65673 107 149 142
4.26651 -4.40674 -4.14644 237 255 254
1.0862 -5.21342 -4.89874 101 128 132
4.41344 -4.38545 -4.11373 137 210 184
4.49277 -4.39143 -4.11797 100 157 119
2.05007 -4.97075 -4.65748 196 226 221
0.933567 -5.3288 -4.97894 86 100 96
3.1221 -4.73238 -4.42274 111 163 153
0.889082 -5.34937 -4.99324 120 161 154
1.33156 -5.20122 -4.85131 115 164 156
1.05851 -5.25417 -4.89398 167 222 207
3.98962 -4.53332 -4.22617 103 168 159
3.05681 -4.80239 -4.4427 150 230 195
1.8063 -5.15585 -4.75901 110 161 153
4.25564 -4.51643 -4.16795 160 230 200
3.32303 -4.76711 -4.39848 85 149 143
3.53637 -4.71058 -4.33914 222 252 253
4.22757 -4.57868 -4.19541 54 112 84
4.25808 -4.56575 -4.17435 92 146 109
3.12922 -4.87776 -4.44857 130 220 177
2.27131 -5.15029 -4.68746 99 151 133
3.20905 -4.90445 -4.45569 253 255 255
4.27814 -4.63024 -4.20452 83 136 116
4.26001 -4.6313 -4.2017 177 238 224
2.0082 -5.2337 -4.74428 97 146 132
1.66694 -5.35843 -4.85018 109 143 137
3.1081 -4.95788 -4.48948 96 151 132
3.15096 -4.93124 -4.45962 64 103 77
1.66507 -5.37835 -4.85499 111 133 128
4.44734 -4.61224 -4.16812 107 166 135
1.32241 -5.5452 -4.98823 124 173 165
4.35745 -4.64895 -4.1838 121 168 142
4.31156 -4.68594 -4.20905 127 197 174
1.96416 -5.3363 -4.78541 153 196 185
1.66491 -5.41641 -4.85587 89 107 100
2.48914 -5.20929 -4.66841 77 154 127
2.24596 -5.29382 -4.73616 164 235 209
4.49268 -4.68258 -4.18386 120 170 138
4.19522 -4.76428 -4.25314 83 155 142
3.11142 -5.02922 -4.48793 177 226 206
3.85878 -4.87019 -4.33982 118 158 140
4.09425 -4.81679 -4.28316 91 154 134
3.92104 -4.87521 -4.32728 132 167 157
2.32681 -5.33281 -4.73196 88 147 126
4.13462 -4.8426 -4.29117 79 99 76
3.94723 -4.87436 -4.32004 112 155 140
1.57446 -5.61823 -4.972 163 199 247
4.29807 -4.79984 -4.24775 147 211 192
4.10779 -4.85217 -4.2938 83 122 106
3.79449 -4.92403 -4.35248 130 189 169
3.82205 -4.93915 -4.36212 68 96 73
3.80154 -4.9549 -4.37196 78 108 95
4.43707 -4.79165 -4.21797 108 133 107
4.37504 -4.79952 -4.23058 112 149 133
3.83558 -4.96352 -4.37064 78 114 100
3.21746 -5.13812 -4.5257 111 116 131
4.23017 -4.85699 -4.27057 68 122 105
4.10516 -4.89896 -4.30667 132 193 179
4.27921 -4.86518 -4.27115 118 172 155
4.11336 -4.92645 -4.31791 81 115 104
3.20544 -5.18622 -4.54452 235 240 241
3.01985 -5.23194 -4.58731 78 125 109
2.44439 -5.39573 -4.72229 152 223 206
2.42416 -5.42181 -4.74011 61 103 85
3.04983 -5.25368 -4.58974 75 120 93
2.47876 -5.44426 -4.74821 84 150 131
2.08351 -5.5478 -4.83759 88 112 100
2.52713 -5.44263 -4.73569 84 150 115
4.58543 -4.82888 -4.20321 45 70 44
4.31486 -4.90907 -4.27146 106 159 139
4.11399 -4.97673 -4.32771 64 106 88
3.1675 -5.22582 -4.54142 73 120 142
4.18996 -4.92813 -4.28475 111 171 131
4.60096 -4.83124 -4.19682 96 163 126
4.12393 -4.99585 -4.33706 132 189 168
1.1582 -5.94197 -5.15034 106 160 160
4.76222 -4.83467 -4.19056 36 82 59
2.548 -5.4805 -4.74648 70 132 108
2.42028 -5.5262 -4.7781 137 191 174
4.12737 -5.01909 -4.33831 114 146 121
3.78219 -5.12027 -4.42626 107 163 150
4.17294 -5.03213 -4.32321 36 55 28
2.02879 -5.67942 -4.87363 109 158 130
3.89748 -5.14074 -4.40826 114 174 164
3.77704 -5.17843 -4.4432 74 101 92
3.67647 -5.19608 -4.45169 98 111 113
3.61878 -5.2167 -4.47101 108 141 134
4.68434 -4.91162 -4.20648 94 140 118
3.79014 -5.17764 -4.4347 134 186 176
3.66179 -5.21588 -4.46666 151 200 198
3.8085 -5.19268 -4.43152 111 120 123
3.94 -5.15602 -4.40054 127 158 151
3.7898 -5.20774 -4.44327 160 181 179
3.76272 -5.21202 -4.44303 139 156 165
3.86468 -5.19857 -4.42858 75 131 108
3.77035 -5.22123 -4.44965 141 157 169
1.75919 -5.90192 -5.02199 177 223 217
3.65162 -5.28025 -4.48406 144 175 176
2.34424 -5.7048 -4.83811 151 238 212
4.09968 -5.14691 -4.36742 49 94 77
3.72984 -5.2646 -4.46608 128 140 142
3.99699 -5.21164 -4.41428 102 141 120
3.63421 -5.29573 -4.49021 99 132 125
2.00747 -5.85602 -4.95801 104 168 146
2.02323 -5.85097 -4.95162 143 220 193
2.04329 -5.88045 -4.9669 83 137 124
3.94957 -5.2378 -4.42483 151 188 186
3.63065 -5.31572 -4.49202 102 128 115
2.39035 -5.75402 -4.86096 66 105 89
3.61711 -5.33322 -4.50211 167 221 221
3.63205 -5.32889 -4.49659 90 117 113
3.18677 -5.48873 -4.62848 97 173 142
2.39221 -5.76462 -4.85833 163 232 199
3.70904 -5.32636 -4.48728 115 138 133
4.1505 -5.18417 -4.36763 99 144 128
3.86152 -5.2764 -4.44341 92 123 114
2.36425 -5.83168 -4.90604 88 111 103
3.64664 -5.35424 -4.50615 176 216 221
3.94775 -5.27205 -4.43341 73 84 76
4.72256 -5.07817 -4.26643 63 124 88
3.96548 -5.29291 -4.43996 102 151 143
3.72803 -5.35897 -4.49443 104 122 115
3.98962 -5.28895 -4.4313 115 144 129
3.81941 -5.34048 -4.46316 109 155 142
4.02992 -5.30101 -4.42871 118 181 155
3.92189 -5.33463 -4.45899 138 189 169
3.63062 -5.43661 -4.54289 85 101 90
3.61666 -5.43413 -4.54098 144 159 162
2.42793 -5.84057 -4.87727 100 134 124
1.87188 -6.0186 -5.02448 89 128 113
4.22269 -5.28186 -4.396 89 130 102
3.78973 -5.41144 -4.50343 122 160 148
3.58438 -5.48011 -4.55591 89 107 94
3.79932 -5.42697 -4.50642 68 91 83
3.67901 -5.45973 -4.53547 119 153 146
2.08441 -6.04136 -5.01547 100 141 120
3.79024 -5.43443 -4.50659 118 159 151
3.79307 -5.43808 -4.50915 115 156 148
3.46941 -5.54916 -4.59506 120 164 147
2.66681 -5.86497 -4.84615 74 138 109
4.10183 -5.35333 -4.42258 81 136 117
2.44988 -5.95772 -4.91224 105 163 139
3.74857 -5.49121 -4.52841 172 191 204
2.63182 -5.91568 -4.87657 152 216 204
3.77869 -5.49201 -4.52457 56 64 57
3.83865 -5.47692 -4.50717 186 214 221
3.76374 -5.52075 -4.54006 67 81 77
3.52512 -5.60071 -4.6039 100 128 115
4.23346 -5.3643 -4.40629 132 169 167
3.93073 -5.4849 -4.4979 106 140 134
4.68196 -5.23827 -4.29175 116 178 142
2.02786 -6.21452 -5.08772 80 97 94
3.86055 -5.54516 -4.52867 98 116 109
3.93008 -5.55535 -4.53127 115 165 165
3.38207 -5.7289 -4.67061 81 125 108
2.06177 -6.2777 -5.1023 109 158 144
2.20963 -6.24895 -5.06744 124 185 171
2.56521 -6.10752 -4.94395 165 225 215
2.08676 -6.34464 -5.1291 99 148 126
3.37114 -5.85022 -4.70923 130 184 177
2.38732 -6.24449 -5.02388 117 164 155
1.83498 -6.5021 -5.22201 107 152 143
3.21924 -5.9495 -4.76191 98 134 120
2.4454 -6.30189 -5.03422 75 104 95
2.35022 -6.37381 -5.0821 156 211 202
3.16125 -6.07505 -4.82371 82 136 106
2.49629 -6.41233 -5.04666 88 120 115
3.53645 -1.97505 -3.73878 76 117 102
2.715 -2.01801 -3.81681 97 139 132
2.79309 -2.02681 -3.79289 188 227 225
2.79822 -2.05044 -3.82009 97 118 110
3.6141 -2.02383 -3.76102 96 153 138
3.53203 -2.00945 -3.73717 150 212 194
2.78505 -2.05852 -3.81779 103 146 133
2.65286 -2.08295 -3.84736 60 76 75
3.90593 -2.01986 -3.7249 121 190 175
3.56034 -2.03871 -3.74412 141 207 182
3.58039 -2.04761 -3.74991 88 141 114
3.68016 -2.06258 -3.76003 109 162 149
3.5996 -2.06125 -3.75605 138 187 173
2.76111 -2.0984 -3.81562 81 87 86
3.68788 -2.07496 -3.74947 108 145 137
3.8919 -2.07457 -3.74231 90 121 112
3.97397 -2.0602 -3.70639 162 226 196
3.9475 -2.06001 -3.70074 145 205 187
4.19039 -2.06562 -3.70824 93 133 121
3.96946 -2.07471 -3.71685 138 202 183
3.53678 -2.13669 -3.76294 102 137 127
3.86439 -2.14299 -3.76163 111 144 147
3.91806 -2.15558 -3.73583 79 109 96
4.19622 -2.16375 -3.72793 133 192 178
3.52887 -2.17812 -3.76273 65 107 90
2.5426 -2.24773 -3.87537 100 148 142
3.90071 -2.18534 -3.75512 81 102 99
3.93966 -2.18752 -3.75383 144 206 182
3.82738 -2.1935 -3.7617 165 211 199
3.74366 -2.19447 -3.75223 105 153 135
2.58478 -2.26593 -3.86073 85 132 110
3.8681 -2.21461 -3.76169 169 229 211
2.55627 -2.30858 -3.88137 98 128 117
2.53743 -2.31203 -3.88503 152 195 184
3.93029 -2.24212 -3.74164 129 181 158
3.88762 -2.25483 -3.76549 142 197 188
4.24706 -2.2404 -3.7266 98 140 129
2.53751 -2.33728 -3.88364 133 161 161
2.5285 -2.34308 -3.89522 172 214 203
2.61611 -2.3347 -3.87235 113 128 130
2.52728 -2.36639 -3.91641 108 135 125
2.79499 -2.33812 -3.85761 149 176 180
3.49114 -2.32873 -3.80363 39 69 50
4.38845 -2.29061 -3.72336 55 95 67
3.66981 -2.32914 -3.78228 150 211 201
4.35623 -2.31515 -3.72985 51 99 73
4.29556 -2.31732 -3.73425 117 154 144
2.7732 -2.42329 -3.88243 196 228 233
4.35085 -2.34185 -3.74296 61 94 73
3.94024 -2.35392 -3.76849 76 121 102
3.71182 -2.3656 -3.77843 83 130 121
2.79879 -2.43157 -3.88976 91 114 116
3.92114 -2.36948 -3.78412 104 149 140
2.70887 -2.45863 -3.89872 136 173 163
4.43397 -2.36833 -3.73203 56 66 43
4.06996 -2.39412 -3.76862 74 142 117
2.50342 -2.49277 -3.92136 117 148 147
3.5341 -2.45465 -3.82173 37 64 44
2.67656 -2.51145 -3.90632 186 210 216
2.81902 -2.52578 -3.9049 103 132 129
2.62935 -2.53291 -3.91563 103 134 125
2.56873 -2.54597 -3.92924 120 170 158
4.19467 -2.44005 -3.76074 88 160 148
3.52274 -2.478 -3.81622 37 68 47
3.77643 -2.46936 -3.78922 112 164 146
3.45225 -2.49617 -3.83285 93 151 127
3.57907 -2.50755 -3.8415 65 109 78
0.854106 -2.7229 -4.13016 141 164 172
3.69886 -2.52291 -3.82414 108 142 135
3.55196 -2.54251 -3.83479 84 153 120
2.84812 -2.59257 -3.90189 201 223 235
2.66677 -2.61787 -3.92796 212 232 233
0.798024 -2.7848 -4.17142 166 182 198
3.4696 -2.57943 -3.85963 63 114 86
3.36091 -2.60206 -3.85807 90 131 123
2.44306 -2.71782 -3.98966 105 119 117
3.52832 -2.64064 -3.86509 94 158 123
0.625488 -2.90011 -4.22376 154 170 176
2.86638 -2.69934 -3.93266 179 212 215
2.96584 -2.70646 -3.9208 199 229 234
2.9506 -2.70946 -3.92047 208 236 236
2.33429 -2.77188 -4.00272 91 131 113
2.58664 -2.76599 -3.9811 112 141 138
2.55653 -2.77427 -3.98449 159 201 194
2.68227 -2.76571 -3.96128 67 96 87
2.9754 -2.78487 -3.95696 118 161 158
2.86498 -2.78318 -3.94339 184 226 225
2.41572 -2.835 -4.00845 141 200 162
2.40999 -2.87204 -4.01913 168 217 201
2.43517 -2.89218 -4.02426 133 157 145
2.41415 -2.89326 -4.02327 109 113 101
2.34159 -2.93237 -4.05309 87 146 125
0.510886 -3.10667 -4.28934 122 192 179
2.36368 -2.92943 -4.04524 199 234 230
0.95446 -3.06055 -4.22367 107 166 162
2.46226 -2.94394 -4.03771 158 191 187
2.42486 -2.95246 -4.04151 166 204 198
2.39755 -2.97494 -4.06449 102 145 132
2.37787 -2.98468 -4.07393 184 236 229
3.25685 -2.89469 -3.93496 100 140 129
0.888702 -3.13909 -4.25596 162 199 191
2.47292 -2.98879 -4.04387 158 207 205
2.22273 -3.02857 -4.09978 120 166 153
2.50584 -3.00362 -4.05197 143 183 182
3.30354 -2.92764 -3.93673 92 158 123
3.26056 -2.94589 -3.95588 97 144 128
2.61416 -3.04209 -4.06467 167 197 198
2.51356 -3.03588 -4.05493 162 196 202
0.927303 -3.31691 -4.3163 156 182 189
2.0579 -3.20234 -4.14612 102 160 142
1.64142 -3.24871 -4.21256 123 158 168
3.72975 -3.02555 -3.90583 97 125 126
4.00578 -3.01964 -3.88454 96 140 157
1.95667 -3.35263 -4.2187 116 160 147
1.97525 -3.37356 -4.21522 180 227 248
0.229884 -3.60705 -4.48181 130 156 156
2.54368 -3.35518 -4.12978 198 230 241
1.11214 -3.57877 -4.36076 121 154 150
3.26451 -3.32449 -4.03869 216 240 238
2.96781 -3.37904 -4.08065 123 153 148
2.7371 -3.40982 -4.11936 179 219 217
2.89092 -3.41593 -4.104 94 116 111
4.54088 -3.22269 -3.86054 106 126 114
1.813 -3.57764 -4.28141 95 133 121
4.47789 -3.2313 -3.86766 137 149 159
1.89743 -3.56705 -4.26419 90 104 110
2.72654 -3.46182 -4.1333 159 213 206
2.83229 -3.45996 -4.12082 157 199 192
4.56702 -3.22778 -3.84252 215 239 231
2.09885 -3.56164 -4.23199 137 171 171
1.7833 -3.63529 -4.31013 114 157 184
1.52505 -3.66431 -4.3469 79 136 121
1.94749 -3.59983 -4.26573 120 147 144
2.89567 -3.47529 -4.11543 137 170 166
1.85536 -3.62559 -4.28232 149 204 195
4.56448 -3.26435 -3.85168 101 141 123
1.82165 -3.66097 -4.31308 110 141 120
1.75781 -3.66756 -4.31472 117 155 159
3.13201 -3.47643 -4.08068 102 138 126
4.2539 -3.32994 -3.90461 84 148 129
2.87315 -3.53558 -4.13064 99 128 119
2.75194 -3.54341 -4.14248 162 217 208
4.59991 -3.30968 -3.86557 181 225 208
4.5615 -3.32989 -3.88527 127 157 144
4.38243 -3.34925 -3.90404 201 220 225
4.54374 -3.33942 -3.88313 171 202 195
2.99558 -3.53455 -4.11235 148 179 178
2.77826 -3.60887 -4.16943 140 186 187
2.73982 -3.61322 -4.17405 98 127 111
4.5238 -3.33837 -3.85811 182 183 187
4.31108 -3.41495 -3.9218 174 214 226
2.6991 -3.64365 -4.18564 155 191 191
3.14166 -3.57749 -4.10396 183 209 216
4.14801 -3.50559 -3.97554 77 87 74
2.70464 -3.7051 -4.1981 120 154 144
2.89784 -3.68701 -4.16799 126 179 170
1.3866 -3.92209 -4.436 139 169 170
1.38611 -3.95967 -4.4528 120 156 150
2.8668 -3.71414 -4.1731 133 167 156
2.80302 -3.75107 -4.21005 117 162 146
1.59943 -3.945 -4.41617 118 138 126
3.82962 -3.58993 -4.00997 98 120 101
2.83218 -3.77284 -4.19692 177 207 212
1.65595 -3.97071 -4.41623 106 160 143
2.83362 -3.80192 -4.2072 79 99 94
3.52926 -3.74562 -4.08639 114 168 163
2.81637 -3.86262 -4.21513 121 155 138
2.77768 -3.8772 -4.23244 83 93 81
2.76488 -3.88977 -4.23835 168 202 202
1.72622 -4.09137 -4.44963 97 118 103
2.79746 -3.91184 -4.24726 168 207 199
2.72659 -3.90182 -4.23758 150 172 170
2.81444 -3.91275 -4.23837 157 188 185
2.79752 -3.93978 -4.25119 82 100 93
0.982274 -4.29563 -4.60825 131 154 156
0.798223 -4.33322 -4.64805 130 176 177
0.898618 -4.33585 -4.64398 136 180 187
0.535794 -4.4237 -4.7211 108 153 144
1.58776 -4.24664 -4.50972 93 111 112
2.72714 -4.03248 -4.28448 177 221 220
1.67803 -4.3235 -4.51166 109 153 136
3.85985 -3.90424 -4.07392 97 151 138
1.67151 -4.34938 -4.53046 41 79 61
1.65415 -4.37913 -4.55743 146 209 200
3.97124 -4.09694 -4.09636 93 130 122
1.15842 -4.78323 -4.76034 121 186 184
0.24399 -4.97996 -4.95354 93 118 120
4.0043 -4.11832 -4.09903 101 154 141
0.923109 -4.82617 -4.79715 135 183 184
4.07314 -4.14449 -4.10128 183 219 225
4.05215 -4.15146 -4.10338 102 150 138
1.14145 -4.86665 -4.78699 86 108 103
4.37713 -4.19029 -4.07387 96 123 113
4.14775 -4.22988 -4.10885 84 139 106
1.44149 -4.88139 -4.73727 127 164 160
4.15547 -4.23596 -4.09735 255 255 254
3.99321 -4.29236 -4.15069 88 146 128
1.36941 -4.94155 -4.76762 104 117 115
1.06954 -5.06515 -4.87103 127 158 167
0.824828 -5.1153 -4.91306 130 155 157
1.72077 -4.88421 -4.69128 132 175 166
3.44046 -4.48195 -4.29916 128 176 170
3.98848 -4.34395 -4.16282 107 143 127
1.90398 -4.87794 -4.66687 97 152 135
1.69073 -4.91398 -4.69601 112 156 150
4.17739 -4.34712 -4.14609 108 165 144
4.07838 -4.40311 -4.16848 89 153 134
4.12353 -4.42592 -4.17231 125 180 165
4.1249 -4.43159 -4.17664 104 159 142
1.02836 -5.23591 -4.91841 103 111 110
4.40497 -4.38894 -4.11681 146 218 188
0.997644 -5.23491 -4.90484 173 197 195
0.931836 -5.28179 -4.9485 144 185 170
1.64537 -5.14875 -4.79993 116 175 161
1.10199 -5.24195 -4.88403 122 142 147
1.7003 -5.13322 -4.76107 110 154 141
1.28623 -5.31234 -4.90952 115 167 160
3.04854 -4.82172 -4.45927 92 146 117
3.53489 -4.70853 -4.33759 221 250 254
1.14812 -5.36482 -4.93461 144 182 176
0.548977 -5.55698 -5.1105 136 170 170
4.04686 -4.62323 -4.23449 108 162 149
2.0556 -5.15633 -4.71361 75 109 103
4.29677 -4.55032 -4.15978 120 190 167
4.23044 -4.56711 -4.17583 64 118 81
4.2338 -4.61646 -4.20935 109 167 143
4.23737 -4.60605 -4.19604 60 122 86
3.20376 -4.88921 -4.44283 225 234 238
2.35038 -5.12229 -4.64541 172 225 211
2.20712 -5.20632 -4.71862 98 142 135
3.11403 -4.96883 -4.49847 88 141 121
4.43461 -4.624 -4.18318 125 194 173
4.40051 -4.62283 -4.17163 132 185 165
1.80015 -5.36557 -4.83614 112 155 140
1.53593 -5.46981 -4.92792 111 144 130
1.10387 -5.54277 -4.99207 121 182 168
4.31263 -4.68905 -4.21134 111 182 156
2.18519 -5.27351 -4.73102 96 151 124
3.11529 -5.05044 -4.53193 72 98 74
2.45972 -5.23495 -4.69016 102 167 142
1.66584 -5.42222 -4.86026 94 110 103
3.06445 -5.03265 -4.51037 255 255 255
2.3128 -5.26695 -4.71846 95 148 135
3.09072 -4.9971 -4.472 179 237 208
1.65927 -5.45617 -4.87456 167 195 189
3.86941 -4.78959 -4.2752 92 139 123
3.12035 -5.05291 -4.50926 199 253 224
2.42936 -5.26747 -4.68842 98 161 135
4.46091 -4.71117 -4.1946 80 119 97
3.84588 -4.87948 -4.34382 83 108 88
4.36227 -4.74571 -4.21874 82 113 92
3.84451 -4.91263 -4.35597 130 185 176
3.14817 -5.08848 -4.51593 247 249 249
3.85521 -4.92362 -4.3641 138 191 182
2.00004 -5.48069 -4.85388 161 193 192
2.37406 -5.35349 -4.73687 64 102 90
1.5738 -5.62085 -4.97396 162 198 244
3.99927 -4.9191 -4.35075 98 127 104
3.80533 -4.9406 -4.3701 121 185 166
3.01902 -5.1596 -4.5607 78 120 89
3.19332 -5.1333 -4.53044 121 134 156
4.20035 -4.83886 -4.26751 63 93 74
4.18049 -4.85986 -4.2828 128 172 165
1.56517 -5.67937 -5.00304 162 212 230
4.10708 -4.87948 -4.29599 86 113 97
3.99561 -4.88416 -4.30022 83 110 100
1.52438 -5.67253 -4.99254 93 110 96
4.29157 -4.85054 -4.26337 57 88 67
4.2734 -4.85654 -4.26554 135 189 176
3.28616 -5.15666 -4.52463 244 243 245
4.46587 -4.81836 -4.22942 95 126 111
4.25848 -4.8562 -4.25625 62 94 75
4.10808 -4.91744 -4.31136 95 129 118
3.92744 -4.97425 -4.3607 110 141 126
4.29954 -4.87341 -4.26672 108 166 142
4.20407 -4.89557 -4.28764 104 165 145
3.82625 -5.02491 -4.388 58 72 48
3.24401 -5.19714 -4.53985 112 134 159
2.3024 -5.4816 -4.78709 85 121 115
1.92141 -5.6071 -4.89229 121 165 158
4.18056 -4.91622 -4.2878 113 149 137
3.15697 -5.24483 -4.56993 53 106 92
0.501938 -6.07861 -5.29182 138 161 157
2.52366 -5.43164 -4.72714 67 132 93
2.06575 -5.57931 -4.84763 64 95 74
4.18816 -4.92594 -4.28316 107 164 126
4.11664 -4.98109 -4.33087 64 106 88
1.79066 -5.68594 -4.94416 88 118 107
3.85773 -5.07442 -4.40049 145 215 185
1.05012 -6.00081 -5.19545 127 159 172
4.16832 -4.97849 -4.31271 145 214 187
2.30133 -5.50523 -4.76558 107 164 139
2.30809 -5.57866 -4.82392 139 211 189
3.77564 -5.11034 -4.41907 113 167 154
1.96217 -5.68704 -4.90793 62 106 83
2.56884 -5.49498 -4.74329 105 176 150
2.29502 -5.60076 -4.83444 98 144 131
2.42577 -5.52396 -4.75672 171 218 209
2.35679 -5.55929 -4.78665 134 197 171
4.14179 -5.04654 -4.34394 101 128 108
2.29076 -5.62234 -4.83494 144 213 198
4.20277 -5.03896 -4.32427 119 177 142
3.75839 -5.15553 -4.42321 76 101 91
2.24643 -5.64952 -4.84686 92 153 125
4.20225 -5.02329 -4.3078 54 91 57
3.89713 -5.14522 -4.41097 126 193 184
3.79998 -5.16304 -4.42973 104 154 144
3.70825 -5.19218 -4.44955 86 109 104
0.581855 -6.23534 -5.33946 126 147 145
3.76895 -5.17298 -4.43575 81 102 93
2.81777 -5.47881 -4.69192 95 159 137
2.33074 -5.62865 -4.81683 128 198 168
3.65266 -5.21899 -4.46667 149 193 192
3.72571 -5.19441 -4.43937 134 136 136
3.70535 -5.22145 -4.45944 160 202 195
0.579359 -6.26693 -5.34525 201 228 224
4.70055 -4.92838 -4.20767 57 90 53
3.67742 -5.23954 -4.47137 155 210 191
3.79073 -5.21862 -4.44125 82 77 78
2.34699 -5.77513 -4.89429 57 103 91
3.99689 -5.21173 -4.41434 102 141 120
3.92197 -5.23387 -4.43144 54 98 69
3.66457 -5.29965 -4.48732 72 76 64
1.1065 -6.18674 -5.23558 147 174 171
4.12472 -5.17049 -4.37409 130 177 168
3.88944 -5.24077 -4.43685 55 65 49
2.3854 -5.7391 -4.8545 77 108 93
1.96609 -5.8652 -4.95717 95 128 114
3.63878 -5.33049 -4.50253 105 131 118
3.96553 -5.19685 -4.38464 110 167 142
4.64302 -5.0308 -4.24306 37 79 48
2.37821 -5.74466 -4.84147 165 239 203
4.15457 -5.19066 -4.37221 99 144 128
3.87786 -5.3212 -4.47286 118 129 126
3.6988 -5.40041 -4.53288 62 78 61
3.62959 -5.38204 -4.51645 153 204 200
3.64801 -5.39871 -4.52053 85 91 80
4.14723 -5.24734 -4.38825 252 255 253
4.0934 -5.2806 -4.41265 47 69 50
3.6222 -5.4441 -4.54802 140 147 150
2.62815 -5.78565 -4.83349 101 150 136
3.83988 -5.37086 -4.48441 128 174 161
4.03513 -5.32642 -4.44164 62 112 94
4.13611 -5.28336 -4.40025 46 72 66
4.17139 -5.3332 -4.41717 131 173 156
3.937 -5.39837 -4.46628 54 69 55
2.66861 -5.87065 -4.85015 83 146 120
3.78695 -5.4777 -4.52234 128 162 156
3.46488 -5.64644 -4.65906 123 162 146
3.93936 -5.45594 -4.49457 141 196 179
4.22397 -5.37155 -4.42018 67 108 100
4.21832 -5.36413 -4.41503 66 106 95
3.52009 -5.5919 -4.59775 100 125 115
2.60142 -5.93724 -4.87702 104 141 133
3.77796 -5.54559 -4.54647 105 134 131
3.64703 -5.5833 -4.58028 113 123 117
2.33642 -6.08094 -4.98203 111 146 136
3.92673 -5.49665 -4.49873 111 154 151
3.77443 -5.52224 -4.52265 47 53 48
3.9247 -5.54605 -4.52484 111 160 162
3.38891 -5.74132 -4.67924 86 128 111
3.91958 -5.57133 -4.52394 49 57 57
3.37002 -5.81286 -4.69694 97 127 116
2.02299 -6.38312 -5.1426 161 213 206
3.33923 -5.86605 -4.71911 206 244 246
3.36446 -5.88141 -4.72593 93 137 124
3.205 -5.92329 -4.74321 101 131 118
3.17402 -5.94971 -4.75752 132 195 163
2.4757 -6.27887 -5.00877 90 144 131
1.12328 -6.89077 -5.47439 97 127 122
4.16257 -1.98442 -3.70728 162 236 202
3.62976 -2.00968 -3.74239 95 145 135
2.6615 -2.0518 -3.81676 93 129 112
2.65055 -2.07773 -3.83807 63 74 71
2.62243 -2.08906 -3.844 160 226 231
3.85895 -2.03291 -3.73095 112 157 148
2.76289 -2.06901 -3.79275 194 227 223
4.19757 -2.02916 -3.69277 116 176 142
3.75302 -2.04004 -3.71232 70 88 81
3.93411 -2.06111 -3.73761 63 83 71
2.76865 -2.10715 -3.82185 100 114 113
2.56066 -2.11097 -3.83559 100 152 134
3.79947 -2.08125 -3.76255 75 89 87
3.93202 -2.07555 -3.72051 146 219 203
3.64174 -2.09753 -3.76467 100 111 103
2.79158 -2.12665 -3.81472 153 189 183
2.59099 -2.16325 -3.85096 75 97 95
3.67748 -2.11993 -3.76254 70 87 74
2.58767 -2.15921 -3.84603 76 97 99
4.2018 -2.10427 -3.71098 61 97 80
4.04022 -2.11405 -3.72839 165 215 203
3.73123 -2.14968 -3.76303 65 83 70
2.57601 -2.21325 -3.86915 72 106 100
3.91854 -2.15508 -3.73526 80 107 97
2.5647 -2.28913 -3.88475 152 216 197
3.91887 -2.21254 -3.75811 60 77 68
4.28424 -2.20139 -3.72264 63 102 80
3.89799 -2.2213 -3.75558 142 194 184
2.61217 -2.27685 -3.85582 125 158 151
3.87412 -2.23365 -3.75543 68 89 81
2.56603 -2.33557 -3.89132 200 225 229
3.8899 -2.27089 -3.76592 75 106 91
4.31225 -2.25287 -3.71183 61 98 78
3.72538 -2.29703 -3.77267 82 135 125
3.47483 -2.31496 -3.78278 41 69 49
2.7684 -2.37341 -3.88357 167 211 212
2.80792 -2.36326 -3.85306 160 199 197
2.78766 -2.38766 -3.88202 110 141 138
3.55439 -2.35386 -3.8001 56 106 82
4.35599 -2.31498 -3.72966 51 99 73
4.0475 -2.34343 -3.76487 95 127 126
4.40976 -2.32966 -3.73299 142 229 179
3.85002 -2.37443 -3.77787 41 60 45
2.38683 -2.49018 -3.94734 108 174 162
4.04333 -2.37237 -3.75452 192 233 226
2.68016 -2.48626 -3.91539 117 125 125
0.38893 -2.65366 -4.16212 152 186 192
2.53014 -2.49921 -3.92627 134 152 145
3.78235 -2.43757 -3.78503 62 95 80
3.67556 -2.46797 -3.82694 61 81 68
3.60735 -2.46289 -3.82332 84 140 119
2.63109 -2.53479 -3.91773 93 129 117
3.5986 -2.4958 -3.85275 67 100 85
3.53582 -2.48197 -3.82586 38 64 48
2.7828 -2.53554 -3.91628 197 224 220
4.39442 -2.43524 -3.7427 103 126 122
2.42184 -2.57045 -3.94829 186 219 215
3.85035 -2.47772 -3.79023 98 158 127
3.73946 -2.48798 -3.8007 57 114 89
2.3587 -2.61287 -3.98026 128 181 172
2.92355 -2.56585 -3.8965 75 109 102
3.50998 -2.56228 -3.84213 64 95 62
4.39167 -2.50948 -3.74092 89 99 86
3.36388 -2.60647 -3.86278 91 130 122
0.448325 -2.88359 -4.23954 117 176 172
3.46805 -2.63619 -3.87418 60 117 92
4.42893 -2.57067 -3.76561 132 184 174
4.29703 -2.5624 -3.76691 89 113 95
2.84743 -2.67527 -3.92674 102 112 122
0.793323 -2.86182 -4.18589 158 171 179
2.99893 -2.6723 -3.89923 77 136 115
2.43197 -2.72561 -3.9773 181 218 216
2.58542 -2.73145 -3.96342 176 224 218
2.96155 -2.70138 -3.91529 194 223 230
2.44477 -2.75582 -3.98624 97 110 94
2.34119 -2.76859 -4.00281 92 118 105
2.79754 -2.7389 -3.94723 103 139 139
0.879636 -2.9249 -4.20595 127 180 170
0.822078 -2.94506 -4.22099 119 136 139
0.804678 -2.93301 -4.20501 125 134 143
2.9834 -2.78361 -3.96282 123 162 160
2.38415 -2.80552 -4.00198 97 145 116
4.43622 -2.67243 -3.78287 213 244 247
0.801515 -2.99821 -4.23665 126 144 143
2.36708 -2.84908 -4.00997 103 129 113
2.42976 -2.8532 -4.01554 93 119 95
0.679607 -3.04811 -4.25617 160 165 180
2.43126 -2.88628 -4.01815 135 159 147
2.36536 -2.93211 -4.04766 192 229 225
0.889061 -3.11218 -4.24492 109 131 113
0.868934 -3.15323 -4.27257 169 215 216
0.866056 -3.13949 -4.25841 154 206 206
3.47642 -2.90429 -3.92271 229 249 254
2.56794 -3.00269 -4.05574 147 187 186
0.900106 -3.22765 -4.29662 69 84 63
2.54893 -3.06853 -4.07905 97 109 111
1.99186 -3.14508 -4.15532 113 175 163
2.64264 -3.09093 -4.07601 67 77 65
2.56793 -3.07088 -4.0568 96 129 125
1.22737 -3.29083 -4.27749 83 125 108
3.34793 -3.11534 -3.97734 132 152 157
1.71126 -3.31137 -4.21076 102 136 129
1.9109 -3.31186 -4.20058 133 194 174
1.96335 -3.36559 -4.20666 187 230 249
1.38446 -3.45411 -4.29423 162 215 205
0.374707 -3.59231 -4.46348 146 185 187
1.64189 -3.46491 -4.27813 125 178 168
2.48154 -3.38716 -4.14221 101 113 113
4.50648 -3.16288 -3.86038 128 153 157
0.39018 -3.70157 -4.5055 121 147 154
3.06054 -3.36493 -4.07349 115 169 162
2.51773 -3.43817 -4.15714 114 135 167
1.92032 -3.51984 -4.25114 99 114 110
2.9183 -3.38168 -4.08174 123 146 138
2.96385 -3.37983 -4.07024 103 131 118
2.7418 -3.43983 -4.12942 88 126 108
4.53098 -3.2098 -3.84881 101 121 109
3.00988 -3.42124 -4.09511 163 194 197
1.81559 -3.58374 -4.28711 94 132 120
3.06724 -3.41625 -4.07887 62 88 72
2.90346 -3.45388 -4.10532 73 91 84
1.52538 -3.64545 -4.33021 86 144 126
2.85763 -3.4741 -4.12192 80 93 85
2.8748 -3.46667 -4.10103 120 156 150
3.14647 -3.44309 -4.06668 92 126 115
2.07792 -3.63254 -4.26302 138 169 162
1.78869 -3.67288 -4.31327 58 70 48
4.53889 -3.33019 -3.88514 72 110 88
4.55222 -3.31838 -3.85529 66 71 50
4.5087 -3.35716 -3.89088 119 158 133
4.5236 -3.34842 -3.87743 61 52 39
4.41617 -3.36465 -3.89001 139 204 172
4.40327 -3.3743 -3.90506 73 117 94
2.73767 -3.61365 -4.17192 103 129 113
2.7883 -3.6392 -4.19089 127 168 163
4.30721 -3.41157 -3.91879 170 212 225
4.20377 -3.45724 -3.94449 161 218 193
4.18134 -3.49383 -3.96896 94 113 88
4.06254 -3.48023 -3.9529 170 209 224
1.57504 -3.90176 -4.42701 57 77 65
1.18826 -3.92745 -4.45121 114 144 139
1.54519 -3.9035 -4.42192 159 196 192
1.40368 -3.95376 -4.46303 153 189 189
2.73233 -3.71517 -4.19578 70 76 57
1.17156 -3.99102 -4.49458 137 173 159
1.15285 -4.00742 -4.50278 96 107 99
1.38939 -3.95883 -4.45016 123 161 155
3.84157 -3.58893 -4.01153 74 78 59
1.12689 -4.03861 -4.50617 120 154 147
1.04132 -4.05259 -4.52213 129 163 162
2.80222 -3.76578 -4.19335 167 213 207
2.7217 -3.87725 -4.24905 153 188 191
2.67622 -3.92375 -4.2638 93 145 135
3.79964 -3.75789 -4.0544 64 72 61
1.03578 -4.25375 -4.58067 144 181 185
0.860027 -4.33879 -4.6578 142 190 194
0.542431 -4.41977 -4.71828 101 144 135
2.82884 -3.99174 -4.25604 111 160 158
1.59559 -4.22749 -4.49254 83 105 100
2.85716 -4.04763 -4.28018 84 122 110
0.72076 -4.49783 -4.70877 125 165 160
1.64909 -4.32896 -4.52765 71 96 82
3.94103 -4.11499 -4.11142 117 170 156
1.80153 -4.67972 -4.6171 92 107 103
1.14716 -4.85013 -4.76796 78 102 92
4.14999 -4.16743 -4.09682 45 57 45
4.39374 -4.20388 -4.08357 98 146 134
4.57524 -4.15404 -4.0258 83 119 102
4.1704 -4.27691 -4.12356 63 80 67
0.861523 -5.10012 -4.89685 124 154 155
0.830671 -5.1036 -4.90122 121 145 145
4.47664 -4.25497 -4.07592 103 162 134
0.792763 -5.22423 -4.95608 149 182 185
0.945256 -5.23642 -4.92791 91 99 92
4.43747 -4.4005 -4.11663 84 112 82
1.26955 -5.20025 -4.85813 124 147 139
0.933744 -5.29293 -4.94323 81 95 91
1.28719 -5.25944 -4.87165 105 148 137
1.1107 -5.33207 -4.93546 117 154 150
1.37698 -5.26852 -4.85491 116 139 134
4.23729 -4.55618 -4.19298 68 118 86
1.6366 -5.28682 -4.83991 104 134 121
4.35871 -4.54822 -4.1643 150 214 195
4.24691 -4.61731 -4.20647 58 121 82
4.36324 -4.58133 -4.17087 77 105 86
3.11793 -4.8877 -4.44573 89 121 104
2.02195 -5.20405 -4.72309 154 201 192
1.38379 -5.45387 -4.93728 140 171 168
1.71326 -5.35651 -4.84128 94 129 119
1.64022 -5.4225 -4.89314 98 129 126
3.16583 -4.91736 -4.41686 111 123 135
3.11015 -5.0812 -4.55623 104 119 111
2.01809 -5.35578 -4.79993 55 79 67
4.29649 -4.73153 -4.23921 76 88 68
2.48506 -5.19037 -4.65319 97 169 139
2.46282 -5.22513 -4.68307 97 158 132
2.18367 -5.27848 -4.72832 88 145 120
1.62471 -5.46407 -4.89838 71 84 68
3.12005 -5.00266 -4.46925 89 118 103
1.97861 -5.39841 -4.82231 135 161 155
3.90065 -4.8343 -4.30824 85 124 103
3.84629 -4.86899 -4.33366 78 98 75
1.67974 -5.45644 -4.85263 53 59 48
0.403021 -5.92777 -5.26703 126 179 166
4.29449 -4.77632 -4.24815 76 106 93
3.9343 -4.87326 -4.32473 126 181 166
3.79524 -4.89005 -4.33806 106 151 132
3.07028 -5.20188 -4.6071 145 195 183
1.9411 -5.45593 -4.8349 81 101 96
3.86554 -4.94404 -4.37991 122 171 157
4.30196 -4.80266 -4.24027 111 170 156
1.9843 -5.47126 -4.82901 72 95 87
4.15035 -4.82217 -4.25629 104 157 143
4.32191 -4.82537 -4.2569 115 178 162
3.84719 -4.94876 -4.36044 63 70 49
3.82905 -4.98858 -4.39665 90 128 110
4.28762 -4.84165 -4.25844 80 106 88
3.0586 -5.21026 -4.57429 63 72 52
1.53664 -5.70017 -5.01088 87 103 86
4.18152 -4.89532 -4.289 54 66 46
4.06334 -4.96649 -4.34657 76 82 59
3.20735 -5.1807 -4.54012 250 255 255
4.38271 -4.84361 -4.24068 98 134 118
2.4321 -5.43122 -4.74878 80 118 112
2.1175 -5.49546 -4.80308 81 105 93
4.54917 -4.81862 -4.21126 122 180 162
3.8221 -5.01195 -4.37696 63 76 52
4.16859 -4.9309 -4.29938 74 94 75
1.00203 -5.94339 -5.17361 109 147 141
1.64076 -5.67593 -4.93297 98 139 112
1.97296 -5.63139 -4.88932 54 100 78
1.89923 -5.69341 -4.93551 92 128 112
4.23081 -4.95453 -4.29136 99 157 122
4.12801 -5.01288 -4.34173 103 148 121
3.15337 -5.29397 -4.58383 147 219 196
3.71696 -5.08213 -4.39916 214 236 241
3.16793 -5.3054 -4.58321 91 146 131
2.05954 -5.64658 -4.87188 92 119 109
2.39372 -5.52216 -4.76239 47 59 41
4.69194 -4.84721 -4.17601 106 182 151
3.85717 -5.08868 -4.38901 74 103 78
3.68604 -5.07389 -4.3708 129 144 146
1.9408 -5.72578 -4.92971 189 241 224
0.531997 -6.19019 -5.32202 101 129 110
3.73345 -5.14896 -4.42485 88 114 114
3.6361 -5.21672 -4.47986 108 125 116
2.31077 -5.67022 -4.84939 57 103 81
2.0294 -5.77607 -4.9371 45 54 33
3.92312 -5.1379 -4.38237 125 148 144
3.81392 -5.20166 -4.44481 96 114 113
3.67703 -5.24927 -4.48785 139 183 184
0.548184 -6.25794 -5.3389 210 237 234
3.96354 -5.20113 -4.42752 57 69 47
3.85678 -5.26219 -4.47317 112 165 155
4.08376 -5.14348 -4.36989 166 209 206
3.85682 -5.24684 -4.45136 140 186 173
1.39673 -6.08032 -5.146 111 173 151
4.12808 -5.17758 -4.38138 137 187 177
4.05468 -5.19946 -4.39951 133 180 164
3.88396 -5.23883 -4.43244 48 62 44
3.67573 -5.30366 -4.48542 74 74 60
2.35272 -5.73269 -4.84562 172 224 214
4.00791 -5.24737 -4.42747 114 175 155
1.66397 -5.95287 -5.02393 114 147 133
2.32152 -5.79868 -4.88494 104 159 140
3.95671 -5.26179 -4.42809 60 69 56
3.85711 -5.29031 -4.45031 101 119 112
