ply
format ascii 1.0
element vertex 1283
property float x
property float y
property float z
property uchar blue
property uchar green
property uchar red
end_header
1.28273 -0.264163 3.75166 107 166 152
1.36311 -0.264148 3.74236 202 239 223
-0.126642 -0.278873 3.99903 119 180 190
0.722709 -0.263779 3.84855 108 163 148
-0.890317 -0.258675 3.87089 46 80 49
-0.0699702 -0.264248 3.97871 118 181 165
-2.44309 -0.271877 4.40943 79 155 113
-2.20385 -0.267396 4.3565 111 173 143
-0.190436 -0.239464 4.00617 109 162 189
-0.867552 -0.221962 3.86535 138 201 159
-2.27192 -0.24367 4.38149 160 234 206
-2.27487 -0.218703 4.3881 205 255 242
-2.53054 -0.205442 4.4107 114 183 132
1.58196 -0.17371 3.71516 155 223 200
0.617678 -0.169303 3.86771 90 158 133
0.597225 -0.165032 3.8592 112 163 155
-0.819032 -0.150645 3.86596 83 139 104
0.87716 -0.14487 3.83459 111 162 155
0.60902 -0.144481 3.86567 118 159 154
-1.3222 -0.15259 4.20776 109 155 143
0.742358 -0.138791 3.86162 160 229 202
-0.920327 -0.134023 3.86852 91 171 124
-0.201396 -0.134229 4.00893 103 171 140
0.817745 -0.129162 3.84339 89 151 135
1.34128 -0.125706 3.7612 87 151 139
-0.876895 -0.122339 3.89889 123 186 146
-0.131494 -0.122598 3.96818 98 141 114
1.71371 -0.116336 3.69349 102 151 135
-1.12544 -0.126892 4.15066 173 207 206
-0.884357 -0.112353 3.89915 161 231 190
1.66548 -0.106653 3.70023 110 152 145
1.69431 -0.105732 3.70549 127 161 154
-1.11651 -0.110741 4.15849 137 178 151
1.67052 -0.099468 3.69568 186 220 214
2.08093 -0.0857637 3.64542 126 173 165
-1.22036 -0.0912187 4.20225 72 103 82
1.23466 -0.0766029 3.77413 99 169 152
-1.2549 -0.0635356 4.20975 166 233 206
2.07437 -0.053207 3.64525 117 157 146
1.28233 -0.0538664 3.77047 102 165 149
-2.5294 -0.0526719 4.44491 91 156 117
0.960272 -0.0437358 3.83026 196 243 234
1.87522 -0.0351036 3.68634 91 146 131
-1.18179 -0.0201538 4.20595 187 219 242
-1.15545 -0.0209844 4.20164 142 167 187
1.01597 0.0198142 3.82129 162 221 200
0.826824 0.0267775 3.86074 112 180 157
1.17273 0.0408497 3.79393 78 114 98
-2.77926 0.052471 4.50452 93 174 147
-0.843206 0.0481819 3.9404 156 215 171
1.39509 0.045561 3.77067 109 173 161
-2.61448 0.0660287 4.47318 144 203 175
0.977619 0.0604945 3.83188 97 162 140
1.20047 0.0606762 3.79453 129 185 174
-1.17969 0.079723 4.23323 127 190 164
1.60405 0.0693327 3.74373 122 162 160
0.985674 0.079024 3.83728 118 179 159
0.947555 0.0851218 3.83222 105 165 147
1.22163 0.0848374 3.78852 103 165 149
-0.197428 0.0928242 3.99537 84 126 119
1.17015 0.0861056 3.80212 96 155 141
1.04678 0.0902229 3.82982 108 161 148
-1.18976 0.106732 4.24413 138 187 167
0.865767 0.0964264 3.85538 99 174 152
1.1621 0.100636 3.80714 92 131 123
0.800021 0.102865 3.86867 92 170 147
1.17727 0.10523 3.80884 178 226 208
-0.202251 0.113589 3.99079 50 111 91
-0.220739 0.1161 4.00321 76 148 125
2.24645 0.106002 3.62757 150 226 172
-0.192937 0.122662 3.97598 176 239 200
1.61587 0.120748 3.73751 119 170 163
-0.813946 0.135895 3.92993 98 149 115
-1.58979 0.151369 4.291 126 178 154
1.45582 0.136666 3.77464 89 142 133
2.23636 0.133075 3.64186 54 87 60
1.80028 0.150524 3.71978 123 179 168
0.374352 0.1667 3.92283 45 64 49
-0.0873161 0.173537 3.93703 169 241 195
1.56173 0.170369 3.75738 143 208 192
1.26732 0.177628 3.80008 79 116 106
1.00586 0.182489 3.83053 67 109 98
0.56089 0.187677 3.88437 38 76 48
0.223104 0.199121 3.94338 61 120 92
-1.32912 0.218528 4.24385 100 152 135
-1.5005 0.321769 6.16991 133 164 135
0.57454 0.203879 3.89019 150 219 176
1.60076 0.193605 3.75049 96 151 136
1.59893 0.20037 3.75533 80 121 113
0.273657 0.211143 3.92041 138 216 169
0.232847 0.213554 3.91886 172 252 205
0.819703 0.210538 3.87581 68 140 104
1.86012 0.2032 3.7173 115 175 164
0.227927 0.224794 3.93938 129 199 152
1.56638 0.216292 3.76745 78 140 128
-0.334941 0.243737 3.99328 171 231 197
-0.225539 0.241673 4.00239 59 124 99
1.49359 0.235778 3.77131 117 156 154
-0.192696 0.256155 3.99653 164 229 190
-0.107252 0.249284 3.94008 51 92 61
1.09468 0.246683 3.82864 84 138 115
1.32599 0.260355 3.80973 113 160 144
1.49083 0.254488 3.77643 127 166 158
1.32833 0.262298 3.8156 105 160 141
1.91799 0.257019 3.71826 88 146 122
1.51842 0.270237 3.77901 110 148 142
2.161 0.255169 3.51494 139 177 147
1.92527 0.27309 3.71575 101 134 119
-1.4511 0.323436 4.25469 132 170 172
1.30491 0.29289 3.81657 105 133 127
2.16576 0.271517 3.52571 140 180 152
1.50513 0.294929 3.77777 117 160 149
1.43695 0.298585 3.79545 98 155 140
-0.232154 0.316377 4.00403 77 135 110
1.91746 0.296521 3.7215 131 165 148
1.51772 0.313375 3.77925 119 178 163
0.89319 0.330484 3.88462 202 246 229
-1.17993 0.361113 4.18406 101 157 146
-0.302971 0.347354 4.01659 160 234 200
2.07218 0.309826 3.57437 66 95 72
1.89715 0.323935 3.73562 124 140 123
0.977907 0.340905 3.86097 90 159 126
0.945759 0.34586 3.86464 175 247 205
-0.426559 0.363898 3.97983 161 225 173
-0.346488 0.369334 4.03268 188 230 199
0.961685 0.357128 3.87161 117 179 149
-0.311658 0.379173 4.03982 161 225 195
-0.310467 0.37882 4.03879 147 211 182
1.52496 0.359653 3.78687 107 139 128
0.253592 0.377282 3.93921 175 245 209
1.93098 0.357001 3.72677 117 142 128
-1.1663 0.412071 4.2044 122 152 163
1.39867 0.371658 3.80992 124 171 162
-0.342856 0.401036 4.02592 158 249 204
0.983994 0.387577 3.86797 75 145 109
1.19928 0.392184 3.8402 180 239 224
-0.206793 0.413184 4.01508 166 234 209
1.18265 0.405609 3.84247 154 206 188
1.75875 0.398872 3.75178 106 155 141
1.1373 0.415691 3.84744 159 214 197
1.50306 0.410356 3.80235 92 154 132
1.54628 0.408045 3.78882 108 159 151
1.83263 0.405779 3.75453 159 204 195
-1.17219 0.45659 4.1827 154 207 198
-1.90698 0.481251 4.37061 124 195 162
-0.535581 0.444621 4.04266 96 133 93
1.92328 0.42166 3.73076 129 192 176
-1.32077 0.470642 4.16728 74 138 108
1.87541 0.424449 3.74499 141 183 166
1.16462 0.441509 3.83435 101 156 141
1.73105 0.438138 3.772 183 230 221
1.8993 0.443485 3.74011 156 216 198
-0.883593 0.500847 4.10608 61 104 71
-0.410902 0.496668 4.04655 66 114 86
-1.09001 0.518905 4.21499 155 188 181
0.75576 0.48071 3.89128 74 127 94
1.95283 0.467898 3.72885 107 126 105
-0.352124 0.511648 4.05065 156 247 198
1.9219 0.474707 3.75069 128 175 153
-1.08544 0.540948 4.21742 94 123 130
-0.921445 0.5263 4.09715 75 115 80
-0.781667 0.52923 4.08598 124 161 135
-0.402327 0.528887 4.05218 168 220 190
0.674149 0.512716 3.91345 94 170 129
1.89292 0.505741 3.75814 109 156 148
-0.317625 0.544141 4.03741 64 127 88
-0.898894 0.563024 4.11602 90 141 103
-0.715438 0.557121 4.06552 143 229 181
-0.588285 0.555023 4.06185 155 202 164
-0.624446 0.565457 4.10115 154 200 164
2.11345 0.5127 3.70541 135 167 126
-0.273378 0.571206 4.04659 109 184 133
-0.261301 0.573788 4.04346 97 163 128
0.536084 0.5727 3.96811 98 141 130
1.13668 0.560416 3.8659 106 165 150
-0.210868 0.593674 4.03088 50 93 82
1.31465 0.567953 3.8459 153 224 204
-0.225493 0.600649 4.04672 63 127 105
-0.427417 0.608812 4.07773 43 124 91
-0.343893 0.607262 4.06206 77 123 94
-0.750902 0.623698 4.12161 155 219 183
-0.395313 0.614526 4.07355 49 108 87
-0.330092 0.613324 4.05631 32 59 33
1.17749 0.583724 3.85801 108 164 151
1.66824 0.574565 3.78337 126 142 158
-0.839518 0.631237 4.14553 158 235 201
-0.435595 0.626079 4.06507 100 144 121
-0.368229 0.625167 4.08519 76 126 108
-0.340085 0.629019 4.07665 74 116 99
-0.821352 0.639535 4.15238 125 195 165
-2.81215 0.712341 4.57596 99 155 134
1.14764 0.614204 3.86576 163 213 203
1.43127 0.614548 3.85206 81 136 111
-0.220646 0.649846 4.04362 88 153 108
2.00667 0.605247 3.74362 140 169 143
1.73313 0.62113 3.789 220 239 244
-0.45639 0.670334 4.07658 158 232 190
-0.249831 0.665876 4.05674 151 222 182
-0.417394 0.669383 4.0661 71 128 95
-0.0981576 0.669503 4.04298 175 228 218
-0.266629 0.676396 4.06761 58 113 86
-0.0890519 0.672393 4.0363 89 128 102
1.71701 0.632821 3.79455 90 82 99
1.75151 0.630976 3.78742 127 138 160
1.7203 0.635797 3.80146 92 85 100
1.429 0.646363 3.844 88 123 109
-0.146265 0.684902 4.03489 91 146 129
-0.909067 0.711598 4.18851 83 127 110
1.26585 0.658801 3.85544 106 147 126
2.0044 0.642045 3.75137 89 117 94
-1.81675 0.761289 4.40325 194 227 220
1.37615 0.667678 3.84304 98 152 135
1.73977 0.662936 3.79217 91 100 114
1.18338 0.678608 3.88082 83 153 130
-0.231664 0.717347 4.07197 93 173 138
-0.507155 0.727272 4.11158 164 198 174
1.74958 0.667623 3.77989 171 204 220
-0.919084 0.739114 4.16849 145 226 187
-0.463343 0.726538 4.08791 92 161 128
1.43006 0.683996 3.84776 118 155 145
1.45239 0.690251 3.84875 106 161 146
-0.301626 0.757084 4.04836 71 144 104
-0.0807565 0.754179 4.04366 66 129 97
-0.526707 0.784963 4.15268 132 191 171
-0.242602 0.769549 4.06898 79 168 135
1.37003 0.736271 3.87096 174 233 225
1.33066 0.739413 3.87191 174 225 211
1.35557 0.743904 3.87002 121 173 166
2.13931 0.721165 3.75314 136 179 170
-1.23609 0.808277 4.19231 198 252 223
-0.165938 0.789722 4.06908 62 100 102
2.10004 0.738771 3.75876 160 219 199
2.14275 0.737791 3.75662 86 107 92
1.91833 0.758469 3.79101 87 131 124
-0.24173 0.819664 4.08148 145 248 203
1.96071 0.775828 3.78962 187 219 224
1.98996 0.774279 3.78251 220 241 242
-0.693561 0.863424 4.16741 133 219 195
-0.785888 0.865591 4.15405 181 239 215
-0.375328 0.858574 4.09057 59 121 91
-0.198059 0.858448 4.09469 97 166 139
1.51444 0.812357 3.8575 100 147 139
1.87358 0.805034 3.8075 108 121 143
1.41787 0.821565 3.88075 176 241 216
1.63084 0.811563 3.83029 133 158 184
1.22272 0.837178 3.89911 82 145 125
2.00153 0.826412 3.77901 106 116 133
1.59725 0.849488 3.83978 126 139 155
-1.38098 0.974936 4.30373 72 104 93
1.67818 0.877758 3.83971 206 230 236
0.930602 0.907254 3.96057 156 236 193
1.68529 0.885708 3.85597 144 158 177
2.08376 0.878164 3.7836 83 97 95
-0.815526 0.972984 4.18194 67 134 97
1.50662 0.903148 3.87657 106 143 141
-0.411406 0.960235 4.08975 170 238 207
-0.821943 0.984341 4.18644 69 109 84
1.69157 0.901364 3.83316 88 99 121
-0.290842 0.970917 4.11162 161 234 208
0.810762 0.953517 3.97941 93 147 124
1.56164 0.922726 3.85943 75 76 96
1.12047 0.94016 3.92173 103 165 141
1.12217 0.942205 3.92586 106 172 147
1.25284 0.937337 3.90052 127 161 154
1.45821 0.93653 3.88984 212 239 235
1.92648 0.933302 3.81783 121 177 164
-1.52212 1.08379 4.40621 116 164 146
1.62705 0.949117 3.83539 128 139 159
0.724043 1.00583 4.0132 96 144 118
1.81974 0.985243 3.83712 118 129 151
0.846456 1.02776 3.99673 158 235 201
1.22696 1.01223 3.94048 219 238 235
-0.292141 1.06476 4.13174 62 102 67
1.7808 0.999039 3.85169 183 213 214
0.718392 1.05292 4.01869 135 211 179
0.821671 1.05002 3.99728 97 143 114
1.97777 1.00614 3.83175 101 132 117
0.765126 1.05512 4.01896 112 178 153
1.9638 1.00847 3.82677 148 187 172
0.805285 1.05775 3.99666 169 229 198
0.831744 1.06584 3.9989 84 130 108
0.7659 1.07118 4.01395 100 170 147
1.80705 1.02478 3.83905 82 84 84
1.95816 1.02502 3.83404 159 203 190
-0.0265391 1.06858 3.98198 250 255 252
1.45538 1.05717 3.90427 106 161 142
1.82721 1.04456 3.8488 183 224 219
-1.47742 1.19633 4.39154 122 175 155
1.47678 1.07238 3.90469 106 153 137
-0.483325 1.15705 4.15765 91 138 122
0.671591 1.13125 4.02641 107 180 148
0.81915 1.13043 4.00757 123 181 153
1.51098 1.0972 3.89793 113 161 149
1.95907 1.08032 3.8364 138 180 157
0.860582 1.12655 3.97391 147 234 201
0.61709 1.15249 4.04699 152 222 182
0.730737 1.14588 4.0167 180 238 210
1.94937 1.09363 3.83097 179 231 208
1.52707 1.12005 3.88934 175 209 199
1.86793 1.11234 3.86188 106 162 143
0.836228 1.15275 3.99449 176 239 197
0.838445 1.15469 3.99414 175 237 197
1.21636 1.16357 3.95243 253 255 254
0.675791 1.20424 4.04462 98 159 139
0.90454 1.2026 3.99786 158 249 200
1.47469 1.18788 3.92577 206 238 219
0.533034 1.23728 4.0816 100 155 140
1.46557 1.19496 3.92695 143 184 169
1.46573 1.20555 3.92567 244 255 246
-0.62689 1.3036 4.19838 162 222 181
0.521195 1.27054 4.08544 129 185 164
-0.715341 1.31268 4.16226 99 160 124
-1.68141 -1.65424 4.17059 159 235 193
-1.45516 -1.64177 4.13762 74 144 108
-1.48991 -1.63314 4.13246 87 135 99
-1.57802 -1.6376 4.16929 85 142 104
-1.39968 -1.61912 4.12083 129 193 151
-1.56735 -1.623 4.15392 164 233 183
0.232296 -1.49478 3.83356 110 177 150
-1.66369 -1.62234 4.1794 129 186 148
-0.761711 -1.54713 3.9915 56 77 52
1.39826 -1.39334 3.59754 90 119 110
1.51609 -1.38846 3.58571 121 169 151
-2.3009 -1.65137 4.27759 62 81 66
-1.73665 -1.6197 4.19671 79 125 103
-1.49042 -1.59507 4.13805 139 189 149
-1.47545 -1.60097 4.1405 68 98 57
1.34828 -1.3899 3.60579 86 121 107
-1.39684 -1.58901 4.12529 58 85 52
-1.71443 -1.60186 4.19213 87 144 106
-1.67674 -1.6013 4.18587 148 229 190
-0.626587 -1.52627 4.00345 105 148 139
-2.28509 -1.63068 4.29038 89 115 92
-1.43664 -1.56191 4.13333 129 204 158
1.49028 -1.35002 3.5974 255 254 255
-1.46138 -1.55089 4.14033 73 116 83
-1.84167 -1.57365 4.21742 105 189 164
-1.31989 -1.53316 4.11983 74 90 66
-0.803202 -1.50032 4.03349 175 233 228
-1.52051 -1.5447 4.15772 121 168 136
-0.840727 -1.49893 4.0332 167 230 210
-1.39404 -1.52958 4.13234 128 212 164
-1.4414 -1.5254 4.13515 227 255 243
-0.87629 -1.49052 4.04286 127 168 163
-0.864061 -1.49353 4.04457 69 98 95
1.60114 -1.32436 3.58686 95 154 146
-0.0813448 -1.42038 3.9061 92 145 125
1.21782 -1.32686 3.64332 78 114 90
1.23886 -1.31439 3.61189 151 208 170
-1.77327 -1.52638 4.20346 93 150 129
-0.978989 -1.47083 4.05386 58 77 56
-0.955341 -1.4737 4.05553 104 147 136
-1.40422 -1.49756 4.13869 109 160 126
1.61652 -1.29794 3.58639 118 165 157
-1.11122 -1.47072 4.08309 102 129 95
-1.01629 -1.46565 4.062 91 143 113
-1.003 -1.46386 4.05695 63 73 56
1.21349 -1.31514 3.64064 119 164 137
-0.516095 -1.42986 3.98456 100 182 153
-1.43704 -1.48855 4.15625 137 186 148
0.871483 -1.33251 3.71871 79 137 119
-1.54392 -1.4888 4.16782 86 143 112
-1.61271 -1.48928 4.18881 109 169 135
-0.986385 -1.44604 4.07163 173 218 229
-1.48641 -1.46485 4.1591 119 171 131
0.948551 -1.30186 3.70973 110 169 155
-1.62631 -1.46027 4.1704 72 126 97
-1.10719 -1.43586 4.09916 83 116 112
-1.61681 -1.46031 4.18149 144 218 188
-0.971835 -1.42624 4.08973 126 161 194
-1.70194 -1.45897 4.19205 131 186 171
-1.63388 -1.44838 4.18248 156 237 210
-1.55387 -1.44617 4.17286 75 113 85
1.09621 -1.27104 3.67302 95 142 126
-1.60058 -1.43777 4.17388 135 206 186
0.582104 -1.30477 3.78193 105 158 148
-1.19064 -1.41525 4.11033 139 179 167
-0.896371 -1.39244 4.04817 104 163 148
1.30671 -1.24207 3.60592 138 184 161
-1.60445 -1.43915 4.18704 141 213 190
1.15704 -1.25619 3.66138 120 184 154
-1.22535 -1.40694 4.12556 112 145 130
-1.71075 -1.42461 4.18607 127 165 147
0.711669 -1.28083 3.76264 157 219 207
-1.15749 -1.39687 4.11789 90 102 96
-1.66828 -1.41649 4.17799 83 147 117
-1.19117 -1.39529 4.1149 167 215 209
0.581334 -1.27917 3.78717 101 144 133
-1.23577 -1.38765 4.12307 140 194 187
0.682493 -1.26901 3.76707 118 171 162
-0.992312 -1.36917 4.07986 160 229 214
1.47157 -1.21018 3.60729 94 156 138
-1.72373 -1.40436 4.19643 126 182 153
-0.364027 -1.32099 3.95579 83 126 111
1.15363 -1.21966 3.66198 111 166 147
1.16789 -1.21536 3.65418 90 133 112
-1.47122 -1.38044 4.16523 153 207 178
-1.24031 -1.36793 4.12387 68 97 88
-1.03848 -1.34995 4.07555 95 150 135
-1.55121 -1.37608 4.16928 137 167 148
-1.26509 -1.36263 4.13503 166 220 213
-1.12274 -1.35204 4.10478 157 201 225
-1.69903 -1.37687 4.1958 157 221 202
-1.14381 -1.34661 4.10701 173 224 255
0.988132 -1.21412 3.70145 130 176 170
-1.66265 -1.36317 4.17853 147 195 171
-1.1598 -1.34223 4.10902 115 124 128
1.02678 -1.20503 3.69552 123 166 157
-1.3004 -1.33651 4.12165 76 102 84
1.06374 -1.19122 3.69299 81 118 102
1.14621 -1.17928 3.67025 102 151 143
0.191287 -1.23779 3.86388 111 176 155
1.06584 -1.18297 3.69492 139 192 165
-1.06484 -1.2972 4.07858 72 130 102
0.377487 -1.22054 3.82322 114 181 149
-1.32376 -1.30789 4.12847 143 201 183
-1.23911 -1.31046 4.13087 164 216 223
-0.0459598 -1.23656 3.89754 91 146 119
-1.4655 -1.31912 4.16923 92 138 116
-1.0469 -1.28348 4.07566 125 183 165
-1.58328 -1.32039 4.19133 152 208 187
-1.44453 -1.31168 4.16677 73 92 65
-1.08884 -1.28414 4.09026 106 148 125
0.86949 -1.17449 3.73263 111 168 159
-1.10658 -1.28848 4.11149 152 219 188
1.14912 -1.14823 3.6646 87 122 108
1.27578 -1.14154 3.65797 129 172 161
-1.50492 -1.29175 4.16629 80 99 72
-1.21928 -1.27541 4.1215 95 139 133
-1.7047 -1.29541 4.19993 107 161 144
-1.52242 -1.28814 4.18138 116 181 149
-1.31086 -1.27876 4.13344 98 107 116
1.26148 -1.12492 3.65869 70 103 88
-1.2689 -1.2676 4.12572 154 193 221
-1.1517 -1.26275 4.10819 120 176 157
1.04734 -1.13454 3.704 108 154 142
-1.37289 -1.26133 4.14813 169 229 228
-1.25134 -1.25284 4.13255 98 152 153
-1.34759 -1.25689 4.1527 192 232 255
-1.29327 -1.25651 4.14836 83 105 100
-1.45266 -1.25569 4.17929 123 171 159
-1.16511 -1.23693 4.11381 101 175 157
-1.52793 -1.2526 4.18274 115 149 125
-1.71924 -1.24837 4.19535 103 150 124
-1.37118 -1.23907 4.15846 213 248 255
-0.325865 -1.14507 3.87481 65 125 84
0.481689 -1.11999 3.80974 157 217 199
-1.32443 -1.22601 4.16324 92 145 142
1.74647 -1.05255 3.57992 119 174 157
-1.68436 -1.23054 4.20577 98 140 117
-0.89473 -1.17379 4.00856 61 96 70
-1.51266 -1.21376 4.17056 97 108 106
-1.19369 -1.19579 4.10663 99 150 122
-1.04816 -1.18724 4.0791 154 223 178
-1.59012 -1.21473 4.19248 150 219 186
-1.53256 -1.20833 4.18566 172 219 241
-1.06421 -1.17893 4.09177 77 131 101
-0.839846 -1.15658 3.99949 122 191 158
0.601975 -1.07751 3.75865 89 130 122
0.622118 -1.07882 3.76218 96 145 129
-1.52877 -1.19211 4.1778 173 210 232
-1.7126 -1.18729 4.21426 114 172 148
-1.4181 -1.17132 4.16557 92 131 115
-1.19759 -1.16159 4.12025 116 178 162
-1.6281 -1.18052 4.20322 176 215 247
-1.4654 -1.1733 4.18272 142 195 186
0.00382398 -1.09705 3.91207 78 162 128
0.0779083 -1.09373 3.88932 141 221 192
1.40603 -1.02207 3.6417 104 171 156
-1.12688 -1.14984 4.11175 75 132 107
-1.51157 -1.16415 4.17387 96 124 104
-1.41792 -1.16248 4.18002 127 179 162
0.116155 -1.08012 3.88215 162 239 211
1.12042 -1.03108 3.69477 102 155 145
-1.12588 -1.13333 4.08153 155 242 208
-0.630546 -1.0854 3.90944 131 189 160
-1.40226 -1.15451 4.17288 175 238 242
1.00708 -1.01912 3.70819 109 157 151
-2.53249 -1.19851 4.38949 101 164 148
-1.7835 -1.15347 4.21768 122 185 165
0.0182452 -1.06638 3.92642 117 181 162
0.967542 -1.00741 3.73339 163 215 205
-0.730309 -1.05971 3.95145 154 209 176
0.594491 -1.01877 3.79037 74 110 96
0.837581 -1.00967 3.75796 102 145 136
-1.42959 -1.10921 4.16861 92 139 123
-1.44443 -1.0918 4.16956 115 160 144
-1.40033 -1.09392 4.17908 85 144 130
1.60549 -0.944681 3.62412 104 174 157
-1.41412 -1.08704 4.17437 156 221 205
0.613595 -0.983814 3.78825 150 217 186
-1.42319 -1.08044 4.16888 109 164 149
-1.01157 -1.0577 4.08003 95 138 127
0.533128 -0.979189 3.80498 55 103 85
0.567645 -0.981382 3.81173 67 118 91
-2.10405 -1.09911 4.29604 107 197 161
0.0686644 -0.996398 3.89547 83 131 113
1.52506 -0.928089 3.6435 102 168 156
-0.0754758 -0.995217 3.91692 66 118 88
0.593639 -0.96496 3.80929 88 134 121
0.0132735 -0.990172 3.91608 106 171 156
-0.163159 -0.988226 3.91997 93 144 116
-0.811573 -0.999313 3.98295 75 109 72
-0.0912022 -0.986177 3.92906 73 118 92
0.876252 -0.941587 3.74747 118 169 161
-0.239697 -0.984753 3.92489 93 146 119
0.54128 -0.950168 3.81711 113 172 158
-1.08986 -1.013 4.07795 107 177 140
-0.0677492 -0.975651 3.92894 100 157 136
1.67749 -0.896031 3.61098 111 180 159
1.14195 -0.913766 3.70716 103 157 144
-0.99784 -0.996129 4.0628 120 209 169
-0.523824 -0.951902 3.88465 62 110 84
-1.12228 -0.99948 4.09391 82 123 96
-0.461918 -0.949231 3.89391 128 169 124
-0.261266 -0.960114 3.94393 78 130 120
-0.471237 -0.933758 3.89494 170 246 198
-1.12816 -0.973643 4.10181 98 155 124
-0.980131 -0.967642 4.0652 58 77 52
-0.490843 -0.928998 3.90323 166 233 204
0.0466519 -0.921044 3.91606 83 146 136
-1.09683 -0.947828 4.08903 144 243 197
1.29307 -0.854898 3.68387 103 139 127
-1.1788 -0.951999 4.12299 164 238 202
1.06902 -0.858457 3.72473 111 160 152
-0.148287 -0.896849 3.92626 99 159 141
0.4937 -0.873332 3.83518 98 149 135
-1.13261 -0.927809 4.10619 215 255 237
0.0187335 -0.88423 3.91 103 162 154
-1.17133 -0.914359 4.1283 199 255 227
0.520523 -0.851826 3.8532 109 167 162
-1.09078 -0.906608 4.10825 62 99 83
0.081618 -0.860243 3.91175 92 155 135
-0.851065 -0.876883 4.02585 165 244 205
0.0502777 -0.852307 3.92401 86 173 145
-1.95618 -0.923348 4.26967 135 184 168
-0.804225 -0.874316 4.04423 54 112 94
-1.06594 -0.874736 4.07583 77 127 103
-1.58411 -0.898594 4.20868 90 162 140
-1.67705 -0.892737 4.22549 219 253 246
-0.875468 -0.846915 4.03806 177 250 224
0.0687067 -0.818621 3.91264 81 142 116
0.103747 -0.818312 3.90775 101 154 144
-1.33325 -0.862193 4.15554 169 236 207
0.00242676 -0.797446 3.93322 106 178 165
-1.1812 -0.83371 4.11524 61 102 74
-1.36375 -0.830876 4.17699 137 213 182
-1.31928 -0.822228 4.13848 147 236 192
-0.145235 -0.781768 3.95703 126 185 194
-1.13317 -0.809668 4.12122 65 111 88
0.887043 -0.741153 3.76851 107 165 140
-1.34821 -0.817465 4.17315 68 117 85
1.01526 -0.725363 3.74812 93 175 156
0.871154 -0.729563 3.76678 105 153 135
0.906449 -0.725062 3.76405 84 116 105
-1.20394 -0.778604 4.13069 68 115 89
0.837524 -0.711348 3.79078 95 144 124
-1.35253 -0.780136 4.16852 106 157 123
-1.07712 -0.765192 4.10792 85 155 118
1.32623 -0.678949 3.69318 123 159 153
0.824299 -0.695917 3.78697 102 155 141
-1.06648 -0.751099 4.10318 155 241 193
-1.14905 -0.750527 4.13403 99 166 139
-1.02947 -0.745088 4.10492 65 106 79
1.32923 -0.668487 3.69579 118 160 143
-1.05428 -0.73952 4.11333 88 140 103
-0.931144 -0.733205 4.0978 92 138 115
0.892119 -0.675658 3.77544 123 161 163
2.08587 -0.637797 3.57737 117 178 180
-0.959921 -0.725142 4.10438 103 159 140
-1.27595 -0.731716 4.14801 157 224 187
-0.525715 -0.705216 3.99425 78 139 101
0.556186 -0.675435 3.85333 97 156 142
-1.29123 -0.721905 4.1815 87 152 136
1.95857 -0.617886 3.5952 222 255 246
-1.57156 -0.71484 4.21659 113 175 151
0.786891 -0.642704 3.80419 107 172 151
-1.3282 -0.675507 4.17389 115 175 164
0.474549 -0.61737 3.86546 113 173 163
1.92371 -0.577599 3.60749 100 153 144
0.735412 -0.588672 3.82261 77 133 110
0.78425 -0.576428 3.80718 115 167 150
1.9211 -0.54189 3.61454 115 184 174
1.06099 -0.55691 3.75726 102 160 142
1.10122 -0.542539 3.74531 116 157 149
-1.51533 -0.597972 4.21668 120 195 167
0.768055 -0.521939 3.81829 97 162 137
2.05259 -0.49302 3.59349 251 255 255
0.350094 -0.50833 3.8924 107 176 161
0.845094 -0.496498 3.79167 168 238 198
-1.82113 -0.548575 4.28126 94 163 143
0.87095 -0.487151 3.79915 171 227 198
0.368581 -0.493098 3.88174 151 220 199
-2.08367 -0.536473 4.32029 123 189 178
-1.62331 -0.496958 4.24446 103 169 134
0.96468 -0.445351 3.80209 100 168 143
-1.76456 -0.493814 4.26308 104 160 141
0.941652 -0.404396 3.78171 88 133 114
-0.43354 -0.409015 3.93658 165 236 193
0.803941 -0.388368 3.82728 92 144 126
0.652599 -0.376899 3.85866 100 155 140
2.01211 -0.338907 3.6228 127 183 162
1.41267 -0.34179 3.70608 131 168 152
-2.00088 -0.39112 4.32394 92 154 132
-0.0266689 -0.34967 3.97771 101 155 148
-2.30148 -0.383474 4.38264 102 175 153
-2.36187 -0.367979 4.37709 75 105 80
-2.37557 -0.353898 4.3789 83 134 106
-2.34663 -0.361234 4.38236 100 139 118
-0.860313 -0.312828 3.84361 73 124 86
-0.220838 -0.320397 3.98867 93 134 126
2.02747 -0.284175 3.62726 108 172 153
-2.04053 -0.320617 4.33651 111 173 155
-1.94928 -0.31591 4.31648 126 189 173
-0.868507 -0.27359 3.85648 64 115 81
0.721506 -0.264105 3.84685 110 165 148
0.744005 -0.252544 3.84649 93 142 126
-0.872043 -0.24082 3.85011 146 189 152
-2.54098 -0.222968 4.40923 31 60 27
-2.20147 -0.221601 4.36726 116 181 155
1.31276 -0.17652 3.76386 117 172 155
0.618854 -0.173811 3.86885 86 160 124
-2.04368 -0.190277 4.3463 110 183 161
-2.52414 -0.189084 4.42354 77 136 105
-0.180744 -0.160991 3.99694 80 143 111
-2.36453 -0.17193 4.41076 91 153 123
-2.5092 -0.161742 4.41018 95 169 121
0.619555 -0.134608 3.86326 126 182 169
-1.22407 -0.141615 4.1855 77 112 98
-0.855025 -0.127286 3.89621 72 78 61
-0.132001 -0.121152 3.97472 102 142 117
1.92797 -0.110145 3.66485 96 135 127
0.900578 -0.0922977 3.82789 127 187 177
-1.72162 -0.0932034 4.29584 117 182 157
-1.84373 -0.0661343 4.31719 122 195 163
-2.71312 -0.062438 4.46414 85 152 121
-1.20218 -0.0575429 4.20576 148 194 175
-2.53009 -0.0526323 4.44509 91 156 117
-1.83858 -0.0526872 4.33088 123 184 156
-2.46643 -0.0351511 4.44343 121 194 172
-1.20315 -0.0329015 4.20837 118 163 160
-2.65256 -0.0186954 4.45895 80 134 104
-0.212117 -0.0116422 3.96053 78 92 90
1.94165 -0.0115799 3.67917 197 235 229
2.29766 -0.00942225 3.61797 108 167 159
-2.64472 -0.00043408 4.47145 74 120 91
-1.12919 0.00441187 4.203 101 105 100
-1.16181 0.00604426 4.20687 107 140 143
0.978878 0.00713246 3.84105 101 148 132
-1.698 0.0117337 4.29264 116 183 168
-1.12505 0.015575 4.20812 132 149 140
1.01206 0.0191185 3.82051 159 218 198
-1.12291 0.0266319 4.2078 67 84 73
0.825418 0.0240183 3.84932 108 173 151
1.01195 0.0359761 3.83424 77 107 96
1.07955 0.0459341 3.81245 150 204 187
1.6586 0.0441124 3.724 111 148 144
-0.778298 0.0507426 3.92795 46 81 54
-2.43255 0.0726115 4.4548 106 169 129
1.18768 0.0735315 3.81226 88 137 121
-0.197079 0.0931209 3.99646 81 119 113
2.29448 0.0855367 3.6236 177 251 203
0.865154 0.096109 3.85427 93 165 145
1.09947 0.10174 3.80942 144 186 179
1.16118 0.100173 3.80554 92 131 123
2.3167 0.102286 3.62404 154 224 177
-1.10013 0.134329 4.20392 160 227 200
-1.12635 0.139505 4.20086 114 154 149
0.917542 0.128086 3.86166 79 136 121
1.58255 0.122197 3.75743 112 170 159
1.71695 0.121605 3.72678 97 150 141
1.73898 0.121254 3.72266 126 178 168
1.31315 0.126896 3.77862 117 182 167
1.55172 0.125727 3.75674 183 234 226
1.95157 0.127742 3.69417 97 163 138
-0.481877 0.140988 3.89764 51 97 68
1.79036 0.135443 3.72067 88 144 133
2.06614 0.134164 3.67397 184 227 218
1.79947 0.149392 3.7186 125 181 170
1.32882 0.159021 3.78602 99 152 139
1.71285 0.160903 3.73005 91 139 127
1.12063 0.171408 3.81244 111 174 158
0.19314 0.192505 3.94048 94 118 110
0.900209 0.18951 3.85544 70 118 100
0.574837 0.204277 3.89148 150 219 176
1.31164 0.199339 3.78926 196 235 227
-0.21774 0.227437 3.99853 86 151 125
-0.732644 0.237872 3.97148 99 128 105
1.26578 0.233593 3.79987 100 158 140
1.96222 0.229861 3.7082 87 123 99
-1.41994 0.260249 4.24198 101 168 136
1.4877 0.231671 3.77728 103 154 147
1.61011 0.23676 3.76952 87 133 120
0.210429 0.25406 3.90414 89 139 115
-0.196144 0.268544 4.00497 79 111 86
1.49242 0.255316 3.77891 114 151 143
1.92017 0.249351 3.71465 148 219 192
1.45452 0.263099 3.78912 80 135 120
1.91495 0.255016 3.71233 105 164 136
1.95021 0.256587 3.70904 104 136 101
1.28051 0.268979 3.81695 110 164 151
-0.244533 0.287235 4.0074 75 120 94
1.91387 0.266204 3.72383 123 186 166
1.09831 0.285926 3.83664 210 251 243
0.0820397 0.30341 3.94183 185 249 214
-1.88482 0.344154 4.3433 127 177 159
1.43591 0.296984 3.79076 105 160 145
1.6454 0.308298 3.75395 113 146 139
0.192874 0.331036 3.92377 46 91 58
1.53804 0.338053 3.79121 119 170 162
-0.230769 0.367781 4.00206 56 71 43
1.20977 0.347594 3.8205 77 121 108
1.46642 0.345794 3.79338 92 150 132
1.39361 0.369845 3.80201 119 162 153
1.12373 0.39166 3.84163 108 158 128
1.72849 0.380437 3.75765 87 139 121
1.86499 0.378675 3.74401 134 179 160
-0.643831 0.414141 4.03606 77 104 88
1.75106 0.386952 3.75218 84 133 119
-1.08318 0.442063 4.20604 194 237 228
-0.814413 0.422261 4.04117 63 81 64
1.75847 0.397594 3.75181 101 147 135
1.81777 0.396624 3.74518 117 154 144
1.14111 0.410072 3.83239 78 128 110
1.05581 0.418124 3.86888 89 154 132
1.88583 0.404765 3.73996 148 181 167
1.75275 0.41384 3.76372 102 139 129
-0.535485 0.457312 4.0458 85 129 92
-1.26482 0.473504 4.16563 64 97 82
0.974434 0.441684 3.87188 153 213 195
-1.24604 0.481264 4.15767 103 181 158
-1.09506 0.488392 4.21724 159 205 193
0.598344 0.456349 3.94459 157 222 196
1.73531 0.435006 3.75772 97 139 128
1.52145 0.44502 3.80484 106 162 141
-0.160442 0.470994 3.98999 52 103 75
0.981473 0.459194 3.8865 94 147 137
-0.757562 0.493113 4.05557 31 38 23
-1.07893 0.5132 4.2198 78 109 102
-0.883543 0.502235 4.10988 45 82 50
1.14516 0.472926 3.85109 99 158 144
1.80547 0.469715 3.76192 112 168 155
1.91077 0.466614 3.73568 144 198 181
-1.07707 0.530897 4.20793 180 239 231
-0.876377 0.516643 4.11167 109 172 130
-0.790629 0.536125 4.08418 180 227 194
1.90711 0.489219 3.74302 148 202 189
1.18769 0.516314 3.85923 129 182 172
1.89481 0.507183 3.76174 109 156 148
-0.277268 0.553033 4.04899 52 108 79
-1.04217 0.58603 4.2113 178 231 222
0.595401 0.545357 3.94721 98 123 113
1.61264 0.535703 3.81842 107 166 158
1.62455 0.533668 3.8019 229 255 251
-0.782659 0.577098 4.09018 168 228 194
-0.923735 0.589586 4.13644 111 178 139
-0.650578 0.5928 4.1138 41 52 36
-0.202018 0.577491 4.02634 61 81 62
-1.92157 0.638009 4.40738 97 153 110
1.13728 0.560614 3.86639 104 161 146
1.97854 0.542792 3.74435 125 179 162
-0.289053 0.59319 4.03992 88 168 115
-1.32183 0.619751 4.02685 221 255 246
-0.100416 0.618756 4.03315 146 218 196
-1.16245 0.65612 4.23383 101 178 144
-0.179139 0.634655 4.03443 97 152 127
-0.437585 0.642958 4.06444 168 219 185
1.63326 0.60502 3.81634 90 143 130
-0.0425614 0.638657 4.0032 108 160 120
1.61171 0.615968 3.81802 100 169 158
-0.669581 0.68559 4.16969 144 218 182
1.43735 0.6284 3.83986 116 174 150
1.9945 0.612738 3.7432 104 148 125
-0.420858 0.669674 4.07013 86 143 105
0.868834 0.642321 3.91381 126 185 154
-0.434456 0.690817 4.08356 134 209 181
-0.146265 0.684902 4.03489 91 146 129
-1.69658 0.73752 4.33654 91 122 115
-0.0739418 0.692015 4.0282 66 135 102
-0.201739 0.697502 4.0437 63 119 98
-0.167859 0.695173 4.03634 222 251 248
1.99763 0.652003 3.74648 174 215 200
-0.532753 0.73277 4.13299 87 114 110
1.75298 0.670954 3.78744 185 215 232
2.04494 0.665324 3.76035 175 233 208
1.71294 0.677402 3.80045 95 117 122
1.50637 0.699962 3.85473 244 245 243
-0.44325 0.75579 4.09984 58 103 86
2.0619 0.697662 3.7646 181 222 214
1.36569 0.738085 3.86604 175 223 217
-1.65869 0.832968 4.35266 164 234 204
-1.63796 0.831387 4.33833 126 161 134
-1.81762 0.850229 4.40578 93 127 120
1.18669 0.749608 3.88555 95 175 152
2.09558 0.727466 3.76649 83 100 87
-0.247713 0.805111 4.07373 68 144 102
1.78244 0.754238 3.81085 125 175 171
-1.85035 0.878675 4.39943 121 160 145
-0.176481 0.813207 4.07261 68 119 105
1.44507 0.773704 3.87208 100 164 142
-2.85044 0.945785 4.60974 146 204 193
1.98799 0.774237 3.77853 220 241 242
0.893707 0.821786 3.96522 207 247 236
1.5153 0.813599 3.86014 100 147 139
-0.288512 0.871176 4.09994 94 171 134
-0.700113 0.898283 4.18076 66 147 128
1.80425 0.820832 3.82219 96 143 134
1.97454 0.819107 3.77896 73 71 93
1.24401 0.847498 3.88291 173 238 222
2.23357 0.816251 3.74672 86 140 123
1.31537 0.871783 3.89291 159 225 206
1.61883 0.862723 3.83945 131 144 166
-1.73964 0.98862 4.39675 99 146 124
-1.15262 0.962601 4.2739 99 142 131
-0.323257 0.944161 4.11192 92 159 128
-0.184579 0.944073 4.10952 77 134 103
-1.3829 1.02583 4.35904 167 228 214
1.68079 0.904678 3.83516 199 225 242
1.36471 0.94418 3.90203 228 255 255
1.24353 0.951324 3.90679 120 135 137
-0.335885 1.0142 4.12811 75 111 87
1.51529 0.964845 3.88137 213 249 243
1.13817 0.982597 3.94293 255 255 255
1.48533 0.998716 3.89065 112 167 158
1.68951 0.989532 3.85845 111 139 146
1.64856 0.996298 3.8695 82 91 104
-0.326503 1.08006 4.13914 116 171 132
-1.77376 1.16825 4.45189 116 159 150
1.74535 1.00704 3.85652 130 159 166
1.97755 1.00546 3.83044 98 127 111
0.833993 1.05528 3.999 146 232 184
0.807558 1.06051 4.01461 179 241 205
1.94249 1.0131 3.82809 110 147 139
0.766077 1.07163 4.01482 100 170 147
1.45013 1.05418 3.89558 94 151 130
-0.487647 1.14762 4.1707 211 255 242
-0.4329 1.14951 4.18526 67 112 96
-0.519952 1.16917 4.20652 107 169 151
1.44114 1.08572 3.9087 86 153 138
1.81228 1.06974 3.85362 188 229 221
-0.484987 1.16188 4.16838 100 149 133
-0.044118 1.10774 3.98596 62 81 62
1.50395 1.09236 3.8902 111 155 138
1.9592 1.08056 3.83683 132 175 154
1.38765 1.10445 3.90906 107 170 154
1.09928 1.12664 3.96296 124 150 144
1.32539 1.13693 3.93307 78 128 110
2.09515 1.12195 3.82954 78 97 82
0.699704 1.18532 4.03083 80 111 96
0.713649 1.21247 4.03742 121 187 146
1.80517 1.16677 3.87414 102 142 130
-2.23848 -1.65518 4.2757 131 191 151
-1.77555 -1.62395 4.20313 131 212 187
-1.73849 -1.62097 4.20525 72 128 105
-1.56395 -1.60596 4.15183 84 112 76
-0.598499 -1.53155 3.99542 91 131 126
1.36428 -1.38558 3.60927 147 203 162
-1.44959 -1.5839 4.13608 62 87 53
-1.70641 -1.60146 4.19456 83 143 103
-0.789186 -1.52267 3.9976 54 78 48
-0.632972 -1.5247 4.00323 120 163 150
-1.59707 -1.57839 4.16801 120 166 124
-1.81054 -1.5951 4.23384 127 187 163
-0.801936 -1.51365 4.021 82 118 102
-0.782293 -1.51439 4.02853 149 219 206
-0.642379 -1.5009 3.9918 128 174 192
1.48968 -1.35005 3.5977 255 255 255
-2.35683 -1.6016 4.29213 89 143 126
-1.67764 -1.56161 4.1864 97 144 122
-2.41155 -1.59569 4.31233 105 165 134
-1.36956 -1.5312 4.11798 130 200 163
0.93127 -1.37086 3.69894 87 135 123
-1.71917 -1.54682 4.18349 102 172 136
1.6 -1.32417 3.58473 95 154 146
-1.44928 -1.52816 4.15694 174 215 208
0.820979 -1.37335 3.72774 86 151 125
-0.904925 -1.4815 4.05479 63 86 81
-0.923008 -1.47999 4.06473 109 156 154
-1.40118 -1.49428 4.13028 109 156 123
1.61777 -1.29812 3.58851 126 176 166
-0.516107 -1.43014 3.98719 104 184 155
1.22594 -1.31128 3.64948 77 93 75
-0.955218 -1.4485 4.05385 150 202 195
-1.52362 -1.48223 4.16603 148 215 183
-2.44244 -1.53601 4.32832 117 168 141
-1.59727 -1.46916 4.17613 76 106 81
-1.63657 -1.46664 4.18548 83 133 103
1.32823 -1.25335 3.60268 165 216 202
1.47761 -1.25128 3.60224 98 128 117
0.627685 -1.30248 3.76711 67 116 102
-1.5621 -1.43465 4.16921 127 184 151
-1.19043 -1.41533 4.11109 139 179 167
-1.14061 -1.40964 4.10409 166 221 230
0.595738 -1.30039 3.77874 162 224 210
-1.61145 -1.4396 4.1849 150 229 202
0.812057 -1.27648 3.72006 94 139 122
1.35058 -1.23191 3.609 82 117 97
-0.405974 -1.3427 3.94769 92 147 120
-0.3803 -1.34275 3.9459 93 142 122
1.15921 -1.2458 3.6608 87 140 113
-1.6725 -1.41753 4.18844 80 147 116
-1.18643 -1.39372 4.09856 158 203 200
-0.368169 -1.33685 3.95051 140 198 173
1.32541 -1.2279 3.62497 152 203 183
-0.352882 -1.32259 3.92106 96 160 141
-1.47624 -1.38761 4.13686 138 210 187
-1.23363 -1.38749 4.12124 142 194 187
-1.14557 -1.38027 4.095 96 110 108
-1.08094 -1.36764 4.07051 106 124 135
1.16534 -1.23212 3.66253 155 208 181
-1.63645 -1.4034 4.18865 119 214 177
1.08202 -1.23127 3.6727 104 153 137
-1.13555 -1.37146 4.10905 157 215 214
-1.03421 -1.36295 4.08271 113 169 164
1.02668 -1.2314 3.6935 106 155 141
1.35589 -1.20436 3.60594 65 110 93
-1.24492 -1.37302 4.12617 64 82 65
-1.33843 -1.37388 4.14379 132 156 148
-0.371477 -1.29768 3.9263 91 145 122
1.14129 -1.21575 3.66565 140 176 170
-1.60346 -1.37872 4.19067 157 212 197
1.23759 -1.19718 3.65271 81 113 102
-1.36646 -1.35907 4.1502 127 162 158
-1.19606 -1.34565 4.11209 96 122 116
-1.10853 -1.33799 4.11123 76 99 94
1.218 -1.18983 3.6608 135 200 178
-1.58127 -1.35818 4.1686 143 202 187
-1.52749 -1.35004 4.17358 147 204 203
-0.931979 -1.30451 4.05384 79 128 112
-0.350048 -1.25092 3.91463 126 195 158
1.45752 -1.15803 3.62872 111 175 156
1.22369 -1.16313 3.67031 119 165 153
-1.59228 -1.3266 4.21417 159 216 195
1.55766 -1.13805 3.60669 129 167 155
-1.68982 -1.32146 4.20005 184 232 233
-1.39477 -1.3071 4.16178 117 166 146
-1.17083 -1.28793 4.10676 167 231 231
-1.24474 -1.28788 4.13008 99 116 125
0.629287 -1.17336 3.75456 80 136 117
1.05865 -1.1554 3.6918 106 122 115
-1.60775 -1.30187 4.18639 160 227 212
-1.29233 -1.28045 4.11763 135 174 196
-1.2667 -1.28982 4.14203 195 225 242
-0.221737 -1.19628 3.85868 135 140 108
-1.25396 -1.28951 4.15347 113 129 141
0.517283 -1.18251 3.8095 99 161 143
1.36855 -1.12592 3.63289 151 223 200
-1.29904 -1.27357 4.14126 163 206 239
1.15768 -1.13404 3.68681 92 147 128
-0.863747 -1.22238 4.00961 80 132 102
0.511162 -1.1572 3.79981 77 116 100
-1.28688 -1.25543 4.14415 85 107 102
-1.25227 -1.25314 4.13419 98 152 153
-2.1404 -1.29763 4.29134 95 135 117
-1.35778 -1.24665 4.15194 128 153 195
-1.32761 -1.24216 4.14506 112 142 161
-0.996111 -1.21422 4.05675 146 226 191
0.00684147 -1.16703 3.89962 74 167 140
1.2443 -1.09699 3.66472 140 192 175
-1.41267 -1.23903 4.16161 164 216 239
-1.18101 -1.224 4.12034 109 157 131
1.2722 -1.08397 3.65315 76 110 93
-1.31682 -1.22658 4.1405 92 128 122
-0.924018 -1.18431 4.0066 139 206 169
1.71019 -1.06212 3.59206 94 143 123
-0.625054 -1.13956 3.86812 90 122 105
1.31474 -1.07446 3.64668 100 155 146
-1.68406 -1.23311 4.21402 98 139 118
-1.4613 -1.22214 4.19191 156 193 207
-1.33924 -1.2115 4.16309 119 181 181
-1.73802 -1.2215 4.20602 106 174 151
-1.65835 -1.22081 4.21111 148 226 203
-1.51253 -1.21374 4.17021 97 108 106
1.22924 -1.06501 3.67624 93 128 114
1.75293 -1.04127 3.59002 94 150 139
-1.5329 -1.20838 4.18671 176 219 240
-1.02313 -1.17456 4.06143 70 117 85
-0.0102101 -1.1263 3.90405 111 166 151
-1.4663 -1.19789 4.16931 164 221 206
0.0475123 -1.12195 3.90778 100 170 157
0.604488 -1.07762 3.76381 111 154 145
0.0102615 -1.11667 3.90144 79 158 131
-1.69127 -1.20198 4.21784 93 148 129
-1.20511 -1.17287 4.12064 101 143 126
-1.58748 -1.18424 4.18832 191 227 245
-1.44302 -1.18174 4.17527 163 218 191
0.0634001 -1.10212 3.89221 87 147 123
-1.23219 -1.16645 4.12508 127 204 176
-1.71983 -1.18196 4.21306 101 159 135
-1.53578 -1.1775 4.19149 81 119 101
-1.41648 -1.1712 4.16259 96 135 119
-1.04444 -1.1423 4.07396 104 172 137
0.630101 -1.05677 3.76529 90 136 114
0.952439 -1.04662 3.72491 168 226 215
-1.11811 -1.14605 4.09299 77 127 103
0.967959 -1.04028 3.72812 82 106 94
-1.51376 -1.16457 4.17879 99 126 106
-1.01182 -1.13052 4.07198 142 213 180
0.113994 -1.07492 3.87297 164 227 201
0.487468 -1.04863 3.79129 136 194 165
-2.41143 -1.20147 4.35097 95 156 130
-1.59229 -1.15574 4.1984 87 133 111
-1.47649 -1.14969 4.18992 117 163 157
-0.182989 -1.06731 3.87949 113 140 130
0.408717 -1.05317 3.82169 79 112 97
0.907193 -1.03311 3.7501 136 176 171
-1.61931 -1.14805 4.19321 110 150 125
-0.986518 -1.10928 4.05865 112 159 151
-0.566993 -1.05566 3.86312 168 244 210
1.42578 -0.999191 3.64887 104 159 144
-1.61956 -1.14814 4.19586 100 140 115
-1.43931 -1.13581 4.17493 116 150 140
-1.59476 -1.13609 4.20012 155 242 206
-1.14864 -1.11682 4.11993 102 154 131
-1.08097 -1.10479 4.08064 132 222 176
-0.831859 -1.07616 3.98083 159 226 199
-1.64951 -1.1332 4.23066 99 175 144
-0.217521 -1.04388 3.91758 98 147 115
0.805448 -0.988133 3.77146 126 171 168
-1.9568 -1.1112 4.2448 85 168 136
0.465442 -0.995565 3.80752 148 216 191
1.60624 -0.944664 3.62518 96 166 149
-0.984071 -1.05526 4.07483 149 220 193
-1.19995 -1.06753 4.12841 87 174 130
1.01976 -0.970288 3.74783 118 174 163
0.520764 -0.981215 3.82398 148 212 200
0.157192 -0.995377 3.90462 94 155 141
1.52763 -0.927962 3.64995 107 173 161
-1.15668 -1.04492 4.14327 105 182 154
0.568751 -0.952387 3.81908 163 220 211
0.201494 -0.962469 3.88983 96 162 143
0.125093 -0.960731 3.89753 111 164 154
1.52923 -0.89746 3.64356 113 160 152
0.0559691 -0.94998 3.9144 71 142 126
-1.05654 -0.981017 4.08752 147 231 183
-1.11945 -0.983141 4.09137 138 219 174
-2.32077 -1.03483 4.33691 111 170 155
-1.02096 -0.968325 4.06241 143 218 167
-0.656314 -0.912681 3.85933 154 205 177
0.194056 -0.91838 3.88475 97 159 147
1.69582 -0.857051 3.61577 106 178 156
-1.18194 -0.964887 4.12932 91 133 102
-1.00157 -0.948414 4.07221 57 76 57
1.51627 -0.846106 3.65543 119 174 165
1.32502 -0.848649 3.6765 100 128 115
-0.216871 -0.897222 3.95465 94 156 132
-0.203815 -0.894285 3.94781 100 152 129
-1.00095 -0.91639 4.07225 91 123 104
-2.50716 -0.984431 4.38193 94 153 133
0.512757 -0.855584 3.83031 90 143 130
1.19904 -0.828466 3.70427 128 179 175
-1.16412 -0.913294 4.11485 197 255 228
-0.404514 -0.867899 3.8871 163 226 194
1.11584 -0.822737 3.71132 93 129 115
0.519521 -0.849025 3.84587 122 181 173
-0.872785 -0.883218 4.03837 43 75 58
1.09246 -0.820667 3.73019 102 136 125
-0.131838 -0.862854 3.96223 82 167 145
0.675251 -0.825328 3.81139 114 167 158
-1.22704 -0.870258 4.1282 85 130 103
-0.871527 -0.844563 4.03249 188 251 225
-0.552594 -0.811868 3.90906 77 111 94
1.36022 -0.7623 3.67286 119 178 158
1.37198 -0.753097 3.6772 116 152 146
-1.86578 -0.861879 4.26813 116 190 162
0.943399 -0.753949 3.761 109 180 160
-1.36432 -0.81523 4.16924 62 107 80
-1.17685 -0.802089 4.124 90 138 112
-1.13858 -0.798969 4.13435 50 83 68
-1.25148 -0.79802 4.12143 92 172 137
-1.36346 -0.797612 4.18136 164 234 211
-0.938248 -0.781234 4.08376 55 108 81
-1.16366 -0.783562 4.13274 166 241 203
-1.07872 -0.764634 4.11773 81 150 117
-1.06645 -0.751036 4.10424 155 241 193
0.943837 -0.68841 3.76689 124 171 168
-1.2153 -0.750971 4.13811 74 122 93
-1.04913 -0.73979 4.10347 105 150 117
-0.862802 -0.734081 4.06134 87 134 131
1.32938 -0.671569 3.70069 116 161 145
1.44406 -0.653058 3.67654 90 141 133
-1.19298 -0.73234 4.15287 71 121 97
-2.46016 -0.729183 4.3955 115 174 159
-1.48352 -0.689475 4.20545 110 175 150
0.421419 -0.636084 3.87488 102 147 138
0.820243 -0.624275 3.80454 92 162 132
-0.748567 -0.653015 3.98736 96 139 112
-1.4667 -0.678153 4.20357 132 198 186
0.74385 -0.610965 3.80801 91 141 111
0.734185 -0.589246 3.81728 80 135 110
0.983308 -0.569262 3.75796 80 125 108
1.23276 -0.561701 3.73508 78 100 88
1.43807 -0.559897 3.69589 93 145 135
0.403129 -0.579224 3.89465 105 165 157
0.788608 -0.545238 3.81319 98 154 131
1.30765 -0.532013 3.70622 97 137 125
1.44122 -0.517277 3.70845 106 169 159
0.997451 -0.520276 3.76668 103 164 150
0.913429 -0.493368 3.77671 115 169 152
0.845981 -0.493207 3.80325 135 186 158
-2.2191 -0.523093 4.34015 120 181 155
-0.664753 -0.454091 3.90994 88 133 114
0.993879 -0.432034 3.77823 118 165 156
-2.19566 -0.485888 4.35095 103 158 139
-2.2911 -0.480588 4.3355 115 195 158
-2.20502 -0.486124 4.37162 101 159 141
-0.443507 -0.419121 3.92673 167 246 202
1.34187 -0.388757 3.71856 129 175 162
-2.2507 -0.446989 4.37321 93 162 142
-0.873792 -0.390311 3.85961 158 226 195
1.36843 -0.367857 3.71301 121 148 144
-1.94317 -0.413705 4.30893 117 190 158
-0.433418 -0.381184 3.95766 43 86 59
1.14282 -0.357986 3.75477 73 128 109
0.9009 -0.353088 3.80814 116 174 163
-1.04462 -0.367043 4.04131 153 198 165
-2.11884 -0.367492 4.34991 116 175 160
-0.331949 -0.336061 3.95067 123 180 147
-0.212483 -0.329242 3.97082 82 113 98
1.24642 -0.314615 3.75308 101 178 164
1.28042 -0.307162 3.73412 108 148 143
1.3058 -0.30673 3.73073 104 143 145
-1.95535 -0.344633 4.31065 115 177 147
1.42089 -0.295015 3.74036 106 139 125
1.35497 -0.28716 3.72799 69 96 80
1.20794 -0.263298 3.76172 103 151 139
0.829922 -0.267422 3.8169 100 150 126
-0.830325 -0.236421 3.822 151 224 184
-2.25498 -0.243242 4.37752 77 120 99
1.95272 -0.205871 3.6529 102 170 153
-0.165621 -0.218744 4.00596 135 197 191
-2.54248 -0.222401 4.41246 43 77 46
-0.818699 -0.196729 3.85012 110 200 147
-2.46408 -0.219995 4.41825 103 171 140
-1.29781 -0.196285 4.20463 119 173 160
1.31236 -0.176715 3.76297 101 155 138
0.61906 -0.174241 3.86684 91 165 129
-1.76188 -0.190332 4.29845 123 190 159
1.80848 -0.162202 3.67568 118 166 154
-0.180679 -0.160343 4.00003 80 143 111
-0.144493 -0.154758 3.97691 74 138 116
0.881096 -0.14187 3.84515 127 184 175
-1.43421 -0.148859 4.2349 99 148 134
-1.31844 -0.15156 4.20618 118 161 152
-1.22385 -0.14167 4.18524 77 112 98
-1.71405 -0.142675 4.284 102 168 133
1.17265 -0.12655 3.78734 88 146 128
-2.3944 -0.119991 4.41667 87 152 120
-1.83614 -0.124955 4.30136 90 138 109
-1.25418 -0.107743 4.20016 90 142 124
0.426848 -0.0882974 3.79124 98 137 121
-1.25213 -0.0923553 4.22218 181 232 218
-1.15952 -0.0856082 4.18381 112 156 133
-0.195024 -0.0425372 3.95519 107 154 132
1.34263 -0.0285091 3.76366 83 146 126
-2.61858 -0.022882 4.45665 89 124 98
-1.15966 -0.025809 4.19879 170 197 223
2.30131 -0.00793418 3.6234 100 166 154
-1.1466 0.00415466 4.21679 148 197 189
1.01887 0.00899074 3.8289 104 153 137
1.14608 0.0132298 3.81056 158 216 191
0.82205 0.0213105 3.83915 105 159 142
0.00715514 0.0299147 3.94516 180 237 204
-0.751747 0.0418203 3.91492 48 69 36
0.875472 0.0526091 3.83816 121 174 164
1.06121 0.0521635 3.82652 104 150 144
1.08648 0.0530649 3.82405 138 184 172
-2.63924 0.0720543 4.48897 104 167 141
0.267937 0.0559412 3.87985 145 214 163
1.7632 0.057049 3.71027 168 228 218
-1.17993 0.0719842 4.21026 86 140 123
-0.835379 0.0636217 3.93639 58 100 82
1.15837 0.0685277 3.7988 101 135 124
-0.220692 0.0749922 3.98702 52 98 79
-0.0162033 0.0880962 3.89408 106 131 127
-1.19809 0.10557 4.23748 124 179 160
1.17841 0.0967463 3.80672 165 217 199
1.70592 0.104771 3.72688 110 156 144
0.991504 0.110601 3.82943 116 161 152
0.918446 0.128806 3.86413 79 136 121
1.60841 0.121038 3.74265 107 154 146
-1.12262 0.140638 4.19879 113 154 149
0.838646 0.137335 3.86888 91 160 140
2.0672 0.134456 3.6749 190 233 222
0.996321 0.144626 3.85257 111 168 147
1.06817 0.148684 3.8222 85 132 110
1.80104 0.150381 3.7218 123 179 168
1.9543 0.152153 3.68633 100 174 156
2.03027 0.149959 3.67291 121 153 148
1.64101 0.16771 3.74575 107 149 124
-0.727306 0.181562 3.94465 111 165 128
0.213383 0.174086 3.9286 66 110 87
-0.164475 0.218479 3.99257 148 221 181
0.215344 0.222008 3.93563 70 105 91
-1.72811 0.261357 4.31759 103 164 130
-0.252804 0.237282 3.97427 116 171 122
-0.103778 0.248175 3.93484 83 118 91
1.95801 0.230064 3.69773 77 116 90
1.92355 0.23839 3.70855 84 120 104
1.94631 0.234592 3.70412 139 206 177
1.59531 0.245621 3.75992 161 230 219
-0.196671 0.268976 4.00634 75 103 84
1.93457 0.261233 3.71064 58 71 47
-0.244011 0.286712 4.00577 71 113 90
1.46648 0.276933 3.78075 195 239 226
1.38404 0.283669 3.7983 193 240 231
-0.0220196 0.308071 3.93402 71 89 72
1.3189 0.3089 3.80878 86 100 94
1.51089 0.305954 3.78223 113 148 144
1.6076 0.318136 3.76759 113 173 162
1.98426 0.305648 3.59128 83 113 84
1.42801 0.333747 3.80065 121 178 157
2.08645 0.319126 3.57616 41 43 24
-1.15267 0.383162 4.22624 125 150 140
0.243563 0.358919 3.94817 77 129 111
1.23889 0.354864 3.80537 200 246 227
1.52511 0.362004 3.77971 109 147 135
-1.37584 0.411651 4.19756 81 92 72
1.09524 0.376727 3.84519 76 124 106
-0.188953 0.406129 4.01785 175 253 206
0.396913 0.403992 3.91183 80 120 95
1.7624 0.399119 3.75588 119 168 154
-0.821405 0.434949 4.02616 136 185 171
2.20988 0.384846 3.54919 39 46 33
-0.200592 0.437108 4.01026 212 255 234
0.578613 0.430241 3.93929 123 209 169
-0.535029 0.441292 4.02773 96 132 88
-0.0696858 0.449601 3.99596 84 115 94
1.16885 0.438995 3.84893 98 153 136
-1.26927 0.477333 4.18728 86 121 107
1.95684 0.427111 3.73392 115 152 132
-0.789894 0.469178 4.04987 46 65 44
1.72242 0.437858 3.7687 178 223 214
1.73944 0.437253 3.76359 101 137 125
1.12751 0.454187 3.85369 118 152 135
1.88589 0.439292 3.7382 158 214 201
-0.518165 0.486752 4.10115 56 71 44
0.546744 0.473372 3.95768 68 114 101
0.589572 0.476424 3.94603 70 130 96
2.01306 0.452517 3.72834 123 151 138
-0.474904 0.503244 4.08998 159 224 192
1.1242 0.471674 3.84216 175 228 214
1.94207 0.475361 3.74586 78 90 72
1.98582 0.472746 3.72531 133 174 153
2.02121 0.46695 3.73507 113 134 125
2.06061 0.468591 3.71246 105 117 105
0.684022 0.50959 3.91152 162 243 204
-1.94641 0.599487 4.39254 109 177 142
-1.01593 0.582587 4.21698 115 168 141
-0.47238 0.560252 4.08264 72 108 92
0.600188 0.552107 3.96762 69 92 77
2.1168 0.513566 3.70711 130 161 116
2.12481 0.513379 3.70684 83 100 66
-0.0998144 0.555718 3.99037 159 200 185
-0.363472 0.565185 4.03357 46 80 43
-1.82889 0.62619 4.36618 115 156 148
-0.110177 0.582852 4.00116 146 222 180
1.98045 0.545058 3.74987 108 163 146
-1.89423 0.635006 4.38378 138 195 162
2.04782 0.541447 3.7195 107 167 133
-1.08784 0.621836 4.2117 208 254 248
-0.0710775 0.58669 3.99617 31 73 42
-0.857498 0.617954 4.13678 40 74 64
-0.0551491 0.595379 4.00016 138 220 177
0.608042 0.589909 3.95757 141 215 185
1.11967 0.576529 3.87471 106 169 143
-0.838349 0.619993 4.13133 134 206 170
-0.114311 0.604997 4.02042 53 65 59
-0.438127 0.619522 4.04915 62 84 60
2.06938 0.57717 3.72972 96 113 86
-1.12455 0.662798 4.2336 77 124 108
-0.347139 0.637652 4.07055 114 203 184
1.13768 0.612512 3.88277 106 165 145
1.99067 0.588415 3.73314 102 119 108
-0.226102 0.649456 4.05776 117 183 134
-0.0527066 0.674009 4.02356 178 237 199
1.20981 0.639203 3.84901 79 120 99
1.71421 0.632547 3.78689 93 86 101
1.4316 0.649644 3.83969 110 148 136
-0.426178 0.699011 4.07193 104 141 115
1.43475 0.668173 3.84894 184 231 215
1.16617 0.690576 3.8865 86 164 147
-1.73697 0.779241 4.37544 116 161 152
