ply
format ascii 1.0
element vertex 1283
property float x
property float y
property float z
property uchar blue
property uchar green
property uchar red
end_header
0.852935 -0.164926 5.19908 102 172 155
-0.758446 -0.160629 5.114 168 238 207
-0.11044 -0.161063 5.13542 162 228 216
-0.205669 -0.160484 5.1303 72 136 124
-1.44617 -0.15487 5.07323 147 231 206
-0.651565 -0.15494 5.1233 161 231 194
-1.23131 -0.146615 5.09201 91 156 141
0.91592 -0.149562 5.21343 117 183 164
-0.319794 -0.142974 5.1289 74 151 130
-1.77366 -0.137979 5.05545 64 137 115
-1.29496 -0.136114 5.09064 57 116 96
-0.863488 -0.136352 5.111 73 143 112
-0.422806 -0.134768 5.13347 100 171 154
-0.00993374 -0.135255 5.14759 82 152 139
-1.5025 -0.130838 5.06835 75 147 127
-0.805762 -0.128765 5.11624 85 153 122
-0.322484 -0.1312 5.13269 92 170 146
-0.037745 -0.132435 5.14404 89 154 139
-0.54266 -0.128224 5.13396 77 161 127
-0.689166 -0.125888 5.12788 89 156 129
1.08506 -0.130474 5.22836 106 169 153
-1.49719 -0.123414 5.06497 134 214 197
-1.42841 -0.118834 5.07339 68 145 124
-0.691665 -0.117989 5.12895 94 150 131
-0.0697953 -0.117951 5.15276 77 151 133
-1.48654 -0.11221 5.07705 146 217 191
-0.738832 -0.112084 5.1282 155 221 202
0.286909 -0.112699 5.18832 199 252 238
-1.85882 -0.106875 5.06233 121 203 174
-1.06107 -0.10933 5.10885 118 174 199
0.833984 -0.110158 5.21834 101 172 146
-1.68697 -0.1052 5.06579 168 233 212
-1.68669 -0.105301 5.06521 168 233 212
-1.49847 -0.105284 5.07561 56 130 100
-1.253 -0.106319 5.0987 89 168 147
-0.63205 -0.102773 5.13484 64 138 110
-0.601969 -0.103476 5.13696 153 226 194
-0.821316 -0.102814 5.12386 67 131 102
0.277316 -0.0994938 5.18187 70 151 132
-3.07099 -0.0936008 4.98942 77 144 113
2.65055 -0.0989673 5.34696 77 168 142
-1.6766 -0.0929408 5.05979 79 142 132
-0.940513 -0.0914226 5.12255 75 149 125
-0.859264 -0.0907988 5.11828 82 141 126
-3.12957 -0.0852992 4.98241 138 213 185
-1.26409 -0.0871097 5.10376 80 142 130
-0.820624 -0.086879 5.12842 58 116 92
-1.71617 -0.0816292 5.08128 64 138 114
-1.66273 -0.0779812 5.08064 93 161 144
-0.34329 -0.0787197 5.14545 68 152 128
0.649459 -0.0733237 5.21254 89 164 148
-0.189961 -0.0671794 5.15444 90 162 150
0.600714 -0.0673375 5.20862 97 167 150
-0.415341 -0.0654845 5.14928 160 232 210
-0.171166 -0.0646972 5.15349 172 232 221
-3.0392 -0.0599544 4.99468 67 122 103
-0.831676 -0.0632111 5.13764 87 158 131
-3.07367 -0.0579248 5.00573 122 179 148
-0.763137 -0.0563265 5.14114 79 152 120
0.0877301 -0.0570776 5.17844 86 160 148
-1.70399 -0.0523731 5.07356 150 217 202
-0.838511 -0.0519916 5.13929 92 159 138
0.458951 -0.0539184 5.20697 80 151 141
-0.565787 -0.052451 5.1513 80 149 129
-0.199646 -0.0515779 5.15381 83 146 130
-0.532364 -0.0453977 5.14211 84 155 138
-0.095762 -0.0429017 5.16338 88 163 147
-2.76424 -0.0356758 5.01971 82 127 140
-0.781492 -0.0355188 5.14526 78 149 123
-1.5705 -0.0328152 5.08627 192 245 232
-0.597696 -0.0312883 5.15138 55 119 107
-0.948409 -0.031379 5.1267 74 144 114
-0.750615 -0.0276083 5.15219 155 230 198
-0.119218 -0.0234878 5.16684 89 143 136
-2.96179 -0.0229065 5.01825 98 150 140
-0.0337788 -0.0219185 5.17803 96 166 153
-0.877032 -0.0205792 5.13518 142 209 177
-0.822437 -0.0191063 5.14316 78 149 129
-0.974053 -0.0170821 5.13016 81 145 123
-0.757051 -0.0160117 5.15589 54 120 95
-0.713613 -0.0062771 5.1582 60 106 83
-1.85311 -0.00536798 5.08114 139 214 182
-0.896867 -0.00351007 5.14017 147 219 197
-0.26976 0.00308148 5.16776 85 167 145
-0.650555 0.00441704 5.16494 82 148 136
-2.68407 0.00651433 5.04235 159 222 226
-2.97193 0.00863101 5.02384 86 132 119
-1.50627 0.00872624 5.10119 145 241 205
-0.393644 0.00845983 5.16901 71 146 124
-0.825185 0.016903 5.14948 158 225 194
-1.63703 0.0184735 5.10487 141 216 188
-0.871388 0.0199302 5.14464 73 147 111
-0.702248 0.0230542 5.16799 160 230 200
-1.92397 0.0225265 5.09268 151 223 187
-0.622231 0.0364832 5.1758 158 227 206
-0.58792 0.036183 5.17094 75 150 136
-0.568155 0.0345503 5.17222 83 155 133
-0.757071 0.0395633 5.16184 53 126 100
-0.359671 0.0389225 5.16355 80 156 132
1.25796 0.0391292 5.27116 105 169 150
-0.835107 0.0489495 5.14757 145 211 176
-1.38014 0.0509462 5.12718 70 134 115
-0.885366 0.0540209 5.15128 89 159 118
1.25318 0.055488 5.27584 74 143 123
-0.769778 0.0585595 5.174 89 159 128
-0.722597 0.0578777 5.16688 76 140 118
-0.688911 0.0598967 5.17814 164 229 214
2.74138 0.0672847 5.37263 89 172 140
-0.663696 0.0675851 5.17685 70 135 109
1.32082 0.0703058 5.27869 107 166 145
1.26665 0.0725065 5.29058 94 148 125
-2.8519 0.071936 5.04547 86 143 134
1.26227 0.0787393 5.28477 165 226 198
-2.94787 0.0798731 5.04433 100 150 140
-0.900008 0.0863302 5.15945 62 132 101
-0.996136 0.0860987 5.15512 89 154 133
-0.849234 0.0884477 5.16121 164 216 186
-2.06376 0.0924815 5.09653 38 121 99
-0.721909 0.1056 5.17608 61 119 95
2.73526 0.10799 5.38654 88 158 141
-2.20076 0.103685 5.10866 77 147 130
-2.20286 0.106379 5.10422 128 198 181
-0.615925 0.108234 5.18901 68 131 111
-0.515507 0.109022 5.1958 59 134 120
0.729588 0.111318 5.26249 99 165 153
-1.04296 0.110737 5.16505 158 228 197
0.605912 0.112458 5.24958 159 230 214
-1.21196 0.112609 5.15727 159 226 211
1.61167 0.119819 5.30724 97 166 151
-0.964541 0.117495 5.16313 162 228 203
-1.01358 0.118654 5.16231 172 243 223
-0.592524 0.122905 5.19554 165 229 210
-0.5405 0.124161 5.19529 79 140 130
1.04016 0.125187 5.27629 97 166 156
-0.290276 0.124704 5.19337 81 150 139
-0.917198 0.13127 5.16603 168 220 202
-0.762596 0.131613 5.18571 179 241 225
-0.819617 0.135094 5.18025 63 128 107
-2.20548 0.134248 5.1046 96 141 138
-0.515474 0.137012 5.20126 94 164 147
-1.40494 0.139249 5.15201 171 234 208
-0.84793 0.140034 5.17864 70 128 99
-1.51706 0.140909 5.13928 177 244 215
-0.568712 0.143238 5.19884 81 153 133
-1.27488 0.150468 5.15632 121 175 175
-1.14772 0.154292 5.16266 82 151 136
0.515759 0.155992 5.25972 96 168 155
-1.36359 0.156027 5.15176 102 164 146
-0.70095 0.154941 5.18659 67 134 107
-0.977851 0.156767 5.17455 62 139 102
0.461275 0.160279 5.25431 81 146 131
1.06706 0.161841 5.29474 102 177 156
-0.672174 0.163236 5.19863 139 203 184
-0.871874 0.165055 5.17961 155 228 196
-0.711692 0.166684 5.19903 80 142 120
1.02313 0.168678 5.29841 86 149 133
1.00218 0.171106 5.285 157 223 212
-1.43816 0.168703 5.15573 91 153 131
-1.0923 0.169611 5.16779 76 143 122
-1.58877 0.172364 5.14565 81 153 131
-0.995476 0.172351 5.1796 72 136 114
-0.664977 0.173955 5.19646 154 226 206
0.636842 0.175887 5.26691 120 175 166
0.841603 0.177908 5.2782 85 147 129
-0.742419 0.176578 5.19624 57 126 105
0.461268 0.178484 5.25488 181 237 226
-0.813163 0.179623 5.18824 76 138 116
-0.954746 0.183977 5.18316 55 127 97
1.02472 0.188631 5.29612 97 160 151
-0.668091 0.176342 4.92065 54 130 112
-1.48036 0.187332 5.15047 147 213 184
-0.763573 0.187931 5.19591 170 240 204
-1.05967 0.192473 5.18117 78 150 130
-0.833368 0.193092 5.18732 147 203 182
-0.803108 0.194405 5.1904 137 193 164
-1.29164 0.196522 5.16357 101 159 148
-0.750487 0.197651 5.20332 71 123 100
-1.29767 0.200497 5.18076 86 145 137
0.0156978 0.202645 5.23069 95 160 145
-0.695501 0.209614 5.2109 77 154 133
-0.867663 0.209897 5.1868 140 195 178
-0.827928 0.209225 5.19392 62 121 101
-1.57927 0.209072 5.15997 88 153 137
-1.16006 0.213703 5.1806 82 143 133
-0.667122 0.217111 5.21582 54 135 120
-1.88288 0.215829 5.1461 84 151 136
-0.84818 0.217588 5.18684 201 245 238
-0.830298 0.221294 5.19743 154 188 177
-0.760822 0.22617 5.20726 66 136 106
-0.396826 0.232621 5.22643 160 223 203
-2.97645 0.233548 5.09406 51 114 94
0.654645 0.241459 5.28909 200 243 232
-1.591 0.236092 5.15813 97 168 151
-0.53348 0.239462 5.22579 168 235 206
-0.539723 0.24271 5.22804 85 163 139
2.64 0.253384 5.41424 115 182 167
-1.51218 0.244424 5.17133 163 232 212
-1.17008 0.246988 5.19187 155 218 209
-0.881263 0.247442 5.19681 80 139 111
-0.579307 0.251443 5.22869 172 227 212
2.57242 0.258794 5.42535 93 159 147
-3.1566 0.24596 5.07986 77 130 110
-2.7808 0.24668 5.11429 77 137 129
-1.93588 0.247118 5.14529 172 235 215
-0.913429 0.251393 5.20672 84 134 110
-0.680114 0.254676 5.23106 80 144 125
-0.612733 0.252992 5.22324 82 154 141
1.00785 0.25711 5.30702 92 154 154
-0.806372 0.255258 5.20987 68 140 104
2.61411 0.265463 5.41958 108 173 158
-0.74377 0.25754 5.22322 75 139 117
-0.249291 0.259438 5.23421 182 232 230
-1.27379 0.257868 5.18633 95 168 152
-0.685949 0.26024 5.2261 165 238 216
-2.70959 0.25764 5.10942 158 213 196
-2.37955 0.264589 5.13778 132 196 184
-0.494804 0.270341 5.24299 165 237 215
0.204373 0.271541 5.27267 90 157 142
-1.06322 0.269276 5.19829 144 206 184
-1.03954 0.269204 5.20327 71 135 116
1.50548 0.276905 5.3375 181 239 228
-1.07547 0.271913 5.20015 149 221 185
-0.914511 0.271578 5.20606 171 230 199
-1.00976 0.272868 5.21637 80 140 122
-0.577621 0.275447 5.23508 165 222 201
-0.664219 0.279135 5.23433 71 130 122
-1.11739 0.277841 5.20348 181 238 213
-0.398395 0.283978 5.23662 148 225 204
-0.56767 0.286363 5.23633 150 215 193
-2.93633 0.28068 5.10694 78 137 122
-0.801312 0.288197 5.22471 148 211 171
-0.555406 0.289905 5.24168 70 148 124
-0.643851 0.290976 5.23564 72 137 121
-0.324077 0.291324 5.24133 102 172 159
-0.854987 0.29169 5.21474 161 223 187
-0.990661 0.293378 5.20932 89 158 125
-2.95229 0.295594 5.12001 71 122 108
-0.876053 0.303348 5.21799 69 136 104
-0.846827 0.30229 5.21536 56 112 77
-2.92318 0.300416 5.12025 70 130 112
-0.817586 0.308848 5.2311 169 236 199
-0.604994 0.311206 5.23769 67 133 108
-0.519259 0.310447 5.24537 145 217 195
-0.790918 0.315142 5.23378 71 145 111
-0.760249 0.31578 5.23488 58 138 115
-0.783244 0.316083 5.23318 147 235 199
-0.678485 0.319447 5.24292 92 166 148
-1.01595 0.319848 5.21704 88 150 128
-1.31185 0.319878 5.20359 72 142 129
-0.716817 0.323658 5.24373 164 238 212
-0.592868 0.323248 5.2466 78 156 132
-1.0737 0.32463 5.21998 149 217 194
2.9341 0.342585 5.45041 105 175 158
-1.17609 0.33231 5.21362 161 235 205
-1.09298 0.332618 5.21499 136 212 180
-1.65208 0.33338 5.1927 201 254 234
-1.65156 0.333546 5.19334 205 255 234
-0.814249 0.342206 5.24241 170 230 200
-1.06702 0.354426 5.22693 65 138 106
-0.619081 0.359152 5.25536 64 133 118
0.819826 0.363412 5.32358 105 176 159
-2.92205 0.353455 5.14823 137 190 170
-1.35423 0.358856 5.21817 84 155 135
-1.01778 0.358604 5.22993 69 150 117
0.0102155 0.362196 5.27949 162 231 211
-1.53773 0.357817 5.19749 64 124 113
-2.94237 0.357861 5.13822 59 118 98
-0.747376 0.371296 5.25466 75 145 132
-1.18611 0.371897 5.22551 82 160 137
-0.00626777 0.381335 5.27874 81 150 137
-0.794666 0.382524 5.26151 72 129 114
-2.7223 0.379044 5.1565 52 116 81
-0.907271 0.389945 5.24037 83 148 132
-0.682788 0.392449 5.26302 80 144 132
-0.74482 0.404441 5.26428 71 140 120
-2.34099 0.402131 5.17668 65 137 117
-2.31824 0.403168 5.17861 77 148 131
-0.809116 0.411493 5.27106 84 154 141
0.475046 0.415637 5.32485 234 255 254
-2.7968 0.404177 5.16457 141 209 186
-2.75108 0.405512 5.16181 154 219 194
-1.07518 0.414494 5.24405 74 148 124
-0.66769 0.416435 5.26846 55 112 103
-2.4451 0.417247 5.17999 42 121 100
-1.14618 0.421769 5.25003 69 146 132
-0.768004 0.429331 5.27515 61 130 117
-0.773168 0.429256 5.27115 74 146 133
-2.79381 0.424598 5.17165 68 120 97
-3.1729 0.426244 5.133 72 136 117
-1.13031 0.44582 5.25627 172 243 223
-0.947851 0.457233 5.26373 144 221 193
-2.80436 0.45708 5.17911 145 215 185
-1.00277 0.463623 5.26049 67 141 117
-0.925572 0.464532 5.26804 159 231 208
1.55827 0.474934 5.3971 99 172 156
-2.38482 0.4613 5.20386 87 151 139
-1.05207 0.474316 5.26426 69 144 123
-1.00084 0.482664 5.26944 94 173 152
-2.62545 0.488795 5.20148 70 116 140
-0.921699 0.497613 5.28378 165 224 210
-1.24106 0.499422 5.2736 56 126 113
-0.958996 0.509298 5.28418 92 163 147
-0.76996 0.51005 5.30009 53 130 116
-0.532614 0.511862 5.30921 73 148 134
-1.07224 0.514029 5.28314 65 140 132
-1.05207 0.531606 5.2872 79 143 131
-1.05395 0.535041 5.29905 87 155 144
-0.881481 0.550548 5.30686 167 233 222
2.47918 0.585938 5.49273 205 242 232
-2.65567 0.56035 5.22385 153 215 203
2.59708 0.592945 5.50035 98 171 155
0.73815 0.593 5.3961 104 174 161
-3.05287 0.578263 5.21337 70 146 128
0.619802 0.604355 5.38666 201 245 239
-2.92651 0.596295 5.23705 59 116 101
-3.0127 0.594947 5.22539 70 146 128
-2.62082 0.598097 5.23856 138 197 177
1.95472 0.623717 5.47244 106 172 171
-2.50517 0.615494 5.24514 88 162 126
1.0528 0.638964 5.42102 113 183 170
-2.92993 0.62434 5.24165 151 212 198
-2.98164 0.629725 5.24401 95 163 140
-2.97191 0.629909 5.2415 60 129 108
-1.99134 0.632545 5.2747 109 155 202
-2.61097 0.636698 5.25449 72 138 119
-0.651215 0.662981 5.3572 201 243 242
-2.82519 0.673368 5.26569 85 137 119
-2.89144 0.675424 5.26359 55 117 105
-2.91249 0.680813 5.27621 143 219 201
-2.61119 0.688534 5.27088 65 125 114
-0.972713 0.70303 5.35628 87 158 141
1.7286 0.754129 5.49827 188 241 232
-2.65025 0.732068 5.28978 63 137 119
-3.03517 0.735669 5.2838 71 131 107
-2.71028 0.738041 5.29648 59 131 119
-2.54884 0.742359 5.28897 127 205 164
-2.43955 0.778224 5.30934 44 119 98
-2.80536 0.784666 5.31327 79 151 129
-3.06618 0.78563 5.29638 66 135 114
2.17214 0.828101 5.54234 142 225 210
-1.58019 0.824485 5.36752 95 154 174
-2.97842 0.828821 5.32372 67 137 124
-2.56517 0.859813 5.33768 70 132 118
-2.7716 0.868191 5.34505 67 123 110
-2.77494 0.87053 5.35174 66 120 107
-2.52283 0.873814 5.3404 47 107 83
-3.06876 0.892591 5.33823 69 137 114
-3.01487 0.891302 5.34072 58 117 97
2.13866 0.940674 5.57406 114 174 166
-3.00764 0.908728 5.35716 59 132 116
2.44497 0.951519 5.60017 101 141 130
-3.0948 0.909306 5.33686 34 94 84
2.4326 0.959351 5.58166 162 214 196
2.42307 0.962811 5.58182 133 193 169
2.44626 0.973465 5.58946 161 222 202
-3.33715 0.937276 5.32931 130 211 178
2.47996 0.99028 5.61885 142 195 181
1.41497 1.00623 5.56302 105 167 145
2.42202 1.01183 5.60737 122 195 173
2.43285 1.01237 5.59959 169 238 205
1.45433 1.01358 5.56033 98 175 148
1.41858 1.01729 5.56856 144 194 176
-2.89659 0.992897 5.38564 89 153 141
2.83068 1.03933 5.63435 158 229 212
-0.934302 1.01001 5.46536 87 156 145
1.34274 1.05178 5.57283 56 76 71
-2.77834 1.02283 5.40503 156 220 214
1.09386 1.10996 5.5858 79 156 135
1.24318 1.10844 5.57315 144 177 163
1.19785 1.1236 5.59662 168 226 208
1.12965 1.12247 5.57351 160 226 201
1.20958 1.13232 5.59564 131 160 145
-2.87208 1.10996 5.4384 91 146 149
-0.966675 1.12165 5.50412 170 245 231
1.10311 1.1386 5.57972 158 233 212
-0.823388 1.12626 5.5108 180 235 226
-3.17413 1.11291 5.42181 60 109 93
1.19169 1.16448 5.60019 130 177 151
1.18242 1.173 5.60479 137 187 163
-0.450122 1.16041 5.53172 96 168 162
-1.03804 1.16107 5.5201 149 209 209
-3.44024 1.148 5.40549 91 144 134
-0.927641 1.17498 5.52962 154 225 222
2.9268 1.22137 5.71614 131 176 159
-0.874416 1.2047 5.53695 135 193 192
0.786454 1.22771 5.61026 169 223 210
-0.812613 1.22251 5.55536 64 135 139
2.78951 1.26214 5.65198 150 238 202
2.03327 1.27077 5.69114 86 154 137
-3.08389 1.22378 5.47379 79 137 126
2.50692 1.30275 5.72108 96 168 155
-2.05138 1.27761 5.52094 90 149 151
2.01906 1.35148 5.72804 182 239 236
0.972029 1.36611 5.67122 85 155 142
1.76485 1.42398 5.73416 114 177 168
-0.355315 1.40826 5.6457 89 148 128
-0.351415 1.40875 5.64678 145 208 182
-1.33289 1.39601 5.59069 79 126 117
-0.270489 1.40946 5.63827 146 195 173
-0.170715 1.42802 5.64541 180 237 234
1.98494 1.46802 5.76429 80 144 132
-1.20521 1.45825 5.70615 64 153 114
-1.2739 1.4465 5.63154 130 211 164
-0.207785 1.44799 5.6393 126 184 173
2.74579 1.48209 5.7732 95 170 149
-1.20152 1.47342 5.71574 60 160 118
2.73523 1.50601 5.80042 109 181 161
-0.207194 1.48349 5.68571 52 100 88
-0.206786 1.49548 5.69636 104 181 160
1.96664 1.5156 5.77662 240 255 244
1.41092 1.50969 5.74284 77 121 120
-1.06373 1.51203 5.74906 89 146 137
-1.31064 1.48319 5.6346 46 108 68
-1.30316 1.49613 5.659 128 202 166
2.65644 1.53745 5.81204 181 245 226
-0.205667 1.51415 5.70252 117 182 166
-0.0911671 1.51903 5.67812 88 144 145
-0.202472 1.54116 5.7188 95 151 138
-3.11066 1.54849 5.62747 84 146 130
-1.33884 1.56128 5.66904 140 209 182
2.14672 1.62377 5.82673 89 153 141
1.73186 1.62037 5.80764 128 177 175
-1.23909 1.62369 5.78337 134 204 173
2.77447 1.65173 5.86135 201 236 222
-1.28519 1.6198 5.73905 143 202 164
-0.86805 1.64098 5.80484 209 250 253
-0.971679 1.65394 5.82384 84 150 145
-1.03884 1.65947 5.83216 143 208 206
-1.25211 1.65334 5.78567 40 95 70
-1.22639 1.65838 5.80313 34 106 76
-1.32685 1.63726 5.72118 126 204 157
0.903853 1.67088 5.79546 87 151 132
-1.34022 1.65911 5.72109 53 132 89
2.87159 1.71912 5.90797 96 167 141
1.23534 1.70215 5.82389 136 178 167
-1.23837 1.70734 5.81487 118 190 160
1.17178 1.70887 5.81659 82 151 131
1.17975 1.71114 5.81435 131 187 166
0.97478 1.72013 5.81245 95 161 142
-1.05434 1.75054 5.90062 69 130 156
0.150718 1.71754 5.77296 90 135 146
-1.35469 1.72324 5.75803 138 217 190
1.14082 1.76054 5.83487 139 180 165
0.92357 1.75858 5.82377 69 140 124
-1.0631 1.78291 5.89801 151 206 209
-1.00149 1.80267 5.88834 75 130 139
-1.43346 1.7613 5.74641 184 237 240
-1.42527 1.76814 5.75208 195 245 243
0.800034 1.79554 5.83942 85 157 144
-0.527006 1.66064 5.39497 169 213 255
-0.844998 1.69822 5.48486 93 109 192
-1.28113 1.81728 5.85336 33 82 54
0.846812 1.83331 5.85385 75 149 119
-1.25068 1.85476 5.89737 126 192 180
-1.29201 1.84574 5.86367 42 101 73
-0.566601 1.67149 5.29962 157 194 255
-0.504157 1.78418 5.65755 161 211 255
0.959302 1.84872 5.85981 68 143 105
-1.32841 1.83771 5.81433 112 177 152
-1.13656 1.87064 5.91756 75 157 144
-1.19794 1.8765 5.91924 218 255 249
-0.604816 1.7138 5.40859 138 168 217
0.921454 1.85673 5.86294 69 117 93
-1.2659 1.87082 5.89869 65 140 118
-1.06781 1.88517 5.94588 77 141 171
0.970522 1.86938 5.86179 150 212 172
0.841421 1.8748 5.87263 87 156 136
0.902525 1.87719 5.87328 170 241 215
1.01627 1.87438 5.86851 132 189 156
1.89278 1.89842 5.93861 93 156 146
1.96623 1.89487 5.92956 165 227 215
0.950442 1.88019 5.86498 133 219 165
1.00517 1.8837 5.87008 92 141 113
0.147748 1.87433 5.83916 188 245 230
1.00785 1.88596 5.87465 142 196 167
-1.0633 1.90918 5.93986 147 249 208
0.891977 1.88743 5.87363 165 230 215
1.0132 1.89205 5.87731 55 104 76
0.85283 1.89501 5.8832 91 163 141
1.98428 1.91255 5.93883 87 156 143
-1.35072 1.87537 5.8189 38 91 71
0.987665 1.90423 5.8849 139 196 171
-0.503356 1.80209 5.56392 63 64 120
0.97859 1.90721 5.8831 68 107 91
0.943364 1.9027 5.86521 154 225 198
-1.08608 1.96287 5.98226 148 231 216
-0.392862 1.82281 5.53259 171 207 243
-0.378493 1.82919 5.55451 181 196 228
-1.09255 1.97485 5.98696 152 204 210
-0.00207511 1.94567 5.86535 131 202 176
-1.0717 1.99738 5.99757 69 154 164
-0.622083 2.09651 6.27891 154 203 253
-0.678346 2.02106 6.02103 146 181 225
-1.31118 2.01372 5.93628 114 174 150
1.96801 2.03106 5.99102 150 221 204
2.66308 2.04375 6.01648 79 150 130
2.32753 2.03856 5.99091 84 165 138
-1.20848 2.2395 6.56266 115 207 188
-0.665793 2.102 6.15378 149 195 242
-0.684076 2.17796 6.30449 157 194 255
-0.710612 2.51134 7.12016 163 220 255
-1.10757 2.40941 6.68084 107 117 165
-0.830815 2.81284 7.56409 156 185 255
-0.894323 2.91335 7.79958 158 174 227
-0.913272 3.16965 8.27199 145 194 255
-1.09015 3.93731 9.79499 149 191 255
-1.1808 4.331 10.576 163 197 255
-1.23094 4.55083 11.0122 163 193 252
-1.33193 5.42483 13.0283 149 170 215
-1.94397 4.86835 11.6508 97 111 183
-1.41713 5.35766 12.6128 153 185 250
-1.55758 5.66953 13.293 147 168 229
-1.93626 8.15888 18.5725 161 205 255
-2.87981 7.64072 16.9321 120 127 190
0 0 0 171 185 227
0 0 0 120 142 214
0.0637777 -2.3406 5.11551 74 134 124
0.262579 -2.33359 5.12142 168 230 214
0.770606 -2.36628 5.19842 79 161 139
0.382751 -2.32683 5.13495 74 147 115
0.571642 -2.29942 5.15358 88 155 128
-1.87653 -2.19572 4.93262 98 156 128
-0.79744 -2.23308 5.02487 109 167 172
-1.52653 -2.19779 4.94779 83 151 140
0.58253 -2.26446 5.15849 113 179 150
-0.942789 -2.12166 5.00269 160 226 214
-0.84762 -2.11893 5.0054 72 137 122
-1.02342 -2.10335 4.98863 173 223 221
-0.218581 -2.1358 5.06814 73 136 120
1.60183 -2.19608 5.22998 113 179 150
-1.14192 -2.05887 4.98624 147 224 196
0.407175 -2.11589 5.13428 101 172 156
-2.36668 -1.96258 4.86456 73 141 130
-0.9024 -2.00683 4.99231 172 237 221
0.137089 -2.03239 5.09483 109 168 154
-0.969676 -1.94851 4.97843 86 143 134
-2.90072 -1.87514 4.80693 99 138 116
-2.83442 -1.86955 4.81825 108 145 111
-0.0385824 -1.9539 5.05995 203 248 231
-0.214922 -1.93949 5.05705 97 153 148
-2.69124 -1.83364 4.82242 118 170 153
-2.96157 -1.78628 4.80097 96 127 98
-0.758993 -1.83794 4.99574 99 150 153
-2.90624 -1.76604 4.80983 115 181 152
-0.232152 -1.84126 5.04444 109 172 162
-2.03275 -1.75671 4.89162 161 234 212
-0.732945 -1.77074 5.0006 177 230 227
-0.731898 -1.70809 4.98222 183 229 223
-3.01139 -1.63644 4.79014 49 87 59
0.841778 -1.75556 5.14494 105 172 163
-2.31069 -1.64887 4.84527 105 165 159
-2.14385 -1.65744 4.87206 89 154 152
-2.26578 -1.63737 4.86275 151 214 198
-0.592229 -1.65815 5.01039 167 232 216
0.313037 -1.667 5.07691 174 237 227
-1.6078 -1.60911 4.91034 166 235 222
-0.665445 -1.63482 4.99725 172 228 217
-0.561481 -1.60627 5.00652 84 152 141
-1.86677 -1.56568 4.89556 73 141 130
-1.07821 -1.58266 4.95629 101 157 152
-0.827675 -1.58783 4.97375 189 231 230
-2.87833 -1.52844 4.81546 125 164 143
-0.322054 -1.56785 5.02096 173 233 223
-0.178195 -1.57079 5.02568 79 144 129
-0.338124 -1.55667 5.00695 85 144 129
-0.406863 -1.54501 5.01118 83 151 128
-0.886293 -1.51901 4.97459 105 164 156
-0.311718 -1.53231 5.01243 179 230 216
-1.01627 -1.4775 4.95772 177 240 224
-0.928462 -1.45836 4.95924 85 145 137
-2.25807 -1.40547 4.86145 62 133 116
-0.359999 -1.43672 5.01055 70 141 125
-2.16395 -1.38866 4.88038 80 145 136
-0.897519 -1.41001 4.96339 88 148 137
-2.07932 -1.3765 4.88824 77 139 123
-0.80683 -1.39887 4.98246 155 221 209
-0.813775 -1.39666 4.97773 72 135 126
0.297276 -1.39836 5.06649 90 150 139
-2.32843 -1.33239 4.85867 149 220 187
0.72627 -1.38622 5.09607 105 174 163
-2.05748 -1.30116 4.89227 84 138 109
-1.33344 -1.30996 4.93563 160 229 216
-2.01834 -1.29134 4.88919 163 227 215
-2.34669 -1.27822 4.85433 160 230 200
1.32889 -1.34664 5.1466 107 179 166
-1.15247 -1.28666 4.94227 93 154 144
-2.10691 -1.2671 4.88482 70 123 110
-2.40696 -1.24684 4.85214 74 133 102
-2.13271 -1.25123 4.87939 101 156 141
-0.77157 -1.26271 4.98203 58 130 107
-0.749768 -1.25139 4.96941 147 226 205
-2.2605 -1.21953 4.86769 70 115 96
-0.804193 -1.24377 4.97388 169 248 205
-1.16861 -1.23252 4.94747 76 148 135
-0.204509 -1.25097 5.0283 93 149 150
-2.1645 -1.19706 4.86944 85 145 139
0.160188 -1.21646 5.0556 96 151 148
-2.35222 -1.16546 4.86303 81 123 112
-2.17167 -1.15022 4.88582 108 159 152
-2.41993 -1.14311 4.86026 88 147 132
-1.92124 -1.13887 4.89717 69 144 130
-2.03351 -1.13493 4.89198 92 153 139
-2.06641 -1.11401 4.89451 69 125 112
-2.62377 -1.10072 4.84759 62 123 109
-3.06301 -1.08885 4.81209 87 149 131
-2.026 -1.10197 4.89219 76 138 120
-0.0864177 -1.10537 5.0316 102 165 149
-2.10441 -1.06062 4.89574 156 220 190
-2.70955 -1.04507 4.85337 64 115 111
-2.74528 -1.03707 4.84591 74 126 126
-2.25928 -1.03968 4.8747 72 141 131
0.311173 -1.06461 5.06331 106 159 162
-2.63887 -1.01715 4.85385 78 137 123
-2.14088 -1.02096 4.90618 89 150 140
-0.93058 -1.02574 4.97489 89 164 148
-2.22936 -1.00327 4.88393 86 152 141
-2.03022 -1.00577 4.89736 87 150 140
-2.0633 -0.988752 4.90234 77 149 136
-2.11106 -0.983023 4.89655 64 123 109
-0.0961816 -0.994446 5.03359 86 142 129
-1.7516 -0.967385 4.92281 162 226 197
-1.78676 -0.968434 4.92669 76 141 125
-1.32934 -0.970941 4.95427 78 132 119
-1.23326 -0.971049 4.96663 84 129 126
-1.23398 -0.960345 4.9614 78 115 107
-2.95363 -0.922302 4.83433 83 148 123
-2.24481 -0.932238 4.89069 89 150 130
-1.79808 -0.932888 4.92752 150 219 198
-1.78998 -0.924699 4.91974 88 153 128
-1.67908 -0.924517 4.9386 155 230 208
-2.15604 -0.918028 4.9052 76 140 111
-2.10752 -0.915044 4.91123 79 128 112
-1.72443 -0.918699 4.94059 173 240 213
-1.24479 -0.920865 4.95278 80 150 133
-1.036 -0.927534 4.97741 163 229 210
-2.11616 -0.910695 4.9095 155 211 192
-1.73229 -0.889232 4.92889 85 145 127
-1.02979 -0.900863 4.98504 79 148 127
-1.70394 -0.878318 4.93892 92 156 137
-2.45488 -0.85988 4.88168 80 149 138
0.961752 -0.902505 5.13128 207 255 244
0.185947 -0.86282 5.0707 87 164 143
-2.07541 -0.813386 4.90951 69 133 111
-2.0791 -0.812982 4.92008 75 142 121
-2.12074 -0.796588 4.92129 68 125 110
-1.33912 -0.80367 4.96943 93 144 137
-1.31126 -0.800517 4.9785 76 146 129
-3.06061 -0.767121 4.86014 79 132 122
-1.80647 -0.760129 4.94394 160 229 216
-1.30803 -0.746532 4.97328 53 121 98
-0.285146 -0.755253 5.04023 168 239 206
-1.61337 -0.740642 4.95724 70 126 113
-1.10909 -0.744725 4.98535 76 140 121
0.069313 -0.753604 5.06455 63 130 115
-1.79374 -0.729719 4.94652 72 134 120
-0.539689 -0.732394 5.02413 78 146 129
0.206925 -0.738172 5.08079 88 152 140
-2.1294 -0.711647 4.93025 135 200 175
-1.87983 -0.702199 4.94664 85 144 136
-0.151248 -0.718925 5.04764 82 144 132
-1.29622 -0.706594 4.9877 166 227 201
-1.5853 -0.694976 4.96753 61 123 99
-0.581492 -0.704031 5.02939 79 144 123
1.12148 -0.713167 5.15643 130 186 167
-1.01363 -0.682035 5.01385 86 131 112
0.266098 -0.693579 5.08178 117 161 154
-0.327304 -0.684689 5.05239 158 224 212
-0.994146 -0.674142 5.01202 86 141 124
-1.43044 -0.66639 4.98295 116 155 134
-0.53651 -0.666911 5.03533 171 236 204
-1.89629 -0.652113 4.95114 154 220 201
-1.45482 -0.654622 4.98297 141 205 170
1.09479 -0.676458 5.15562 116 182 157
-2.13516 -0.630285 4.93638 80 133 119
-1.40181 -0.633969 4.97487 64 129 104
-0.318464 -0.639741 5.05718 61 132 116
-1.62959 -0.616066 4.97454 67 137 106
-1.22018 -0.608475 5.00085 128 217 191
-1.76034 -0.597246 4.97068 167 234 203
-1.12369 -0.595859 5.00431 82 135 122
-1.5718 -0.58733 4.98449 73 127 110
-1.56361 -0.588422 4.98937 149 201 178
-1.87348 -0.581598 4.96836 68 123 108
-1.79001 -0.569802 4.96622 80 128 116
-1.84088 -0.561928 4.95931 78 130 113
-1.62888 -0.560387 4.98008 76 133 112
-0.700554 -0.566786 5.03828 75 151 120
-1.83587 -0.5549 4.98011 150 215 194
-1.70948 -0.555821 4.98312 73 119 97
0.821796 -0.567998 5.14742 98 163 142
-1.62103 -0.546975 4.98536 133 175 150
-1.53926 -0.546795 4.9887 139 210 193
-0.248063 -0.553241 5.06394 91 154 138
-0.213998 -0.546624 5.07171 93 156 140
-0.020055 -0.547028 5.08787 100 151 137
0.15435 -0.549476 5.1025 107 151 150
0.120381 -0.546301 5.09794 63 124 96
-0.563365 -0.531637 5.04702 102 172 149
-1.76634 -0.51941 4.97508 90 121 100
-1.15193 -0.525005 5.02041 166 237 211
-0.188416 -0.525209 5.07917 114 176 164
-0.0385372 -0.521727 5.07997 68 123 106
0.0872813 -0.522051 5.09148 150 227 183
0.981989 -0.524475 5.1632 95 167 145
-0.669781 -0.512587 5.05159 162 241 202
-1.47087 -0.504327 4.99963 124 201 174
-1.20356 -0.50554 5.01923 90 158 133
0.0597517 -0.504957 5.0849 157 233 201
-1.71164 -0.489783 4.97821 123 180 165
-0.869967 -0.498196 5.04408 110 170 160
-0.739003 -0.496962 5.04665 148 228 199
-1.94052 -0.483922 4.97509 158 222 200
-1.78514 -0.485034 4.98542 133 155 137
-1.8826 -0.479294 4.98003 94 146 122
-1.29763 -0.483226 5.01938 155 222 201
0.110558 -0.484048 5.10201 136 196 162
-1.91017 -0.471204 4.98674 124 193 166
0.0639921 -0.477082 5.09805 69 137 112
-1.60274 -0.463546 4.99458 74 143 123
0.131288 -0.473235 5.11362 59 114 95
-1.77729 -0.461376 4.98732 62 90 70
-1.822 -0.456865 4.99043 120 166 147
-0.614261 -0.454906 5.06599 55 127 104
0.0829899 -0.460218 5.11169 144 222 185
-3.01408 -0.431598 4.91095 151 212 192
-0.323127 -0.447216 5.08199 83 153 130
-2.88242 -0.428042 4.93099 79 146 139
-1.92636 -0.432914 4.98201 110 149 134
0.983176 -0.44949 5.16607 91 152 132
-1.6523 -0.431503 4.99069 113 166 146
-0.300935 -0.436495 5.07753 62 121 100
-1.91257 -0.426189 4.98467 109 146 130
-1.90507 -0.425727 4.99523 129 168 146
-1.33324 -0.425504 5.02036 151 223 187
-0.94322 -0.427799 5.05218 68 137 126
0.158925 -0.432682 5.11193 68 134 109
-1.84679 -0.421399 4.9987 66 108 91
-0.25152 -0.425627 5.08611 72 141 128
-1.66525 -0.41316 5.00305 107 134 114
0.739137 -0.420629 5.1597 167 238 211
-2.0063 -0.386965 4.9778 105 163 135
-0.269622 -0.396793 5.09275 70 138 115
-3.09608 -0.376198 4.9191 103 167 148
-2.25935 -0.376564 4.97723 87 140 120
-1.24383 -0.383437 5.03908 158 223 198
-0.510423 -0.386532 5.0788 71 145 115
-0.45502 -0.38612 5.07911 80 153 121
-1.44853 -0.37718 5.02273 83 152 131
0.98768 -0.390854 5.1802 82 153 120
1.46149 -0.389923 5.19634 78 150 130
1.14329 -0.386837 5.18463 175 228 225
-0.113072 -0.377244 5.09156 86 137 129
-1.94242 -0.367494 4.99414 93 115 96
1.0813 -0.380027 5.17679 94 173 134
-2.25798 -0.363183 4.98319 66 119 99
-1.85996 -0.362997 4.99872 173 209 197
-0.201903 -0.369402 5.09579 176 234 223
-1.62104 -0.358885 4.99869 120 161 146
-1.95868 -0.357648 4.99398 135 186 172
-0.0513406 -0.367535 5.10612 96 158 144
-1.97288 -0.344899 4.99828 151 205 198
-1.94822 -0.34443 4.99239 133 156 158
-0.814172 -0.346852 5.07599 75 142 121
-0.728717 -0.343417 5.08168 79 155 131
-0.0740937 -0.340503 5.09832 80 148 137
-0.102435 -0.335253 5.10171 178 242 230
1.57953 -0.336527 5.21536 59 121 97
-1.63353 -0.316267 5.02641 108 148 123
1.04485 -0.32216 5.19137 108 170 148
-1.80299 -0.299639 5.02156 114 153 137
-0.246594 -0.299525 5.10725 84 153 138
0.0923888 -0.300047 5.1255 99 165 153
-1.78525 -0.283951 5.01912 106 145 130
-1.50849 -0.282977 5.03906 162 238 214
-1.53856 -0.28054 5.03146 75 163 140
-1.27675 -0.281353 5.05966 65 119 90
-1.88118 -0.27545 5.02865 105 141 127
-1.52825 -0.276429 5.03732 64 136 116
-1.73739 -0.269451 5.03022 110 132 113
-0.714573 -0.273317 5.09108 166 238 215
-0.522626 -0.274247 5.10492 160 226 201
0.745045 -0.27842 5.17919 158 226 209
-0.150606 -0.272979 5.11026 89 151 139
-1.59641 -0.262854 5.03425 159 206 198
0.529836 -0.259822 5.17159 95 153 142
-0.230576 -0.236552 5.11516 152 225 203
0.488307 -0.235468 5.15879 97 166 146
-1.63043 -0.221233 5.04494 65 97 78
-1.63124 -0.215047 5.04905 48 88 63
-0.173717 -0.214287 5.12558 47 109 91
-0.834146 -0.210031 5.09588 74 148 120
-1.73751 -0.196816 5.04685 137 184 168
-0.217494 -0.195971 5.12548 43 93 83
-0.0878802 -0.197344 5.14188 90 151 141
2.16738 -0.203761 5.30173 125 189 177
1.91349 -0.199628 5.27584 117 181 169
-1.653 -0.188031 5.05503 176 232 221
-0.198325 -0.189381 5.13053 143 205 193
-0.0625818 -0.187377 5.13374 81 147 136
-1.23346 -0.179699 5.07715 162 224 210
-1.40698 -0.177576 5.05914 52 126 100
-1.81764 -0.173725 5.04679 141 214 188
0.831811 -0.172872 5.20699 84 153 138
-1.8293 -0.16662 5.04696 43 113 90
-1.72864 -0.165724 5.04517 60 103 88
2.90393 -0.177689 5.33881 120 195 174
-1.77215 -0.138053 5.05499 66 135 120
-0.788221 -0.130138 5.12101 126 212 172
-0.651482 -0.117913 5.12436 91 151 121
-1.01506 -0.114911 5.11121 71 128 130
0.286996 -0.112317 5.19055 193 246 232
-1.06094 -0.109328 5.10886 120 178 207
-1.68697 -0.1052 5.06579 168 233 212
-1.39185 -0.106454 5.07682 68 139 122
-0.631806 -0.102845 5.13442 64 138 110
-1.01172 -0.0782573 5.12164 64 124 116
-0.972755 -0.057872 5.12491 82 147 126
-0.787154 -0.0547588 5.12992 52 117 96
-0.838063 -0.0526871 5.13552 69 136 115
-3.06048 -0.032543 5.00623 144 204 173
0.706312 -0.0343689 5.22404 104 178 160
-0.598951 -0.0305386 5.15539 41 103 91
-3.05076 -0.0284506 5.01586 64 106 88
-0.0336404 -0.0223614 5.17568 96 166 153
-0.770193 -0.00075055 5.1472 71 133 109
-0.270242 0.00348002 5.16982 85 167 145
0.302898 0.0142859 5.20714 95 155 147
-0.942466 0.017246 5.1452 67 143 109
-0.579173 0.0223677 5.15677 92 153 133
-0.580153 0.0245393 5.16772 66 126 108
-0.457014 0.0374121 5.17364 72 154 131
-0.360471 0.0403842 5.17082 75 151 127
-1.48364 0.0420949 5.11545 151 222 195
3.17974 0.0774882 5.41353 82 165 127
-2.94951 0.0805604 5.04754 103 153 141
-0.608871 0.0874204 5.18393 66 131 116
-0.962149 0.0891159 5.16013 84 146 128
2.96834 0.0963469 5.38921 87 155 138
-0.928709 0.108846 5.1581 104 159 134
-0.704742 0.112507 5.18455 153 218 196
-0.891263 0.122498 5.1684 96 144 120
-0.741141 0.137667 5.19013 88 147 126
-0.853546 0.152905 5.17842 49 99 65
0.825913 0.153651 5.26277 111 180 160
-0.977909 0.155371 5.1697 70 137 105
-0.720225 0.157883 5.19283 90 155 129
-1.36351 0.156514 5.15392 101 163 145
-1.3834 0.16971 5.15756 83 149 124
-0.548188 0.17738 5.20986 80 144 132
0.461704 0.179281 5.25843 181 237 226
1.08042 0.180199 5.2979 78 147 132
2.38114 0.185649 5.39491 108 169 155
-0.954185 0.183451 5.18086 63 126 100
0.444339 0.186949 5.26287 227 252 248
0.999204 0.191416 5.29416 119 185 174
-0.90198 0.192927 5.18631 90 152 130
-0.711149 0.191285 5.20277 148 219 199
-0.628692 0.208615 5.21239 70 138 121
-1.23812 0.210317 5.17553 85 142 134
-0.867042 0.210381 5.18886 167 217 205
-0.861045 0.210408 5.19359 99 153 140
-3.00565 0.212366 5.07926 58 107 93
-2.9107 0.213328 5.08261 161 223 201
-0.66689 0.216947 5.21512 54 135 120
1.71279 0.223095 5.34329 106 183 169
-3.10869 0.214777 5.07107 194 234 222
-1.14983 0.220805 5.18554 65 131 120
-0.878757 0.220725 5.18886 93 150 129
2.91216 0.243433 5.4228 82 144 132
-1.44098 0.231013 5.16516 76 132 119
-1.25969 0.245347 5.18407 80 150 144
-1.42157 0.242542 5.15991 76 153 139
-0.679709 0.25367 5.22687 80 144 125
-0.612675 0.252918 5.22293 74 146 133
-1.27503 0.258817 5.19024 96 169 153
-0.685345 0.259035 5.22111 162 234 212
0.610505 0.264292 5.2979 106 169 159
-0.983055 0.263338 5.19526 69 132 112
-0.756682 0.263495 5.22124 45 99 76
2.86667 0.276025 5.42935 112 186 162
-0.494687 0.270415 5.24329 165 237 215
-0.375599 0.275011 5.23753 76 138 122
-0.872215 0.279301 5.21318 76 128 104
-0.663656 0.278411 5.23137 71 130 122
-1.11608 0.284641 5.20595 92 152 134
1.0905 0.298134 5.32386 84 144 133
-0.653423 0.299851 5.2369 57 125 108
-2.92337 0.300581 5.1209 57 115 97
-0.67764 0.308421 5.24064 55 123 106
-1.2021 0.309353 5.20451 56 118 102
-0.968622 0.322079 5.21949 77 140 124
1.11389 0.331053 5.32593 83 147 128
-2.9281 0.322596 5.12314 120 175 158
0.913916 0.340673 5.33302 93 158 142
-1.65059 0.332751 5.19025 205 255 234
-0.664844 0.348249 5.25347 83 149 138
-0.573802 0.351948 5.25936 181 223 235
1.78772 0.361868 5.38606 107 177 160
-2.88291 0.365741 5.14735 144 211 190
-0.794669 0.382518 5.26149 72 129 114
2.46553 0.403565 5.4412 95 166 150
0.916171 0.402299 5.33528 84 157 141
-1.14864 0.421963 5.2535 69 148 134
-2.9441 0.415244 5.16377 75 132 117
-3.15128 0.422755 5.13086 70 129 114
-2.82653 0.431493 5.17165 172 237 222
-2.82616 0.431797 5.17275 174 236 222
-0.905891 0.451083 5.2611 77 146 133
-2.5071 0.451048 5.19454 60 132 112
-2.80455 0.457159 5.1794 145 215 185
-1.13596 0.463648 5.26038 75 141 130
-1.05154 0.473613 5.26175 59 135 111
-2.44544 0.478275 5.20715 40 109 94
-1.14694 0.491156 5.27651 74 141 136
-2.63165 0.493306 5.19531 99 155 160
-2.47806 0.500993 5.21396 58 135 107
-3.12222 0.508064 5.17776 93 145 135
2.91652 0.553226 5.50661 116 175 155
2.84532 0.563155 5.50198 95 170 154
-2.97834 0.553035 5.21311 148 229 202
-2.56336 0.553149 5.22293 139 210 183
-2.77745 0.557682 5.22989 70 117 95
-2.67572 0.559959 5.22607 86 135 121
2.59509 0.591874 5.49666 102 173 156
-3.05039 0.577156 5.20971 66 142 118
-2.92713 0.596405 5.23666 59 116 101
-2.77285 0.599133 5.24131 81 123 106
-2.88011 0.621556 5.25092 48 107 92
-2.70611 0.623954 5.25285 60 130 113
-2.69338 0.623966 5.25234 71 152 133
-1.99121 0.632245 5.27373 108 155 199
-2.97992 0.62887 5.24126 95 163 140
-2.49763 0.654598 5.26045 132 217 189
-2.99955 0.652917 5.2445 81 143 129
-2.54645 0.662741 5.26876 56 121 105
-2.26473 0.662179 5.27469 129 178 210
-3.25773 0.658909 5.21487 51 113 95
-2.26882 0.676457 5.28347 212 245 255
-2.66546 0.699739 5.28306 55 111 98
-1.93871 0.700067 5.29686 69 127 133
3.4654 0.751434 5.60072 93 174 141
-2.57285 0.711184 5.28361 160 239 196
-3.20916 0.712972 5.23656 54 99 90
-3.02002 0.718759 5.27014 68 124 105
-2.59995 0.71786 5.28736 58 104 91
-2.85453 0.729226 5.28941 57 127 104
-2.7126 0.738224 5.29786 59 131 119
-2.89205 0.750649 5.29171 59 122 106
-2.5019 0.751512 5.29374 57 105 81
-3.02932 0.757032 5.28903 70 119 103
-3.14115 0.767434 5.26798 192 238 225
-2.82714 0.774573 5.30897 64 126 112
-2.4398 0.778425 5.30994 44 119 98
-2.25312 0.780444 5.31326 121 153 218
2.60555 0.81799 5.55937 93 159 147
-2.65776 0.787308 5.31511 37 91 78
-2.19142 0.792044 5.33065 91 146 173
2.1663 0.819626 5.53383 93 168 154
-3.32082 0.788681 5.27519 90 138 120
2.17118 0.827297 5.5399 142 225 210
-2.7578 0.801676 5.31875 57 120 110
-3.03205 0.80713 5.31151 85 138 124
-2.85645 0.817998 5.32564 71 141 124
-3.0857 0.841393 5.31825 57 132 111
-2.98843 0.84356 5.33016 62 110 98
-2.48587 0.845626 5.33198 66 128 116
-2.95527 0.863811 5.35106 64 133 118
-2.5628 0.857425 5.33413 90 152 136
-0.329961 0.894098 5.42264 247 255 254
-3.05004 0.886309 5.33189 70 125 108
1.2843 0.918144 5.51807 81 155 157
-3.06851 0.89251 5.338 68 139 113
3.50697 0.95788 5.66447 105 178 152
-3.09266 0.907951 5.33308 20 76 65
2.46467 0.961206 5.60658 105 152 143
2.43413 0.96303 5.59115 160 220 196
2.43275 0.970764 5.58635 74 142 131
-2.95974 0.948273 5.36507 71 130 115
2.8821 0.999403 5.63943 88 155 146
2.41432 1.00318 5.59806 67 120 100
2.42333 1.01565 5.61649 135 213 189
1.34231 1.05188 5.57309 56 76 71
2.83271 1.06696 5.64974 103 165 159
1.27901 1.06011 5.58323 82 156 138
-0.883173 1.04839 5.48627 51 111 100
-2.93251 1.06689 5.42138 65 137 124
1.24397 1.11767 5.59767 149 183 172
-2.87157 1.10956 5.43739 91 146 149
-3.16396 1.12728 5.43261 72 135 119
1.11522 1.16828 5.58312 76 119 108
-3.05094 1.14888 5.44564 190 225 228
-3.05938 1.1526 5.44213 223 255 255
2.87631 1.2051 5.68924 133 193 175
-2.71014 1.16817 5.46339 86 147 143
2.83488 1.21944 5.69855 132 159 150
-0.874754 1.20506 5.53787 151 209 208
0.788163 1.2289 5.61326 183 227 221
2.71919 1.26213 5.70825 93 150 141
-3.08577 1.22494 5.47665 79 137 126
2.03327 1.27078 5.69115 86 154 137
-2.50458 1.27592 5.50354 79 129 129
-2.40029 1.28558 5.51586 91 139 133
-0.348258 1.32204 5.59321 95 149 149
2.66747 1.39274 5.7565 130 174 181
-2.41767 1.35667 5.54104 75 144 133
-0.269293 1.40194 5.62066 152 225 203
-0.296398 1.40449 5.63517 138 222 188
-0.270241 1.40925 5.63778 153 215 193
2.74976 1.47017 5.78821 103 156 147
-1.20463 1.45717 5.70364 64 153 114
-1.27317 1.44629 5.63104 136 218 169
1.96859 1.48492 5.76538 82 148 136
-0.207194 1.48309 5.6848 52 100 88
-1.23763 1.5092 5.71829 46 128 85
-0.205092 1.50387 5.6968 34 105 85
-1.22617 1.51786 5.72162 71 131 101
-1.32618 1.52983 5.6603 121 202 163
-1.30591 1.55276 5.69791 129 200 160
2.8131 1.61297 5.83164 75 138 118
2.77615 1.65334 5.8649 201 236 222
-0.872136 1.64936 5.82326 236 255 255
1.92703 1.66456 5.84155 108 177 166
-1.34476 1.66261 5.71708 141 226 182
-0.879865 1.62413 5.46356 113 147 183
-1.35379 1.72137 5.75409 140 221 194
-3.0704 1.7159 5.70124 49 132 107
-2.75474 1.71594 5.7035 186 240 240
-0.566396 1.6346 5.37105 155 197 255
-1.04787 1.80708 5.89773 79 148 165
-1.4267 1.76606 5.74877 194 242 244
-0.569634 1.65706 5.38071 162 210 255
-1.04542 1.82741 5.90226 66 127 117
-1.28152 1.82178 5.85785 33 81 53
-1.05124 1.84524 5.93948 95 166 156
1.03086 1.83431 5.86446 54 90 78
1.03619 1.84645 5.87319 136 208 188
-1.29066 1.84277 5.85755 41 101 71
-0.575044 1.70395 5.40292 149 197 255
-2.98982 1.81704 5.75429 46 105 91
2.00081 1.8731 5.93096 77 127 115
2.01479 1.87315 5.92331 97 157 147
-3.37288 1.82108 5.7468 215 242 226
0.918764 1.8538 5.8568 65 113 87
-1.06676 1.8828 5.94099 77 141 171
0.905574 1.86068 5.865 53 126 88
0.929881 1.87444 5.85878 54 122 91
1.01686 1.87558 5.87097 143 203 172
1.89261 1.89898 5.93977 93 156 146
1.96629 1.8936 5.92695 160 225 210
-0.482628 1.78964 5.58933 145 136 139
-1.05607 1.90852 5.95284 44 130 120
-1.06678 1.91609 5.95281 147 250 212
-0.581141 1.75034 5.42075 166 198 255
-0.542164 1.75884 5.4464 151 203 255
-0.992231 1.96918 6.09812 95 101 160
1.99245 1.92715 5.94336 52 106 89
-0.755579 1.77821 5.48651 86 106 183
0.963663 1.90416 5.86654 54 84 79
-1.0624 1.9419 5.97388 63 154 151
-0.588518 1.76503 5.43177 70 72 136
-1.32151 1.90807 5.86075 114 183 156
-3.00695 1.90044 5.79875 53 115 97
-0.336254 1.82297 5.55782 173 214 255
-1.07105 1.99616 5.99514 69 154 164
2.35873 2.00703 5.98736 84 155 138
-1.51144 1.97214 5.84453 164 236 216
1.95886 2.02636 5.98214 159 234 213
-1.32999 2.01576 5.92031 110 161 147
-1.20897 2.2411 6.56591 115 207 188
-0.652089 2.05954 6.03026 148 197 241
-0.759412 2.4624 6.94567 46 61 130
-0.776989 2.57546 7.02403 51 60 123
-2.07349 4.65592 11.8833 100 166 184
-2.80627 6.14151 15.1733 31 66 92
-1.22263 4.507 11.0044 154 203 255
-3.17446 7.06539 17.1363 26 67 89
-1.48359 5.35686 12.6698 152 173 224
-2.87411 7.62498 16.9012 123 136 198
-2.34978 9.45187 20.6011 152 196 255
-4.17389 11.3511 24.5316 116 106 189
-3.03787 12.3558 26.6883 150 192 255
0 0 0 205 236 255
0 0 0 153 193 251
0 0 0 155 194 255
-1.07003 -2.29906 5.0041 106 156 146
0.152126 -2.33514 5.11913 105 170 144
-0.791148 -2.26137 5.02888 110 165 168
-1.88394 -2.2072 4.9244 101 160 140
0.572896 -2.30013 5.15633 80 146 121
-2.79932 -2.15461 4.84847 110 159 143
-0.826266 -2.22911 5.02862 105 156 158
-1.69973 -2.18724 4.9381 170 234 222
-2.04797 -2.16697 4.91359 83 145 139
-0.474884 -2.22079 5.04795 93 152 138
-0.693595 -2.19184 5.02916 126 168 181
-2.90808 -2.0654 4.81693 116 176 152
-2.5157 -2.085 4.86675 132 188 175
-2.44372 -2.0771 4.86497 145 201 188
-0.849144 -2.12118 5.01545 72 128 117
-1.02471 -2.10492 4.9922 175 225 223
-2.88403 -2.02832 4.81249 113 177 148
-0.801546 -2.10102 4.9911 99 164 155
1.61496 -2.19607 5.23508 111 178 149
0.36235 -2.13016 5.12391 112 168 155
-1.23485 -2.06733 4.97889 114 168 168
-2.67372 -1.99738 4.83641 121 163 140
-0.240637 -2.07648 5.04474 97 158 154
-0.929623 -2.03915 4.99068 155 219 207
-0.922168 -2.02919 4.99341 88 152 146
-2.36621 -1.96246 4.86397 73 141 130
-1.06024 -1.97896 4.97496 168 232 220
-2.62452 -1.92423 4.84385 163 218 209
-2.89605 -1.89736 4.80254 139 187 158
-0.798638 -1.97217 5.00267 93 155 143
-2.854 -1.88714 4.81957 94 146 116
-2.41711 -1.89128 4.85092 86 140 127
-0.943867 -1.93834 4.98374 102 155 145
-0.525222 -1.95196 5.02078 171 228 213
-1.3695 -1.91478 4.94603 91 148 140
-1.31937 -1.91079 4.94547 109 166 158
-0.782969 -1.93213 5.00083 87 144 135
-2.4287 -1.86076 4.86387 114 182 165
-0.214447 -1.93901 5.05447 93 143 139
-1.17291 -1.89352 4.95943 166 222 211
-1.43153 -1.8812 4.94439 83 150 135
-2.69717 -1.82732 4.82084 66 112 100
-2.27456 -1.83526 4.86123 158 218 208
-2.92607 -1.79707 4.80586 103 146 113
-1.09515 -1.84465 4.96026 169 231 217
-2.77408 -1.79502 4.83877 55 98 83
-1.71701 -1.78348 4.90684 162 218 219
-0.723171 -1.81006 4.99674 179 230 223
0.817619 -1.84709 5.13716 105 165 155
-0.10307 -1.80765 5.04876 107 172 157
-1.65501 -1.75457 4.91887 85 142 143
-1.19739 -1.7617 4.9477 91 142 138
-0.40512 -1.77222 5.0169 85 140 131
-2.57407 -1.7044 4.85058 108 182 154
-2.89477 -1.68561 4.8161 112 151 126
-2.77931 -1.67055 4.81139 104 160 139
-0.0905084 -1.74971 5.03821 85 140 125
-2.59362 -1.66749 4.84417 67 107 89
-3.02502 -1.64182 4.79098 111 158 132
-2.74085 -1.65164 4.81814 125 189 160
-0.730891 -1.70764 4.9791 192 237 234
-0.628248 -1.7142 4.9977 187 229 228
-2.47994 -1.65335 4.8356 122 171 157
-2.31141 -1.64912 4.8472 99 159 153
-1.88485 -1.66279 4.8963 82 142 131
-0.958089 -1.69275 4.97368 164 230 219
-2.97578 -1.62304 4.79803 113 149 135
-2.07803 -1.6548 4.89154 193 233 231
-1.6127 -1.63583 4.91863 87 138 130
-0.39529 -1.66327 5.01886 88 157 137
-0.758901 -1.62623 4.97674 87 138 134
-2.25053 -1.58119 4.87057 93 138 129
-0.463995 -1.62065 5.00743 176 239 223
-2.7012 -1.54764 4.82327 94 162 145
-2.90283 -1.53491 4.80348 80 135 120
-1.0772 -1.58239 4.95401 105 163 158
-3.0144 -1.51528 4.78772 57 105 87
-2.85583 -1.51859 4.80964 125 175 151
-2.28543 -1.52743 4.85431 73 134 124
-2.86604 -1.50862 4.80846 150 207 186
-1.51458 -1.54494 4.91845 76 147 137
-1.15488 -1.55216 4.94604 88 154 143
-2.07908 -1.53186 4.88379 76 147 137
-0.322002 -1.56813 5.02344 170 232 216
-2.52405 -1.50595 4.83512 163 224 210
-2.13145 -1.52267 4.87998 86 146 146
-3.0162 -1.49531 4.80494 72 108 91
-2.97557 -1.48786 4.80154 84 152 129
-2.718 -1.48361 4.81976 156 213 192
-2.68791 -1.47804 4.83424 96 148 131
-0.429632 -1.50882 5.0081 180 234 221
-0.309177 -1.50399 5.0175 174 234 224
-2.71677 -1.44259 4.82558 82 138 119
-2.53455 -1.43482 4.8381 88 157 136
-0.237253 -1.49222 5.02875 94 151 142
-2.31208 -1.43349 4.84985 83 142 128
-2.05437 -1.44462 4.88989 159 233 203
-0.688472 -1.47288 4.9873 182 235 225
-2.92966 -1.41123 4.80243 89 140 120
-2.55249 -1.41658 4.82829 80 126 113
0.453388 -1.48948 5.07899 93 159 147
-1.27186 -1.43767 4.95698 98 151 164
-2.5259 -1.3925 4.83671 75 140 125
-0.361523 -1.43676 5.01096 75 144 129
-2.26364 -1.39028 4.85934 82 136 113
-1.75256 -1.39142 4.90936 143 206 197
-0.89849 -1.41008 4.9642 94 153 139
0.142723 -1.42321 5.04487 104 164 156
-2.07996 -1.37665 4.89021 79 141 125
-0.333583 -1.4061 5.01102 90 144 131
-2.42181 -1.35203 4.84084 78 140 122
1.53317 -1.43967 5.17222 112 177 168
-2.0372 -1.35788 4.89347 86 146 135
-2.5873 -1.32845 4.83098 81 136 119
-0.428691 -1.36493 5.00267 78 147 132
-2.09778 -1.32254 4.8885 167 221 208
-2.08863 -1.31607 4.88636 82 122 111
-2.02817 -1.30634 4.88583 93 162 149
-2.44735 -1.29457 4.84364 102 168 133
-2.06594 -1.30296 4.88349 63 108 91
0.101046 -1.33948 5.04334 114 170 165
0.303498 -1.33986 5.07761 160 228 211
-2.18185 -1.27005 4.87123 174 243 223
-2.35662 -1.2586 4.85776 62 116 99
-2.06915 -1.24497 4.88371 72 133 107
-2.23179 -1.2286 4.87213 90 158 141
-2.33716 -1.21839 4.84668 87 145 121
-2.12044 -1.22604 4.88348 71 146 118
-2.19841 -1.22028 4.87067 171 236 214
-2.32108 -1.21117 4.85696 163 220 199
-0.203955 -1.25514 5.03905 89 146 145
-2.01473 -1.20665 4.89034 160 237 200
-2.90217 -1.14008 4.81774 75 144 134
-2.42377 -1.14403 4.85924 91 141 129
-2.07908 -1.14336 4.87564 79 137 119
-2.62579 -1.13732 4.84857 163 241 217
-1.93985 -1.13992 4.88989 150 219 199
-1.9294 -1.12174 4.89284 82 148 136
-2.12258 -1.11368 4.88845 60 109 87
-2.16611 -1.10538 4.86123 168 219 205
-3.06423 -1.0889 4.8145 89 151 133
-2.66636 -1.09763 4.84694 84 138 131
-2.20199 -1.10465 4.88213 68 137 122
-2.12965 -1.10338 4.88579 149 217 194
-2.02525 -1.10193 4.8903 76 138 120
-2.03353 -1.10233 4.90924 85 144 130
-2.74581 -1.06984 4.84242 63 118 109
-0.0040504 -1.10918 5.02684 165 227 215
-1.06585 -1.08849 4.95961 68 137 122
-0.166572 -1.10263 5.02729 100 165 139
-2.72934 -1.05488 4.84728 60 109 111
-2.41971 -1.05788 4.85355 77 127 103
-2.32611 -1.06069 4.86873 86 148 124
-2.70836 -1.04506 4.85187 64 114 110
0.960984 -1.10318 5.12066 86 151 136
-2.64527 -1.04274 4.85463 73 147 121
-2.23323 -1.04709 4.88124 73 134 120
-2.74758 -1.0371 4.8492 70 124 124
-2.73073 -1.03776 4.84778 67 113 114
-0.203003 -1.07691 5.03084 136 222 198
-2.0243 -1.04332 4.89013 79 136 127
-2.28269 -1.04082 4.88703 75 144 133
-1.36979 -1.04074 4.95354 75 139 133
-2.66002 -1.01065 4.85471 71 112 104
-2.46462 -1.00227 4.86326 88 148 138
-0.808065 -1.02606 4.99048 104 167 151
-2.35856 -0.997336 4.87468 72 128 107
-2.07121 -0.99979 4.8961 72 127 112
-1.88514 -1.00395 4.92934 186 231 222
-0.363329 -1.02029 5.02574 83 153 140
-2.16332 -0.98141 4.89943 78 135 126
-1.91481 -0.982312 4.91875 152 225 203
-2.14046 -0.970891 4.90278 76 123 114
-1.99732 -0.971814 4.91386 86 155 140
-0.0957186 -0.994447 5.03107 86 142 129
-2.17967 -0.957714 4.88042 86 156 139
-1.33046 -0.971552 4.9592 78 132 119
-1.23358 -0.971044 4.96754 81 128 125
-1.7634 -0.957032 4.93563 145 209 190
-1.28694 -0.958856 4.95881 56 110 105
-1.26793 -0.958034 4.95887 199 246 237
-1.24772 -0.955494 4.95299 89 137 119
-2.24643 -0.932173 4.89528 97 162 141
-1.94479 -0.931951 4.91325 203 243 218
-1.79104 -0.924651 4.92285 89 153 131
-2.92176 -0.906442 4.84689 135 197 181
-2.10817 -0.915009 4.91322 83 132 118
-1.24514 -0.920836 4.95456 73 143 126
-2.37651 -0.895197 4.87786 158 240 222
-2.286 -0.892263 4.89409 90 152 136
-1.58585 -0.900952 4.94613 179 241 225
-2.349 -0.88526 4.89193 82 148 137
-1.71102 -0.894508 4.9382 68 133 117
-0.149955 -0.912675 5.03643 98 163 148
1.15583 -0.928354 5.13567 89 163 145
-2.11423 -0.88552 4.90773 142 213 193
-1.73279 -0.889187 4.93089 78 136 118
-0.189246 -0.904138 5.03802 73 153 130
-3.02047 -0.865555 4.8399 77 126 112
