ply
format ascii 1.0
element vertex 1127
property float x
property float y
property float z
property uchar blue
property uchar green
property uchar red
end_header
0.514224 -1.04642 1.83403 138 194 199
0.48391 -1.07251 1.89394 133 198 176
0.485669 -1.05731 1.89195 125 161 145
0.534079 -0.987383 1.797 177 194 203
0.527238 -0.98219 1.81059 196 228 233
0.766399 -0.700962 1.30576 105 152 126
-0.1164 -1.55567 3.09427 110 154 125
0.429059 -0.96616 2.01039 155 164 178
-0.0685427 -1.42249 3.00437 113 156 129
0.744047 -0.617197 1.33376 135 200 155
-0.0565527 -1.37314 2.98342 128 161 140
-0.0133444 -1.27379 2.89098 109 138 123
0.470221 -0.831332 1.9015 70 139 106
-0.00411535 -1.23424 2.86859 121 158 132
0.0102157 -1.19606 2.84156 131 176 149
0.597721 -0.685006 1.64348 116 144 178
0.520355 -0.733069 1.79677 177 228 220
0.457493 -0.78621 1.93444 129 147 178
0.0113741 -1.13903 2.84717 138 203 177
0.0167911 -1.13159 2.83379 170 216 193
0.47227 -0.74325 1.89274 172 226 219
0.00612777 -1.10371 2.85591 176 224 200
0.469815 -0.703209 1.89039 145 166 193
0.476128 -0.674872 1.86624 157 177 202
0.477272 -0.674711 1.86689 88 119 150
0.476367 -0.674712 1.86825 156 185 212
0.526112 -0.556383 1.74021 230 247 243
0.578882 -0.503041 1.61958 90 118 125
0.157821 -0.728155 2.49927 130 179 159
0.464455 -0.506571 1.83414 200 209 206
0.478284 -0.477686 1.79874 205 202 197
0.476938 -0.471358 1.79837 193 191 191
0.206677 -0.569946 2.3608 111 164 151
0.279345 -0.484979 2.13445 87 154 123
0.177054 -0.533146 2.39269 102 169 140
0.290683 -0.415372 2.07603 159 191 172
0.257775 -0.397937 2.18129 131 184 157
0.298685 -0.301114 2.04676 170 108 60
-0.0776824 -0.17153 2.69728 85 153 118
-0.127046 -0.0888313 2.74341 110 164 147
-0.142776 -0.0697293 2.75585 147 215 184
-0.217622 -0.00814473 2.87185 60 141 108
0 0 0 162 213 215
0.383703 -1.25957 2.07343 90 117 181
0.382353 -1.21498 2.08912 129 158 195
0.35598 -1.20748 2.14321 135 171 179
0.397233 -1.15154 2.06218 117 132 178
0.532249 -0.982614 1.80137 212 235 237
0.528667 -0.98197 1.8068 105 114 151
0.379472 -1.13921 2.10343 93 138 142
0.417445 -1.09317 2.0242 169 214 225
-0.148487 -1.68134 3.13116 177 244 205
0.670383 -0.795825 1.5197 127 153 170
-0.0736701 -1.559 2.98466 48 78 59
-0.147154 -1.6373 3.14519 55 120 94
0.431097 -1.01748 2.00518 138 161 199
0.733312 -0.692736 1.37657 165 218 228
0.452794 -0.974828 1.95842 186 225 240
0.522279 -0.901769 1.81785 200 239 231
0.519545 -0.895509 1.82322 184 246 234
0.519239 -0.889401 1.82593 238 251 253
0.418352 -0.975781 2.0224 173 185 195
0.420079 -0.975802 2.02296 120 149 153
0.430923 -0.963965 2.00307 107 121 149
-0.0651384 -1.42795 2.9896 47 100 73
-0.070405 -1.42848 3.0051 45 111 76
0.532083 -0.845592 1.7968 104 163 165
0.445112 -0.91572 1.95431 173 244 211
-0.0735461 -1.40365 3.0151 135 211 180
-0.0652512 -1.38875 3.0059 145 204 176
0.459524 -0.888613 1.93116 76 161 123
-0.0523945 -1.36884 2.97241 106 132 108
0.586147 -0.764301 1.67559 72 161 128
0.592659 -0.753753 1.66654 83 148 127
0.46746 -0.851227 1.90701 83 150 119
0.526306 -0.80027 1.80259 77 111 110
0.526188 -0.798235 1.80565 68 123 136
0.526422 -0.798165 1.80627 63 112 126
0.443721 -0.864402 1.969 198 242 249
-0.0255232 -1.28311 2.92678 38 53 45
0.467176 -0.826159 1.90761 124 184 153
-0.00338491 -1.23675 2.86603 107 155 127
0.449443 -0.839912 1.955 104 155 157
0.482628 -0.805802 1.87866 69 127 92
0.530325 -0.75133 1.78652 164 215 207
0.478393 -0.790362 1.88983 177 235 224
0.47835 -0.787391 1.88844 98 143 146
0.741848 -0.557579 1.33055 210 231 228
0.520237 -0.74202 1.80464 82 119 153
0.631615 -0.643188 1.56736 35 78 81
0.635177 -0.638022 1.55821 160 219 204
0.627395 -0.639705 1.57509 68 118 108
0.495065 -0.750734 1.85734 79 142 110
0.450251 -0.784924 1.94139 208 232 252
0.652634 -0.604948 1.51726 201 255 238
0.633919 -0.614897 1.55812 178 229 215
0.609473 -0.631285 1.60564 107 138 171
0.00519888 -1.10366 2.85465 87 148 122
0.63456 -0.593654 1.54456 123 194 177
0.599083 -0.620227 1.62628 103 142 186
0.0555049 -0.954868 2.52394 150 201 174
0.388254 -0.780652 2.06214 155 139 127
0.613689 -0.593242 1.59071 119 155 203
0.376008 -0.76061 2.08542 196 203 200
0.369346 -0.760683 2.09071 131 114 105
0.468197 -0.684308 1.88787 168 202 232
0.626784 -0.566762 1.55593 192 228 234
0.392195 -0.738906 2.04608 165 163 169
0.366583 -0.755347 2.09841 198 202 196
0.695095 -0.504383 1.39739 86 138 131
0.399867 -0.726451 2.03059 167 158 149
0.647614 -0.540266 1.50376 203 243 242
0.414301 -0.698226 1.99225 179 176 171
0.406168 -0.694122 2.00901 195 201 196
0.15125 -0.816085 2.45948 144 214 177
0.142176 -0.758307 2.53391 163 227 198
0.156851 -0.728233 2.4961 125 177 159
0.505703 -0.508106 1.76027 127 139 175
0.239723 -0.622035 2.25973 111 174 154
0.211378 -0.529992 2.33185 89 159 136
0.281625 -0.441381 2.10239 52 93 72
0.285958 -0.272446 2.05182 66 126 92
-1.64955 -0.263122 5.78885 235 255 242
-0.119459 -0.132464 2.75223 235 246 243
-0.112613 -0.0586028 2.69057 90 139 149
-1.94792 0.114666 6.22818 94 151 143
-1.98091 0.348899 6.19164 208 239 238
-1.14973 0.359939 4.55241 146 220 192
0.554121 -1.05761 1.74735 61 117 82
0.538556 -1.07483 1.78017 145 226 179
0.447503 -1.18532 1.96003 191 222 223
0.534613 -1.07864 1.7875 139 220 173
0.575499 -1.02577 1.7025 65 132 103
0.55634 -1.04691 1.74919 118 198 151
0.440077 -1.18 1.97153 152 216 216
0.537776 -1.06373 1.78265 116 174 133
0.565702 -1.02779 1.72596 122 227 170
0.406105 -1.21791 2.03784 147 169 187
0.560656 -1.03398 1.73891 65 113 89
0.427259 -1.16916 2.00121 85 103 96
0.545033 -1.03255 1.77072 125 143 136
0.531293 -1.04207 1.79993 109 140 137
0.703697 -0.835836 1.44898 75 128 118
0.513176 -1.05711 1.83547 166 216 234
0.507632 -1.06017 1.84858 84 110 124
0.506918 -1.0608 1.85221 94 130 148
0.513569 -1.04617 1.83511 137 198 212
0.695804 -0.835177 1.4678 122 166 190
0.551537 -1.00168 1.76061 81 105 105
0.539006 -1.01408 1.7862 102 117 133
0.415977 -1.14928 2.02333 138 206 189
0.416371 -1.14935 2.02411 141 206 191
0.528135 -1.02228 1.80995 163 208 222
0.717584 -0.80128 1.42184 108 144 144
0.507994 -1.04089 1.85042 177 212 238
0.486095 -1.05744 1.89383 106 143 127
0.397241 -1.15109 2.06267 114 130 177
0.414513 -1.12447 2.02956 179 194 227
0.502788 -1.02786 1.86199 149 183 189
0.719465 -0.780531 1.41726 198 235 243
0.730477 -0.766406 1.39447 128 142 136
0.37378 -1.15829 2.1141 124 176 192
0.422071 -1.09765 2.02128 185 226 235
0.255033 -1.27266 2.34576 127 108 93
0.378738 -1.13615 2.09912 99 141 146
0.707927 -0.768708 1.43864 243 255 255
0.742488 -0.728244 1.36246 60 92 87
0.681164 -0.792998 1.49326 79 140 142
-0.165837 -1.68815 3.18093 71 143 113
-0.073824 -1.55938 2.9867 38 70 51
-0.120062 -1.60243 3.08444 143 206 174
0.423098 -1.03751 2.01643 107 116 153
-0.139053 -1.61537 3.12888 137 202 180
-0.131973 -1.60832 3.11519 52 101 79
0.429248 -1.0217 2.00272 183 222 255
0.736172 -0.68913 1.36938 165 218 208
0.732936 -0.692842 1.37611 165 218 228
0.452616 -0.974829 1.95819 196 233 247
0.526191 -0.900909 1.81538 179 213 206
0.51807 -0.905568 1.82837 81 135 135
0.657444 -0.762936 1.54185 139 178 222
-0.117564 -1.52926 3.09581 143 217 187
0.738249 -0.666615 1.36213 174 228 215
0.448885 -0.960842 1.96967 191 228 242
0.534543 -0.87086 1.79 141 225 207
-0.0505786 -1.43891 2.94953 128 164 134
0.750147 -0.64429 1.32811 62 112 102
-0.045478 -1.42704 2.94409 127 159 128
0.446454 -0.952988 1.97488 82 118 112
0.750697 -0.640826 1.32789 121 186 147
0.697268 -0.698823 1.45389 135 169 212
0.534953 -0.85733 1.78773 137 218 193
-0.0825958 -1.45169 3.03654 84 140 119
-0.0694282 -1.42862 3.00582 51 95 72
0.482264 -0.892428 1.89387 94 147 160
0.53249 -0.845575 1.797 102 157 160
0.646472 -0.734538 1.56041 86 105 150
0.698849 -0.681884 1.44735 137 177 212
0.559868 -0.81272 1.73317 133 201 194
0.560718 -0.812432 1.73584 141 216 202
0.43271 -0.925226 1.99575 134 185 181
0.430354 -0.918629 1.9939 78 91 107
0.459927 -0.888748 1.93117 58 145 107
-0.0522851 -1.36894 2.97318 114 136 108
0.43748 -0.906437 1.98866 56 70 68
0.586674 -0.764127 1.67645 72 157 129
0.466328 -0.862855 1.90832 89 142 115
0.619429 -0.727657 1.6091 221 250 255
0.572168 -0.769288 1.70925 70 123 114
0.465793 -0.855541 1.90929 164 229 197
-0.266314 -1.52646 3.40037 157 215 197
0.438783 -0.883899 1.97568 112 141 138
0.532436 -0.797113 1.79073 92 134 127
-0.0378337 -1.30669 2.9402 125 169 152
0.449842 -0.864753 1.9485 56 93 77
0.526457 -0.80024 1.80285 77 111 110
0.639275 -0.698187 1.57128 178 213 247
-0.0401706 -1.31077 2.96213 148 216 185
0.45372 -0.859 1.94466 25 81 62
0.526738 -0.798599 1.80615 63 112 126
0.577277 -0.748882 1.69248 59 118 104
0.508593 -0.81104 1.84257 109 164 169
0.522201 -0.796298 1.80728 185 237 237
0.465873 -0.838241 1.90612 92 142 118
0.508806 -0.807802 1.83884 175 230 233
0.674484 -0.652011 1.48709 131 162 193
0.60293 -0.714743 1.63962 146 225 212
0.634723 -0.68423 1.57328 107 139 188
0.468678 -0.826362 1.90826 129 189 158
0.755853 -0.566697 1.30336 111 174 148
-0.003574 -1.23657 2.86385 114 159 132
0.449165 -0.8402 1.95141 113 166 163
0.476611 -0.812339 1.89175 66 100 89
0.599689 -0.70723 1.64386 129 218 198
0.601745 -0.699579 1.63991 210 248 255
0.626084 -0.68067 1.59263 159 214 217
0.458821 -0.821295 1.92835 41 78 68
0.619978 -0.682802 1.60287 124 167 200
0.687244 -0.618597 1.45237 127 169 198
0.507463 -0.778073 1.83611 98 139 161
0.543196 -0.743549 1.76096 83 134 106
0.559559 -0.726796 1.72454 126 183 192
0.612405 -0.674341 1.61265 179 226 248
0.743133 -0.558 1.32993 201 233 228
0.45672 -0.805859 1.93315 112 169 170
0.624285 -0.664103 1.59006 108 151 184
0.0741327 -1.04728 2.52472 102 139 113
0.647415 -0.640345 1.53809 127 152 196
0.640732 -0.644754 1.54953 198 238 255
0.0742633 -1.04733 2.52758 108 146 118
0.743645 -0.55234 1.32716 185 217 223
0.546484 -0.725941 1.75279 230 255 252
0.647173 -0.634756 1.53755 90 117 154
0.460225 -0.793182 1.92808 84 96 100
0.656502 -0.622272 1.51173 94 123 150
0.459307 -0.787763 1.92877 153 191 203
0.522775 -0.729107 1.78933 122 191 181
0.633798 -0.634104 1.55702 75 134 120
0.529705 -0.720726 1.77604 144 206 184
0.627599 -0.639704 1.57505 70 120 110
0.452053 -0.781866 1.93947 115 135 166
0.0137348 -1.14269 2.84476 141 224 185
0.0141084 -1.14277 2.84628 141 224 185
0.626853 -0.627599 1.56681 102 183 158
0.437703 -0.78598 1.97122 135 145 163
0.60402 -0.648082 1.62361 152 210 216
0.642694 -0.613306 1.53214 75 131 118
0.657446 -0.600765 1.50385 218 250 255
0.652405 -0.605003 1.51708 201 255 238
0.631487 -0.618158 1.55591 77 148 138
0.477424 -0.74204 1.88036 142 193 179
0.48484 -0.731578 1.86061 156 221 199
0.465155 -0.747272 1.90683 148 167 172
0.627128 -0.616672 1.56586 141 210 190
0.64122 -0.603536 1.53626 56 112 101
0.68138 -0.570132 1.45461 99 138 130
0.680746 -0.567103 1.44985 52 83 82
0.461641 -0.735795 1.90771 149 182 202
0.43646 -0.755359 1.96507 206 197 193
0.46901 -0.73037 1.89703 127 143 149
0.596969 -0.62824 1.63063 118 147 184
0.570525 -0.647564 1.68635 108 174 169
0.379026 -0.793329 2.08218 146 141 142
0.449723 -0.735153 1.93256 190 221 242
0.460867 -0.727721 1.91409 191 211 228
0.598854 -0.620428 1.6254 101 134 180
0.689521 -0.545581 1.42712 181 236 249
0.601446 -0.615838 1.61758 121 149 184
0.40313 -0.769824 2.03167 178 173 170
0.630572 -0.590001 1.55102 53 119 107
0.696735 -0.5311 1.40937 89 137 141
0.444919 -0.726804 1.94198 199 208 211
0.401656 -0.755735 2.0296 185 186 182
0.376165 -0.760519 2.08622 196 203 200
0.443544 -0.707152 1.93366 161 155 150
0.424998 -0.721036 1.97928 180 177 173
0.369847 -0.76049 2.09233 125 110 101
0.468259 -0.684274 1.88807 181 215 245
0.035459 -1.00275 2.78695 132 195 169
0.366906 -0.755279 2.09892 189 193 188
0.406854 -0.723271 2.01331 195 200 201
0.399588 -0.728135 2.02862 187 184 176
0.45818 -0.684482 1.90677 206 230 248
0.683733 -0.516154 1.42616 180 226 233
0.366894 -0.749311 2.09465 134 121 123
0.430346 -0.701441 1.963 178 176 168
0.695418 -0.504147 1.39806 89 143 136
0.653043 -0.535844 1.49085 182 221 235
0.456954 -0.680032 1.90689 152 157 188
0.475535 -0.662326 1.86472 114 135 162
0.467638 -0.667616 1.88088 121 139 176
0.623021 -0.551872 1.55129 169 234 212
0.440365 -0.685876 1.94054 196 200 201
0.617331 -0.557449 1.56666 93 123 148
0.468487 -0.662927 1.88198 215 244 255
0.653159 -0.523479 1.48548 206 242 242
0.381548 -0.717725 2.06139 136 129 126
0.438425 -0.661781 1.93784 139 140 138
0.55919 -0.563322 1.67699 99 155 166
0.0335485 -0.923503 2.77656 57 89 65
0.14349 -0.823679 2.47723 119 178 140
0.622237 -0.516184 1.5375 154 221 200
0.151291 -0.816044 2.46003 147 221 185
0.60248 -0.529952 1.58267 98 159 163
0.604001 -0.523604 1.58082 125 175 197
0.563619 -0.545213 1.66329 86 145 131
0.528642 -0.551289 1.73089 148 207 186
0.521474 -0.552445 1.74559 76 97 105
0.530379 -0.538296 1.71975 156 210 180
0.598231 -0.495669 1.58225 89 146 167
0.589223 -0.499229 1.59962 91 143 160
0.530391 -0.52424 1.71164 115 149 143
0.511638 -0.531375 1.74813 170 237 208
0.531394 -0.522354 1.71676 144 198 191
0.590155 -0.479123 1.58432 137 215 198
0.590492 -0.478617 1.58595 129 198 183
0.510623 -0.524863 1.75301 77 112 115
0.55062 -0.498778 1.66289 116 201 163
0.590551 -0.475314 1.58617 90 134 133
0.156736 -0.728097 2.49744 120 176 155
0.154705 -0.727747 2.5019 115 186 166
0.517789 -0.500835 1.72688 68 99 96
0.599692 -0.452983 1.55679 176 237 211
0.505635 -0.508222 1.75984 127 139 175
0.524355 -0.488396 1.70877 78 150 127
0.542438 -0.477172 1.67206 52 70 71
0.487507 -0.506436 1.7926 207 206 202
0.534244 -0.47866 1.68658 240 255 254
0.510144 -0.489142 1.7422 183 206 222
0.480946 -0.50429 1.80244 170 159 151
0.504711 -0.488204 1.75045 173 201 232
0.514423 -0.475192 1.72619 125 139 175
0.532468 -0.46299 1.684 69 86 99
0.503479 -0.478707 1.74882 162 171 184
0.468342 -0.496046 1.82348 141 129 129
0.468899 -0.491282 1.82197 193 195 196
0.507765 -0.461635 1.73335 203 227 245
0.476363 -0.474782 1.79777 141 120 119
0.505151 -0.459146 1.73787 123 134 164
0.0300586 -0.709752 2.73596 82 155 139
0.496959 -0.463052 1.75401 160 151 142
0.499961 -0.449649 1.74402 199 206 201
-0.647033 -1.02922 4.1014 94 168 142
-0.100425 -0.745004 2.98616 99 161 169
0.497109 -0.442245 1.74625 202 216 212
0.249094 -0.558409 2.257 36 52 35
0.48454 -0.440844 1.76951 179 168 171
0.0671396 -0.625207 2.63399 85 152 137
-0.0216801 -0.665154 2.81873 201 243 220
0.0263056 -0.606097 2.70143 73 142 121
0.21883 -0.507765 2.30433 120 177 168
-0.0210567 -0.593147 2.79169 82 153 133
0.281756 -0.441287 2.10271 63 102 81
0.241697 -0.445878 2.23594 97 159 141
0.284389 -0.417605 2.08883 139 170 143
0.257755 -0.397559 2.18223 134 188 159
0.252367 -0.371336 2.17879 51 94 83
0.262194 -0.365521 2.15789 50 109 89
0.237314 -0.372476 2.20936 64 102 102
-1.72226 -0.854394 6.12606 85 157 135
-0.279347 -0.440068 3.21768 112 163 183
-5.63435 -1.71539 13.9101 214 255 248
-0.543567 -0.474305 3.73569 96 168 148
0.28727 -0.271572 2.05315 64 122 87
-0.228881 -0.38346 3.09785 93 149 138
-1.83451 -0.575068 6.26021 202 238 246
-1.12808 -0.439903 4.83497 121 186 170
0.0630858 -0.229681 2.45758 71 140 119
-2.73793 -0.61025 8.0312 79 139 121
-0.142491 -0.211713 2.84159 89 149 131
0.00734063 -0.170204 2.53011 90 147 139
-0.164258 -0.146582 2.8566 68 129 101
-0.118932 -0.131966 2.75355 253 255 255
0.010666 -0.122609 2.48738 81 141 123
0.0294727 -0.111986 2.44393 98 162 143
-0.132978 -0.0948726 2.75795 154 224 187
-0.0289848 -0.0787568 2.53333 82 123 162
-0.140895 -0.0666407 2.74974 69 118 98
-0.112113 -0.0596471 2.68733 74 119 130
-2.16631 -0.0600265 6.71426 84 142 124
-1.10746 -0.0152476 4.63808 199 244 228
-0.167584 -0.0215629 2.78105 80 132 115
-1.94499 0.113322 6.22033 88 145 137
-2.1026 0.268683 6.47761 79 131 121
-1.98129 0.350358 6.19787 236 255 255
-7.49313 1.24078 16.7092 108 182 156
-10.6569 4.54217 21.8778 236 255 254
0.534623 -1.07866 1.78793 140 216 168
0.461289 -1.15616 1.93303 143 200 202
0.475212 -1.13436 1.90089 147 205 180
0.707694 -0.850164 1.43849 75 114 99
0.503012 -1.09258 1.84953 118 137 120
0.522683 -1.07088 1.81255 132 185 171
0.41666 -1.18864 2.02122 144 202 184
0.563553 -1.01296 1.73419 154 198 192
0.549697 -1.02646 1.76007 80 98 99
0.544969 -1.03256 1.77468 108 129 121
0.560265 -1.01144 1.74296 86 115 119
0.5174 -1.05335 1.8249 130 187 186
0.706227 -0.82719 1.4412 159 208 206
0.513008 -1.05733 1.83696 159 208 224
0.555151 -1.00459 1.75186 112 142 169
0.702257 -0.828008 1.44997 108 160 172
0.398619 -1.17556 2.05668 125 129 158
0.553462 -0.998079 1.75127 150 199 213
0.357946 -1.21822 2.13474 101 152 148
0.512635 -1.04624 1.83822 152 199 227
0.508138 -1.04841 1.8458 211 244 255
0.399162 -1.16836 2.0602 127 146 184
0.416717 -1.14936 2.02389 148 215 200
0.531634 -1.01756 1.79953 106 132 149
0.507652 -1.04006 1.85017 172 209 235
0.551808 -0.986716 1.75749 85 122 120
-0.174408 -1.78027 3.1571 124 167 146
0.363132 -1.19047 2.12539 92 145 135
0.397434 -1.15117 2.06372 113 130 179
-0.212935 -1.81707 3.24113 85 125 114
0.400075 -1.14313 2.06041 142 159 192
0.693569 -0.812872 1.47078 125 153 177
0.502016 -1.02782 1.86021 157 192 205
0.721978 -0.774231 1.41125 108 147 155
0.702156 -0.793606 1.45395 103 169 164
-0.176359 -1.72266 3.19069 78 140 110
0.405089 -1.0989 2.04853 158 192 235
0.707476 -0.768517 1.43897 245 255 255
0.673549 -0.803044 1.51152 250 255 254
0.221087 -1.2851 2.41659 202 208 207
0.717537 -0.750903 1.41832 240 254 250
0.690431 -0.776469 1.47451 106 161 158
0.730992 -0.729994 1.38643 106 148 185
0.231466 -1.26369 2.3979 191 202 206
-0.14801 -1.65365 3.14999 100 154 119
0.771556 -0.669999 1.29051 97 160 116
-0.0616234 -1.52878 2.96381 57 97 79
0.404147 -1.04704 2.05207 135 190 195
0.423939 -1.03058 2.01871 229 248 255
0.516387 -0.933309 1.83165 173 238 247
0.751037 -0.669792 1.32952 64 112 86
0.733125 -0.692777 1.3764 165 218 228
-0.0693157 -1.50792 2.99348 106 145 124
-0.114994 -1.55007 3.08507 45 84 62
-0.0872959 -1.50847 3.02816 129 181 151
0.412876 -1.00846 2.04164 166 205 227
0.735815 -0.674411 1.36939 143 186 183
0.748627 -0.655638 1.33523 66 142 108
0.528789 -0.87995 1.80103 133 216 201
0.422041 -0.9806 2.01501 162 193 214
-0.0622331 -1.44303 2.9771 34 50 39
0.528774 -0.871712 1.80506 182 235 226
0.740831 -0.651111 1.34878 121 204 152
0.750279 -0.641177 1.32654 108 184 142
-0.0800264 -1.45795 3.02788 128 190 172
0.535007 -0.857325 1.78779 137 218 193
0.757745 -0.627728 1.30763 142 223 160
0.748254 -0.635289 1.32846 46 69 55
0.533201 -0.85472 1.79108 70 132 120
-0.0667142 -1.42935 3.00378 56 79 65
0.744508 -0.637159 1.34077 52 81 65
0.421373 -0.957028 2.02239 206 233 254
0.698617 -0.681921 1.4472 137 177 212
0.432172 -0.934759 1.99621 57 71 70
0.740753 -0.626966 1.34279 130 225 175
0.449548 -0.901683 1.94359 177 247 211
0.676539 -0.693904 1.49231 129 169 217
0.583081 -0.779533 1.6868 180 231 217
0.563186 -0.796466 1.72704 113 181 174
0.584828 -0.776921 1.68276 85 150 128
0.736039 -0.630664 1.3645 132 170 202
-0.012228 -1.33665 2.89503 254 239 206
0.467941 -0.879575 1.91396 163 255 219
0.635453 -0.726115 1.58031 116 141 191
-0.0580125 -1.37249 2.98568 127 166 141
0.463659 -0.868879 1.91363 57 113 92
0.580071 -0.762597 1.68573 53 112 84
0.529469 -0.805178 1.79771 140 214 178
0.535038 -0.802009 1.78807 92 148 137
0.630319 -0.713183 1.59561 69 95 125
0.448049 -0.861072 1.95187 147 215 190
0.569327 -0.75514 1.7152 95 142 156
0.741538 -0.594176 1.34274 159 195 219
-0.0261428 -1.28395 2.92274 54 68 62
-0.0172574 -1.27896 2.90699 97 121 113
0.464452 -0.837824 1.91093 76 121 94
0.522991 -0.792319 1.80967 119 176 177
0.752503 -0.577252 1.30984 144 204 174
0.74363 -0.585446 1.33363 142 206 201
0.444759 -0.85778 1.96577 102 144 151
0.602719 -0.714069 1.63885 146 225 212
0.446736 -0.850447 1.95638 87 143 144
-0.00732959 -1.24255 2.8764 123 164 137
0.451148 -0.83835 1.95084 119 168 160
0.609121 -0.697704 1.62513 104 132 173
0.642751 -0.667256 1.55277 101 123 159
0.577536 -0.72251 1.6867 138 173 199
-0.242594 -1.43421 3.35832 105 131 113
0.450878 -0.828389 1.94222 84 137 140
0.48642 -0.794526 1.86659 49 118 91
0.519792 -0.770823 1.80894 114 149 159
0.687776 -0.619612 1.45459 134 173 205
0.702266 -0.604814 1.42118 104 139 172
-0.278815 -1.44851 3.42909 157 213 200
0.587122 -0.703641 1.66973 123 160 194
0.538209 -0.73917 1.77006 74 109 105
0.611172 -0.67519 1.61706 159 198 212
0.742906 -0.55809 1.32967 199 228 225
0.452775 -0.808991 1.94578 134 191 200
0.525469 -0.74551 1.78685 126 163 155
0.62542 -0.658362 1.58173 83 97 119
0.00891171 -1.18185 2.85305 42 69 43
0.501986 -0.763306 1.84128 82 140 122
0.730143 -0.563565 1.35399 147 186 214
0.520784 -0.742369 1.80484 70 103 136
0.656195 -0.623582 1.51435 78 104 134
0.484698 -0.766434 1.87365 157 235 198
-0.218058 -1.34801 3.30912 97 135 117
0.454825 -0.78989 1.94121 217 237 254
0.619961 -0.647631 1.59446 85 148 139
0.518262 -0.729338 1.80235 99 136 162
0.442111 -0.791626 1.95918 150 174 204
0.521864 -0.725641 1.79405 179 231 244
0.707474 -0.569331 1.40131 105 142 170
0.640533 -0.621193 1.53871 82 121 123
0.623887 -0.630677 1.57928 70 117 114
0.515157 -0.715148 1.80522 117 163 180
0.422721 -0.789178 1.99657 116 92 80
0.530044 -0.702036 1.77732 122 182 211
0.680205 -0.570763 1.45251 99 138 130
0.680221 -0.567646 1.44795 60 95 91
0.613647 -0.619862 1.59506 92 145 158
0.43734 -0.759964 1.96547 191 199 198
0.598814 -0.620459 1.62526 101 134 180
0.449005 -0.735378 1.93404 188 221 240
0.708969 -0.529171 1.38582 93 145 158
0.618398 -0.600804 1.58241 101 144 159
0.393738 -0.771348 2.04951 144 136 129
0.575499 -0.62841 1.66466 106 168 162
0.620482 -0.589369 1.5704 67 111 124
0.64749 -0.565177 1.5105 69 133 121
0.471311 -0.698476 1.88021 78 88 98
0.459214 -0.703318 1.90707 107 104 120
0.691245 -0.518292 1.41111 166 221 196
0.424361 -0.720993 1.9798 186 185 181
0.370849 -0.760504 2.09493 122 109 101
0.468747 -0.684042 1.88942 184 219 245
0.399153 -0.728196 2.02827 176 173 165
0.647582 -0.543558 1.50255 109 151 163
0.367092 -0.749332 2.09439 137 124 126
0.477271 -0.669893 1.86504 203 240 255
0.646319 -0.539798 1.50339 208 251 248
0.410022 -0.710211 2.00242 118 103 94
0.439678 -0.684602 1.94035 205 211 210
0.392613 -0.717022 2.03865 189 184 186
0.411147 -0.703399 2.00026 167 168 164
0.690751 -0.498611 1.40347 92 144 150
0.468589 -0.658705 1.87871 143 165 193
0.624228 -0.548821 1.55212 100 140 159
0.381842 -0.717468 2.06329 156 152 151
0.425391 -0.684415 1.96494 194 202 201
0.446344 -0.671476 1.92562 151 154 158
0.675276 -0.505646 1.43585 112 156 169
0.431917 -0.679842 1.95345 132 127 128
0.616819 -0.545823 1.56504 237 253 255
0.661251 -0.512561 1.46357 106 160 161
0.299095 -0.771462 2.23843 155 192 218
0.664575 -0.50567 1.45719 106 143 147
0.424724 -0.673245 1.96703 150 149 151
0.480931 -0.632709 1.84428 105 112 137
0.655661 -0.506767 1.47381 142 158 194
0.566699 -0.563622 1.66437 188 246 221
0.0343495 -0.923378 2.78059 59 91 67
0.653871 -0.489481 1.47319 136 153 192
0.524502 -0.557279 1.73975 233 251 252
0.526097 -0.550816 1.73677 81 108 105
0.521248 -0.552654 1.74477 76 97 105
0.529315 -0.538819 1.72261 129 185 156
0.634558 -0.467541 1.50109 129 167 197
0.591444 -0.485439 1.59027 82 140 129
0.557597 -0.503939 1.65707 149 236 208
0.591872 -0.48583 1.58875 81 137 126
0.615144 -0.46635 1.53242 154 228 198
0.216708 -0.69447 2.35999 103 132 129
0.459484 -0.543423 1.85928 168 164 169
0.491788 -0.524111 1.79382 147 139 162
0.507512 -0.504884 1.75501 198 218 243
0.509378 -0.501219 1.7475 122 118 153
0.503683 -0.496103 1.75678 108 109 129
0.527768 -0.482903 1.70217 78 125 123
0.479786 -0.505992 1.80636 187 184 180
0.513997 -0.487524 1.73695 216 242 255
0.501617 -0.484481 1.74492 179 205 229
0.516604 -0.475685 1.72031 213 238 255
0.470995 -0.493613 1.814 157 145 143
0.510903 -0.472159 1.72712 196 225 252
0.468289 -0.491307 1.82198 195 197 198
0.464639 -0.485278 1.82653 156 160 161
0.507876 -0.461576 1.73351 203 227 245
0.49685 -0.462977 1.75433 160 151 142
0.500999 -0.456208 1.73974 203 217 229
0.525291 -0.437278 1.68983 124 178 201
0.472749 -0.461894 1.79867 211 216 215
0.500422 -0.45029 1.74371 193 200 195
0.501135 -0.445712 1.73556 126 111 109
0.480488 -0.455426 1.78273 151 148 140
0.485276 -0.441346 1.76743 123 108 105
0.491527 -0.438415 1.75326 143 132 134
0.500863 -0.433974 1.7359 137 109 109
-5.57097 -3.04942 14.0118 216 244 238
0.273161 -0.450177 2.17128 255 249 240
0.242599 -0.441087 2.22628 61 74 58
0.262719 -0.366852 2.15279 62 105 84
0.252514 -0.371239 2.17908 51 94 83
0.257575 -0.368516 2.1647 121 191 161
0.157518 -0.292383 2.31179 253 255 255
-0.118988 -0.132527 2.75179 243 254 251
-0.128195 -0.0911628 2.74449 66 107 92
-0.973164 -0.0731513 4.39881 91 175 151
-0.10994 -0.0605084 2.68673 74 116 121
-0.137279 -0.0447394 2.72829 179 218 227
0 0 0 91 126 116
0 0 0 76 99 84
0 0 0 95 120 124
-10.6903 3.61501 22.2334 252 254 254
0.480095 -1.14013 1.89316 116 202 168
0.416718 -1.20658 2.01473 116 151 161
0.426867 -1.18967 1.99863 185 226 235
0.432754 -1.17992 1.98692 99 124 126
0.488922 -1.11687 1.87837 74 126 108
0.418823 -1.19441 2.01677 106 139 132
0.419469 -1.19092 2.01212 93 129 115
0.552524 -1.0309 1.74928 160 229 218
0.416978 -1.18872 2.02196 142 201 181
0.384656 -1.21496 2.0859 120 143 193
0.510897 -1.07136 1.83993 126 166 184
0.406693 -1.18093 2.04089 120 164 165
0.514724 -1.05733 1.8334 144 194 217
-0.16233 -1.80417 3.10486 61 87 73
0.720621 -0.811546 1.41577 104 116 104
0.518396 -1.04322 1.82525 84 126 115
0.544438 -1.01337 1.77901 180 215 218
0.712227 -0.820085 1.43793 73 86 84
0.513399 -1.04629 1.83992 160 202 231
0.508757 -1.04817 1.84712 211 244 255
0.496681 -1.05859 1.87056 78 104 88
0.411054 -1.14741 2.02547 75 102 98
0.423128 -1.13752 2.01481 156 202 209
0.356202 -1.20667 2.14302 111 150 158
0.405734 -1.15212 2.04157 107 128 143
0.720923 -0.793392 1.41074 101 162 148
-0.227802 -1.84869 3.25985 175 233 209
0.493577 -1.04331 1.87648 126 183 182
0.410318 -1.13081 2.03499 121 123 157
0.424553 -1.11619 2.00989 101 95 120
0.50144 -1.0278 1.86055 150 182 193
0.478714 -1.04848 1.90172 100 168 151
0.484766 -1.04694 1.8966 115 172 157
0.372366 -1.16389 2.11725 124 169 172
0.731843 -0.756508 1.38724 125 136 134
0.250661 -1.28939 2.35788 129 115 117
0.678402 -0.813798 1.50333 81 104 120
0.246729 -1.28111 2.36121 209 211 211
0.679296 -0.799806 1.49772 89 140 136
0.731697 -0.745671 1.39223 120 187 180
0.725462 -0.749588 1.40146 197 235 253
-0.0817508 -1.60187 2.98187 85 142 134
-0.0963046 -1.61464 3.01696 34 55 46
0.248589 -1.26265 2.36492 201 207 206
0.673757 -0.803115 1.51099 250 255 255
-0.0771308 -1.5903 2.98235 160 212 218
0.221535 -1.28522 2.41752 192 197 196
-0.180711 -1.70643 3.20953 103 168 147
-0.0730729 -1.57714 2.97213 92 147 160
0.204719 -1.29524 2.45347 132 120 118
0.731814 -0.729861 1.38709 110 150 185
-0.082676 -1.58427 2.99801 42 74 57
0.230766 -1.26482 2.40191 195 201 206
0.238839 -1.25477 2.38368 135 126 129
0.246843 -1.24512 2.37147 217 229 233
-0.152705 -1.65983 3.15149 151 213 189
0.737948 -0.712046 1.36916 143 195 201
0.220543 -1.26357 2.41886 202 210 209
-0.154952 -1.65107 3.16139 79 105 91
-0.0960784 -1.57409 3.01719 48 67 50
-0.131658 -1.61121 3.09333 36 65 49
0.397827 -1.07163 2.06921 103 152 168
0.757739 -0.67606 1.31861 65 113 95
-0.120644 -1.58953 3.09461 224 236 214
0.497003 -0.955199 1.87502 78 119 128
0.430025 -1.02084 2.00403 187 217 252
0.516627 -0.933286 1.8323 177 238 248
-0.055085 -1.50496 2.96151 40 55 51
0.731567 -0.697972 1.38126 97 113 142
0.52667 -0.907198 1.80524 54 86 81
0.751397 -0.669665 1.33002 70 120 96
-0.0698658 -1.50804 2.99432 139 176 156
0.74761 -0.669543 1.33984 48 82 65
-0.100155 -1.53455 3.06311 150 215 193
0.525271 -0.90119 1.81749 184 212 206
0.761894 -0.64531 1.29988 65 126 90
-0.104769 -1.51179 3.07395 72 92 69
0.759199 -0.642679 1.30954 87 161 127
0.448099 -0.960903 1.96798 201 235 251
0.743938 -0.650472 1.33913 69 124 97
0.750401 -0.643847 1.32986 65 113 101
-0.0617992 -1.4441 2.98416 32 50 43
-0.0465712 -1.42738 2.94674 123 155 124
0.443263 -0.948899 1.96773 81 114 117
0.528389 -0.87176 1.80437 176 234 223
0.534006 -0.864933 1.79685 83 136 126
0.759829 -0.631743 1.30545 49 103 68
0.438034 -0.956111 1.98487 189 230 245
0.740939 -0.651104 1.3488 124 207 155
0.746597 -0.63974 1.33592 129 199 152
0.745464 -0.636934 1.34152 34 60 44
0.421683 -0.957016 2.02308 207 233 255
0.545643 -0.833442 1.77266 103 128 138
-0.0739608 -1.42245 3.01992 183 204 182
0.0423982 -1.30941 2.79166 160 202 215
0.432676 -0.932948 1.99589 61 84 80
-0.0602864 -1.38105 2.98641 48 73 53
0.737842 -0.626222 1.3487 113 197 155
0.436973 -0.914934 1.98754 238 252 251
-0.0126811 -1.33636 2.89262 248 226 185
0.585539 -0.776724 1.68423 73 147 117
0.741947 -0.615171 1.34038 32 76 53
0.42872 -0.914486 2.0045 105 130 162
0.441082 -0.895416 1.96361 53 74 66
0.599323 -0.754363 1.65137 114 169 172
0.639892 -0.71649 1.56876 91 122 155
0.719938 -0.638489 1.39798 99 117 164
0.494338 -0.850995 1.87183 196 239 248
0.736048 -0.620326 1.35857 84 93 120
0.656793 -0.697294 1.53205 114 120 167
0.580759 -0.762374 1.68553 49 108 80
0.44837 -0.886185 1.96204 94 143 121
0.61032 -0.73569 1.62663 106 135 179
0.469017 -0.855791 1.9036 177 246 213
0.601593 -0.740427 1.64635 80 129 139
0.450887 -0.870708 1.94697 153 224 181
0.450195 -0.870907 1.94398 159 238 195
0.478351 -0.844489 1.89003 74 161 123
0.532449 -0.798721 1.78755 100 152 142
0.627556 -0.710592 1.58944 84 102 133
-0.276663 -1.53526 3.42729 130 194 175
0.576513 -0.750718 1.68958 65 124 104
0.729971 -0.607482 1.36893 137 169 198
0.745771 -0.585196 1.32687 78 108 109
0.442532 -0.864149 1.96791 191 234 243
0.452606 -0.849346 1.9448 249 251 251
0.645545 -0.681817 1.55524 127 147 194
0.650033 -0.675718 1.54478 128 145 201
0.463505 -0.83754 1.92455 91 121 110
0.744393 -0.584845 1.33563 150 202 209
0.482538 -0.824457 1.89408 126 225 185
0.703454 -0.622416 1.42634 98 133 159
0.601582 -0.707134 1.63376 83 132 142
0.640355 -0.672758 1.55769 254 253 255
-0.00694608 -1.2427 2.87818 114 155 128
0.0428709 -1.20176 2.78567 89 140 112
0.644694 -0.668183 1.55017 85 86 142
0.577788 -0.722322 1.68787 138 179 201
0.635932 -0.670495 1.5693 91 98 137
0.461398 -0.814237 1.92119 97 161 139
0.687958 -0.619568 1.45474 127 169 198
0.461553 -0.82096 1.93745 63 110 101
0.691631 -0.613666 1.44568 113 170 179
0.740701 -0.56841 1.33887 136 146 180
-0.0229853 -1.22875 2.92925 146 205 177
0.73927 -0.562742 1.33923 201 227 243
0.744616 -0.555851 1.3222 70 84 83
0.625673 -0.662009 1.58376 68 84 101
0.469552 -0.789048 1.90846 84 96 96
0.596819 -0.683086 1.64861 123 153 200
0.650721 -0.636409 1.53112 239 255 255
0.632049 -0.646655 1.56713 56 72 89
-0.00962037 -1.19587 2.91387 127 201 173
0.632203 -0.644128 1.56527 54 69 85
-0.217958 -1.34821 3.31098 97 135 117
0.459834 -0.786394 1.93139 177 203 219
-0.280523 -1.37943 3.40043 105 160 135
0.601827 -0.663815 1.63382 97 115 156
0.624233 -0.642901 1.58015 136 216 187
0.398306 -0.826201 2.04435 133 128 129
0.471684 -0.765535 1.89251 131 203 157
0.527268 -0.723371 1.78623 66 104 122
0.597329 -0.666937 1.64212 205 235 254
0.707753 -0.569338 1.40121 103 139 169
0.652455 -0.614654 1.51826 87 130 127
0.640249 -0.619698 1.53653 75 107 112
0.542652 -0.696705 1.7468 101 159 148
0.624465 -0.630989 1.57755 63 120 111
0.657898 -0.600804 1.50166 203 237 250
0.403341 -0.810648 2.04562 202 211 214
0.640849 -0.608906 1.53146 133 212 179
0.44349 -0.765818 1.94912 177 208 233
0.429825 -0.776278 1.98449 118 94 76
0.648201 -0.595186 1.51625 81 157 139
0.631066 -0.60685 1.54929 70 123 113
0.449568 -0.749174 1.93248 130 136 155
0.459758 -0.737649 1.90834 188 215 241
0.616564 -0.601965 1.57781 94 135 137
0.378569 -0.787957 2.07985 201 207 206
0.629435 -0.589878 1.55054 115 184 173
0.377637 -0.778329 2.08123 122 97 87
0.617537 -0.594096 1.57995 179 221 220
0.660805 -0.555176 1.48058 177 245 234
0.664552 -0.554926 1.47463 99 152 143
0.694157 -0.528751 1.40941 99 140 142
0.402625 -0.755131 2.02942 184 185 181
0.708174 -0.51717 1.38115 126 178 194
0.386305 -0.764442 2.06874 126 107 102
0.463873 -0.698814 1.8942 195 227 250
0.655269 -0.54785 1.4926 233 255 255
0.414934 -0.727086 1.99557 197 198 196
0.428764 -0.71845 1.96916 175 178 176
0.444057 -0.706027 1.94152 190 187 183
0.691754 -0.518209 1.41124 163 222 194
0.687872 -0.519993 1.42093 62 94 100
0.452516 -0.693541 1.91709 206 228 240
0.47813 -0.668637 1.86582 212 245 255
0.645878 -0.543479 1.50335 89 131 150
0.412779 -0.716342 1.99799 202 209 212
0.450909 -0.68681 1.92307 200 207 202
0.410609 -0.709869 2.00475 104 88 76
0.454579 -0.678634 1.91227 154 151 153
0.389171 -0.724006 2.04804 133 115 108
0.0180953 -0.992093 2.82531 127 195 178
0.440326 -0.68398 1.94298 208 213 212
0.623918 -0.549075 1.55124 108 149 164
0.470852 -0.659648 1.87633 116 142 172
0.641189 -0.532946 1.51264 89 131 130
0.0155009 -0.976424 2.8211 78 113 93
0.419273 -0.679296 1.96663 118 113 112
0.656858 -0.514114 1.47581 239 253 255
0.297542 -0.771584 2.23774 147 181 210
0.410192 -0.688661 1.99784 122 102 101
0.615497 -0.538767 1.55257 110 151 173
0.405006 -0.691813 2.00965 202 208 213
0.432159 -0.664595 1.94996 124 112 112
0.436411 -0.662601 1.94247 159 164 163
0.656676 -0.506714 1.47356 139 154 187
0.665599 -0.500211 1.45342 213 239 239
0.587189 -0.551031 1.62412 84 129 133
0.619798 -0.515515 1.54716 103 140 136
0.0457887 -0.901587 2.74886 113 177 147
0.16225 -0.801545 2.44924 91 146 121
0.56716 -0.537535 1.65577 97 138 140
0.527409 -0.548135 1.72557 117 175 150
0.530304 -0.538128 1.72513 137 185 157
0.591125 -0.498552 1.59507 97 147 143
0.582854 -0.500113 1.61232 127 181 174
0.554811 -0.515742 1.66763 170 245 223
0.526982 -0.525182 1.71979 74 107 103
0.527401 -0.518484 1.71101 166 220 213
0.530839 -0.509482 1.70848 57 98 90
0.512966 -0.519597 1.74325 85 111 97
0.507889 -0.519648 1.75723 115 136 164
0.153945 -0.728327 2.50757 140 209 189
0.545492 -0.48899 1.67423 151 217 175
0.494353 -0.517309 1.78763 135 127 144
0.500281 -0.50919 1.76853 162 167 192
0.160815 -0.703603 2.48658 142 206 184
0.458663 -0.527124 1.85178 214 216 216
0.183629 -0.680072 2.42788 182 182 168
0.503873 -0.49583 1.75777 114 115 136
0.569245 -0.449305 1.61333 148 231 206
0.461838 -0.507136 1.83546 209 215 214
0.503851 -0.482851 1.75021 173 203 220
0.544076 -0.456671 1.65834 67 97 98
0.17581 -0.662117 2.4452 59 92 78
0.522977 -0.468537 1.71031 92 123 146
0.46909 -0.491397 1.82285 194 198 199
0.459241 -0.493788 1.83924 151 142 138
0.473171 -0.479937 1.80001 210 220 220
0.515066 -0.452242 1.71311 205 238 253
0.514341 -0.443839 1.7133 107 112 161
0.473914 -0.462305 1.79666 196 199 197
0.489335 -0.451657 1.75985 160 158 150
0.24484 -0.570801 2.26586 27 34 29
0.47132 -0.456146 1.79592 136 126 126
0.504555 -0.442263 1.72482 123 111 117
0.496112 -0.438593 1.74228 210 221 219
0.491478 -0.438063 1.75451 132 121 124
0.500576 -0.434198 1.73525 134 106 105
0.217645 -0.510064 2.30786 128 194 182
0.217383 -0.498847 2.30424 109 137 137
0.217301 -0.499397 2.30162 72 103 94
-1.36152 -1.11895 5.50231 97 163 128
0.242926 -0.440709 2.22772 58 77 56
0.237852 -0.373115 2.20589 54 91 95
0.318781 -0.298701 1.99797 76 94 77
0.31905 -0.296586 2.00441 129 126 111
-2.73399 -0.606168 8.00794 89 149 131
-0.11063 -0.0602696 2.68776 76 118 125
-3.24021 0.398675 8.66041 205 240 243
16.5493 -1.47383 -29.2585 102 137 111
-1.43644 0.23424 5.17247 104 158 141
0 0 0 165 215 205
0 0 0 90 132 121
0 0 0 145 205 199
0 0 0 88 139 135
0.344812 -1.24882 2.14819 136 197 183
0.441488 -1.13867 1.97191 85 99 93
0.492385 -1.08367 1.87343 110 166 153
0.53119 -1.03631 1.79512 92 127 130
0.407291 -1.17142 2.04002 179 234 239
0.520314 -1.04331 1.8257 69 88 79
0.705094 -0.826314 1.44412 149 210 200
0.520053 -1.04332 1.82792 63 93 80
0.386474 -1.1855 2.08404 132 147 179
0.507565 -1.04753 1.8462 210 243 255
0.674983 -0.84599 1.50623 91 147 148
0.719408 -0.792982 1.41589 131 187 192
0.392304 -1.16085 2.06252 198 228 247
0.695163 -0.816574 1.45791 106 139 135
0.71533 -0.794354 1.42085 180 225 229
-0.192727 -1.7958 3.19475 103 162 124
0.416735 -1.12625 2.0221 173 206 239
0.701411 -0.796312 1.44904 97 164 143
0.414443 -1.11149 2.02699 125 136 158
0.422959 -1.10085 2.01125 132 187 196
-0.0901514 -1.62641 3.00737 128 174 182
0.251694 -1.27134 2.3486 114 93 85
0.378025 -1.13336 2.0993 117 146 167
0.736888 -0.735453 1.36848 127 193 151
0.703472 -0.775302 1.44748 139 171 214
0.21402 -1.30138 2.42377 137 118 121
0.417784 -1.08419 2.02469 191 229 247
0.715616 -0.757049 1.42029 236 243 246
0.213496 -1.2896 2.42831 199 204 205
0.207095 -1.28704 2.45566 144 132 126
0.221889 -1.26363 2.41881 204 212 211
0.435974 -1.02985 1.99154 164 192 222
-0.0728412 -1.55399 3.0082 52 74 62
0.702695 -0.739379 1.44267 101 125 147
0.729069 -0.708089 1.38128 142 176 200
0.731644 -0.707298 1.38497 107 130 156
-0.126315 -1.59285 3.10231 186 227 196
0.427199 -1.02055 2.0044 159 196 240
-0.109781 -1.55563 3.05476 34 54 35
0.433069 -1.01236 1.99718 107 108 152
0.7289 -0.700983 1.38126 104 125 152
0.525691 -0.907201 1.80495 68 113 110
0.749992 -0.667573 1.33129 94 142 118
0.682569 -0.736705 1.48379 113 158 192
-0.103915 -1.52021 3.05421 81 160 121
0.671599 -0.747947 1.51074 126 169 196
0.531203 -0.880965 1.79548 43 108 87
0.518432 -0.890054 1.8224 226 240 238
-0.101211 -1.51229 3.09938 108 162 133
-0.0378706 -1.416 2.91045 47 68 53
0.737697 -0.658089 1.356 58 78 66
0.526657 -0.871467 1.8051 163 226 216
0.731695 -0.660827 1.37581 96 97 123
0.418784 -0.969306 2.02251 81 86 87
0.731851 -0.660934 1.37532 98 98 122
0.532692 -0.847201 1.78726 77 128 121
0.539505 -0.839696 1.77468 150 232 214
-0.0109351 -1.35569 2.86376 49 76 56
0.73673 -0.635504 1.35372 42 56 50
0.729812 -0.641611 1.37195 100 106 143
0.736719 -0.627053 1.34562 101 190 146
0.735109 -0.62094 1.35633 85 90 115
0.74328 -0.611335 1.33337 137 220 168
0.65619 -0.697751 1.5311 130 142 184
0.735556 -0.620399 1.35837 90 108 139
0.0234381 -1.27422 2.82166 44 48 43
0.608478 -0.735343 1.62805 139 180 212
0.744585 -0.60343 1.3395 56 74 73
0.611958 -0.728349 1.62196 212 238 255
0.657647 -0.683878 1.52761 106 118 158
0.478057 -0.843504 1.89527 88 197 148
0.574626 -0.761384 1.69955 99 141 124
0.627729 -0.711033 1.59244 88 114 144
0.713227 -0.627292 1.40467 133 167 191
0.739681 -0.597719 1.34408 167 207 235
0.503611 -0.80849 1.84923 122 174 180
0.727767 -0.604457 1.37316 138 170 199
0.740392 -0.589296 1.34242 108 122 150
0.746278 -0.585016 1.32741 62 91 95
0.0370028 -1.2171 2.77819 24 41 32
0.444646 -0.855009 1.95931 103 143 148
0.702958 -0.623816 1.42441 128 169 192
0.740525 -0.583214 1.33354 128 171 192
0.572697 -0.737829 1.70147 121 158 180
0.601313 -0.708645 1.63541 76 123 131
0.577741 -0.728855 1.68882 131 188 185
0.610534 -0.700834 1.62249 94 130 146
0.639355 -0.672805 1.55765 242 249 255
0.452121 -0.834424 1.94587 107 141 135
0.546647 -0.754875 1.75729 61 112 105
0.595539 -0.708256 1.65224 86 115 146
0.458148 -0.82165 1.93025 86 120 109
0.571699 -0.724234 1.69749 194 236 249
0.631378 -0.670489 1.56806 181 208 218
0.729969 -0.584165 1.36046 136 166 207
0.742534 -0.571389 1.33046 163 189 213
0.459239 -0.821276 1.93428 87 129 118
0.742105 -0.563944 1.33106 95 101 112
0.00886129 -1.19438 2.8412 103 148 121
0.624812 -0.662496 1.58146 63 79 92
-0.31113 -1.45943 3.50712 104 145 124
0.650738 -0.636737 1.53023 238 252 255
0.739445 -0.557417 1.33353 153 187 211
0.456298 -0.798093 1.93337 91 125 119
0.475339 -0.785484 1.89846 146 199 202
0.498488 -0.761772 1.84417 52 110 92
0.455873 -0.798387 1.9305 86 123 121
0.6316 -0.64669 1.56706 64 85 107
0.643707 -0.634445 1.53686 124 165 188
0.723139 -0.560488 1.36717 93 118 128
0.543616 -0.714632 1.74871 99 183 149
0.708087 -0.570283 1.39566 123 161 185
0.720293 -0.564593 1.37073 143 165 201
-0.280461 -1.3798 3.40372 102 157 132
0.453261 -0.786231 1.93877 202 225 247
0.46319 -0.789631 1.93702 122 157 161
0.397916 -0.826619 2.04807 163 161 161
0.650907 -0.614311 1.51753 100 153 144
0.458871 -0.775295 1.93155 86 94 87
0.534965 -0.709858 1.76099 104 161 140
0.641502 -0.619063 1.53906 56 88 93
0.723814 -0.549016 1.35969 121 167 184
0.486208 -0.749608 1.86474 60 95 75
0.527525 -0.711565 1.7798 190 224 247
0.00595169 -1.13083 2.84408 51 70 45
0.410537 -0.802008 2.02045 133 122 114
0.622267 -0.630752 1.57766 62 115 105
0.39811 -0.80693 2.0439 201 213 213
0.541451 -0.693687 1.74763 100 179 158
0.679277 -0.578379 1.45356 126 150 170
0.473533 -0.742227 1.89274 150 205 196
0.491746 -0.72687 1.84025 51 97 78
0.428115 -0.776081 1.98197 117 95 77
0.444562 -0.765614 1.95065 188 220 243
0.459077 -0.752774 1.91727 179 212 232
0.483336 -0.730021 1.85933 148 216 193
0.392392 -0.801382 2.05612 199 204 205
0.500199 -0.711034 1.82681 139 210 190
0.630141 -0.606921 1.54922 97 159 147
0.647865 -0.595037 1.51696 75 154 135
0.676776 -0.574903 1.46273 95 112 133
0.383464 -0.799711 2.08257 119 101 90
0.459836 -0.738999 1.91424 194 218 248
0.676914 -0.564202 1.45197 61 75 74
0.604999 -0.617631 1.60886 208 237 251
-0.133649 -1.18848 3.13448 138 198 192
0.616542 -0.604266 1.58107 82 128 139
0.628926 -0.589953 1.55036 128 202 190
0.66366 -0.554399 1.47342 99 156 148
0.444603 -0.720262 1.93484 183 195 197
0.460487 -0.704581 1.8943 171 215 238
0.694105 -0.528583 1.41 97 141 140
0.652587 -0.548408 1.49137 217 227 237
0.659302 -0.545489 1.48279 85 106 108
0.626813 -0.570703 1.54859 90 133 150
0.411889 -0.72701 2.00347 175 170 167
0.6431 -0.553341 1.51415 177 218 241
0.0184366 -1.01206 2.8195 84 120 108
0.385462 -0.741304 2.05883 213 221 220
0.411879 -0.71644 1.99754 202 209 212
0.462322 -0.678534 1.89183 209 235 252
0.475869 -0.666414 1.85894 212 245 255
0.616651 -0.558229 1.56258 91 125 138
0.444181 -0.67728 1.93163 111 95 89
0.470249 -0.659986 1.8745 120 141 172
0.582891 -0.576667 1.63251 67 141 123
0.4025 -0.702023 2.00895 121 95 79
0.626739 -0.540721 1.54489 220 241 255
0.650554 -0.523242 1.49388 144 168 192
0.626116 -0.541145 1.54347 224 240 252
0.593385 -0.559736 1.61256 238 250 255
0.656797 -0.514082 1.47594 237 253 255
0.41977 -0.679021 1.96828 124 120 119
0.625211 -0.521132 1.53914 106 147 150
0.0140883 -0.930696 2.8135 75 124 108
0.0337474 -0.891756 2.78176 105 161 150
0.577245 -0.527391 1.62916 94 117 125
0.557195 -0.511165 1.66236 103 167 155
0.571373 -0.507487 1.63176 114 133 140
0.590381 -0.497053 1.59779 94 145 147
0.576364 -0.494455 1.61163 104 134 121
0.528378 -0.517591 1.7142 160 217 208
0.509279 -0.519486 1.75675 115 129 147
0.512221 -0.515943 1.74594 104 127 119
0.490466 -0.519804 1.78798 136 128 139
0.151109 -0.716137 2.48559 108 163 136
0.499688 -0.506003 1.76439 126 136 160
0.512084 -0.491546 1.7357 232 250 255
0.515036 -0.472338 1.72109 186 209 241
0.464831 -0.491912 1.82498 169 166 162
0.468868 -0.487946 1.80653 116 94 82
0.524595 -0.457232 1.69177 156 208 224
0.526083 -0.456377 1.69419 168 215 229
0.533636 -0.452541 1.68156 104 116 134
0.473162 -0.479285 1.80253 211 221 221
0.525246 -0.446835 1.7013 86 118 137
0.500077 -0.434191 1.73548 133 111 113
0.488401 -0.439089 1.75897 119 106 98
0.216948 -0.498822 2.30457 110 141 142
0.268255 -0.449595 2.17184 206 191 175
0.249059 -0.400219 2.19114 128 203 171
0.25757 -0.377336 2.15827 69 95 81
0.236979 -0.373896 2.20712 100 137 129
0.30597 -0.321884 2.04399 114 148 131
0.15655 -0.291723 2.31241 253 255 255
0 0 0 144 204 194
0 0 0 86 124 106
