ply
format ascii 1.0
element vertex 206
property float x
property float y
property float z
property uchar blue
property uchar green
property uchar red
end_header
0.421239 0.0432879 3.8476 114 161 123
-1.43487 -1.10561 -5.61251 50 96 60
0.0111162 -0.962719 -4.17596 142 171 156
-1.31475 -1.06719 -4.37684 112 152 124
4.63594 7.29662 26.589 121 174 135
-0.128998 -0.460818 1.57611 133 187 164
0.0269043 -0.346116 2.17399 88 135 109
0.189833 -0.319793 3.04852 99 138 112
0.301839 -0.0297832 3.22665 52 83 50
0.261933 -0.044886 2.96425 51 91 50
1.07039 0.279554 7.35139 95 133 103
-1.43051 -0.325639 -5.42641 73 101 88
0.342946 0.0739168 3.25017 82 123 91
0.228625 -0.00300157 2.52539 68 108 80
0.262469 0.0312868 2.72768 74 98 66
0.386325 0.151995 3.39998 121 162 147
5.86566 4.56428 32.1369 175 225 191
0 0 0 98 144 125
-2.03389 -3.36835 -10.0713 115 138 123
-0.71322 -0.448295 -1.70734 95 136 108
-0.643253 -1.59504 -3.07917 97 138 107
-0.669958 -1.59403 -3.12754 173 233 203
-0.26387 -0.980942 -2.08748 50 53 31
-0.0329045 -0.425878 2.03834 156 206 174
-0.0236024 -0.335211 1.86317 119 182 150
-0.00941898 -0.33871 1.95252 141 180 142
0.20313 -0.446255 3.23452 96 115 106
0.0678757 -0.1859 1.85634 102 168 143
-1.17384 -0.0710713 -4.06962 114 113 103
0.303991 -0.0365448 3.25306 211 231 219
1.33549 0.230835 9.05197 61 89 76
0.522034 0.0728573 4.44511 105 147 122
0.362484 0.0173044 3.48742 113 146 111
-1.74106 -0.326032 -7.07707 174 230 217
1.10063 0.294922 7.55649 66 102 72
1.21014 0.320969 8.08741 142 202 172
0.166872 -0.0644224 2.16797 74 119 92
0.543263 0.189902 4.42125 72 90 61
-1.38929 -0.365546 -5.16393 80 118 100
3.83353 1.73973 21.8602 74 97 69
-1.45066 -0.540599 -5.65693 174 220 197
0.480963 0.247599 3.88376 75 119 90
-1.77355 -0.788318 -7.35885 95 127 92
-4.23279 -2.57356 -20.1551 114 163 135
-2.48494 -1.4257 -11.0713 70 115 89
-3.96741 -2.4581 -18.7008 55 103 77
2.15487 1.57813 12.7818 80 101 69
-7.71299 -5.62997 -37.8997 70 111 80
-1.73832 -1.04448 -7.16724 41 58 37
-1.81167 -1.19952 -7.55464 87 135 107
0.55435 0.451494 4.02057 50 71 49
1.05153 0.996939 6.82405 76 97 75
1.1357 1.15274 7.27047 163 229 178
1.01608 1.03042 6.60098 163 238 192
0 0 0 97 149 125
0.913049 0.997543 5.96382 110 143 122
-1.93664 -1.81014 -8.37601 73 112 91
-1.17854 -0.88788 -4.19313 54 59 38
-2.59428 -2.89765 -12.0794 156 197 165
-2.46306 -2.81041 -11.5842 111 149 121
-2.10007 -2.97438 -9.87263 115 144 121
-0.943236 -0.661463 -2.74041 188 214 200
-2.65512 -4.45236 -13.5564 60 84 60
-1.97378 -3.28495 -9.76415 122 146 134
-1.25811 -2.04866 -5.62713 92 143 116
-0.921656 -1.94838 -4.40038 101 133 122
-0.824129 -1.75766 -3.8215 90 128 98
-0.614383 -1.6219 -3.01001 129 147 134
-0.783826 -1.42656 -3.15973 177 237 227
-0.555251 -1.39217 -2.44966 155 222 195
-0.527796 -1.3618 -2.34688 112 157 131
-0.733364 -1.03985 -2.3843 131 146 118
-0.674525 -0.469064 -1.49277 109 138 123
-0.67106 -0.543095 -1.43081 163 242 203
-0.131681 -0.435214 1.50782 101 125 131
-0.0369705 -0.358 1.83791 106 125 108
-0.0356258 -0.34778 1.81464 74 100 82
0.202103 -0.446505 3.23238 109 138 122
0.00488385 -0.330359 2.00971 64 98 67
-0.00331745 -0.324663 1.93619 128 203 165
-0.0243685 -0.308801 1.76263 150 223 191
0.263097 -0.42595 3.58027 89 138 122
0.0125143 -0.308959 2.00711 169 232 212
-1.86835 0.876506 -8.62495 100 129 114
0.0407362 -0.301014 2.16342 125 165 137
0.298688 -0.410613 3.76783 102 135 121
0.0159292 -0.295545 1.98677 105 159 116
-1.59414 0.642425 -6.99124 96 113 102
-2.17523 0.934054 -10.3016 79 101 76
0.213418 -0.340675 3.25613 91 139 97
0.295834 -0.357658 3.71479 121 157 151
0.25443 -0.327041 3.43613 178 228 198
0.240695 -0.307349 3.30387 100 154 124
-1.69738 0.42751 -7.59443 108 163 144
0.795653 -0.331598 6.37316 66 83 69
0.903241 -0.347447 7.06725 52 61 48
0.857769 -0.230781 6.62218 114 143 134
0.863007 -0.23088 6.62487 102 138 126
0.615058 -0.185054 5.27229 149 217 182
1.07625 -0.19821 7.7555 128 176 164
1.02847 -0.183295 7.49733 184 224 219
0.665992 -0.128784 5.49357 111 156 123
1.14811 -0.13223 8.14038 88 129 102
0.459605 -0.103331 4.24853 88 116 103
0.491355 -0.0920416 4.44393 86 128 111
0.581133 -0.0746512 4.90135 110 150 132
0.424527 -0.0862779 4.02198 93 129 107
0.477709 -0.0728803 4.31984 236 248 248
0.620504 -0.0430487 5.08623 186 240 223
0.295127 -0.0902956 3.27418 95 148 109
0.530381 -0.0516488 4.57961 253 253 253
0.303612 -0.062792 3.30383 93 119 105
0.308163 -0.031336 3.2999 189 218 193
0.946704 0.139054 6.89535 148 182 152
1.34106 0.240132 9.12118 63 91 78
0.524775 0.0584716 4.45235 160 217 202
-1.8602 -0.278494 -7.69056 137 155 142
-1.63649 -0.256548 -6.49035 136 186 174
0.360726 0.0156321 3.47982 102 132 97
0 0 0 168 239 213
2.64393 0.735342 15.9063 151 201 161
-1.57157 -0.283022 -6.13732 177 226 218
-1.6402 -0.361629 -6.59986 82 104 86
4.30731 1.65221 24.587 51 57 38
0.545238 0.191068 4.35187 61 69 46
0.623161 0.251009 4.82104 66 70 45
0.745704 0.294017 5.4182 64 87 55
-1.47589 -0.42279 -5.66398 174 218 211
0.221588 -0.0083259 2.49652 93 123 98
0.262935 0.0340795 2.7058 88 121 94
1.41587 0.718393 9.11075 46 52 35
0 0 0 98 140 105
0 0 0 125 166 129
3.94014 2.1261 22.1974 89 105 81
-4.0465 -1.84649 -19.0993 130 221 166
0 0 0 116 167 133
-1.28465 -0.468773 -4.66123 73 110 76
0.353193 0.135386 3.14322 121 149 136
0.413236 0.188141 3.52486 104 128 118
1.59892 1.04564 9.88103 147 200 156
-1.69101 -0.785188 -6.87866 140 177 139
4.21148 2.77928 23.263 63 94 57
1.18875 0.83905 7.67416 116 150 119
0.403951 0.239334 3.368 169 222 208
1.18356 0.971329 7.58745 78 112 88
4.1036 3.27249 23.0635 103 147 116
0 0 0 120 190 154
7.85987 6.29071 42.4016 82 129 96
0.523646 0.388356 3.96141 117 178 144
2.85638 2.3931 16.5524 106 146 111
-7.59127 -5.75769 -37.2804 38 45 30
-1.56422 -0.946676 -6.23958 107 149 114
-3.43715 -2.49616 -15.8219 95 129 105
0.481677 0.363534 3.69313 117 136 121
1.46966 1.36294 9.08475 115 165 133
2.53755 2.28128 14.8066 74 102 79
1.45239 1.3577 9.05549 98 142 105
0 0 0 77 104 84
1.07865 1.04266 6.99889 65 90 64
0 0 0 115 160 133
-1.83793 -1.30372 -7.69473 64 100 70
0.538382 0.462199 3.94382 73 103 68
0.839799 0.800456 5.61814 64 95 58
0.727221 0.684565 4.96611 62 84 65
5.53537 5.3829 30.2741 155 222 185
-1.5032 -1.05056 -5.99477 60 76 58
1.01118 1.02001 6.58234 146 231 186
1.12109 1.14339 7.22962 174 246 204
-1.65336 -1.23379 -6.69857 139 214 182
0.739216 0.730096 5.04952 112 143 116
-1.39067 -1.01647 -5.31555 128 182 145
0 0 0 164 225 191
-5.17701 -5.32552 -25.7405 71 106 92
0.884781 0.95153 5.79871 119 153 122
0.908764 0.990861 5.93531 97 137 112
-2.60283 -2.78254 -12.1502 107 160 116
-7.19609 -10.2035 -37.204 94 130 114
4.42477 6.81287 25.1933 165 220 181
-4.90584 -7.47392 -25.5536 69 107 85
-1.34502 -1.4822 -5.44751 130 141 138
-2.09106 -2.89932 -9.79412 96 127 106
-1.11482 -1.04453 -4.0159 84 136 106
-1.26018 -1.40678 -4.96802 48 48 30
-1.57664 -2.15116 -6.91936 116 141 131
-2.53604 -4.07623 -12.7703 62 71 51
-0.995313 -0.778237 -3.08058 167 228 200
-0.995219 -0.778223 -3.08052 167 228 200
-1.15523 -1.68177 -4.81839 205 244 242
-1.04262 -1.56642 -4.25297 143 186 171
-0.875288 -2.02722 -4.37655 182 236 219
-1.03595 -1.56169 -4.22613 130 179 163
-0.990019 -1.29566 -3.70532 122 152 141
-0.717831 -0.441749 -1.74029 139 197 168
-0.922848 -1.74177 -4.06447 82 104 85
-0.804016 -1.73433 -3.73719 122 163 132
-0.552979 -1.54348 -2.76395 110 134 116
-0.805336 -1.43255 -3.24467 155 215 207
-0.831403 -1.22642 -3.03067 66 73 66
-0.762897 -1.37286 -3.00676 100 150 132
-0.701554 -1.29148 -2.68051 77 120 93
-0.78919 -0.783478 -2.15029 101 138 118
-0.68352 -0.478052 -1.52704 183 220 212
-0.635871 -0.430606 -1.29801 141 177 183
-0.655358 -0.501701 -1.35948 157 209 185
-0.671774 -0.542867 -1.43174 151 229 192
-0.659135 -0.523525 -1.36939 87 116 93
