ply
format ascii 1.0
element vertex 572
property float x
property float y
property float z
property uchar blue
property uchar green
property uchar red
end_header
-0.0597702 -0.68127 1.87828 94 130 106
-0.0513478 -0.662707 1.88291 177 232 217
-0.0581748 -0.63681 1.88508 79 123 100
0.127776 -0.628828 1.91138 128 182 169
-0.0972506 -0.602765 1.88405 174 222 198
0.0383577 -0.600931 1.90411 89 133 120
0.212961 -0.596027 1.92724 98 154 141
-0.212877 -0.575281 1.88444 59 95 73
0.0828136 -0.577367 1.9124 164 219 202
-0.0597995 -0.571306 1.89634 106 167 141
-0.0560854 -0.550379 1.89977 87 134 102
0.029697 -0.549808 1.90851 108 173 152
0.0967827 -0.542103 1.91842 116 164 158
0.161354 -0.487177 1.93392 80 108 109
0.0387542 -0.442739 1.92665 146 187 172
0.181593 -0.442071 1.94126 87 128 113
-0.397225 -0.396431 1.89955 94 166 153
0.132421 -0.322502 1.95725 146 208 192
0.655101 -0.144793 2.03108 186 236 232
0.653461 -0.139325 2.03133 187 232 236
0.625397 -0.133476 2.02862 113 153 165
0.549688 -0.0995604 2.02235 81 134 120
0.571128 -0.0901925 2.02702 195 245 241
0.567422 -0.0896345 2.02999 92 104 92
0.604081 -0.0729887 2.03358 133 157 149
0.263068 -0.0600738 2.00139 99 127 134
0.31162 -0.0498678 2.00219 83 137 114
0.221494 -0.0462096 2.00289 240 253 251
0.427326 -0.0448413 1.97218 117 178 144
0.4124 -0.0425582 1.97412 162 220 179
0.0347789 -0.0418454 1.97056 100 111 125
0.429579 -0.0399012 1.97029 92 146 123
0.239704 -0.0396131 2.00294 104 127 142
-0.757406 -0.0350787 1.92871 153 203 193
0.448165 -0.015571 1.95015 163 228 203
0.429045 -0.0144543 1.95535 193 230 220
0.152521 -0.00984086 1.99838 87 101 124
0.167745 0.000329462 1.99336 49 73 101
0.677212 0.0267773 2.05269 114 171 156
0.660278 0.0604505 2.04847 61 68 77
0.134825 0.0633262 2.0049 177 194 213
0.202323 0.0728955 2.00312 164 188 208
0.176411 0.0751288 2.00695 183 216 235
0.112881 0.101996 2.00518 196 229 245
-0.647012 -0.172284 -2.54262 122 170 152
-0.244679 -0.758851 1.84863 177 236 222
-1.05819 -0.729801 1.78252 115 167 144
-0.0876192 -0.726656 1.87093 89 113 113
-0.0630943 -0.681585 1.87704 135 180 154
-0.226923 -0.675068 1.86394 92 141 121
-0.214684 -0.659398 1.86895 179 237 212
-0.20998 -0.654724 1.86889 75 108 101
0.0280854 -0.660274 1.89577 147 227 204
-0.250795 -0.621198 1.87076 143 219 195
0.0522032 -0.615114 1.90415 112 151 149
-0.121838 -0.60186 1.8815 99 133 132
-0.0245675 -0.604471 1.89186 96 162 121
0.0383391 -0.600926 1.90413 89 133 120
-0.0458208 -0.588224 1.89582 110 149 128
0.0438534 -0.581832 1.90719 117 161 154
-0.0825207 -0.57437 1.89325 79 136 105
-0.195202 -0.562151 1.88873 71 88 79
-0.139548 -0.554442 1.89212 88 130 123
-0.122588 -0.544225 1.89584 88 141 128
0.0966177 -0.542042 1.91868 113 162 154
0.0204157 -0.529946 1.91138 87 142 125
-0.0971522 -0.490424 1.90321 82 104 85
-0.0504103 -0.453008 1.91687 174 230 217
0.179397 -0.370587 1.9512 91 158 126
0.0318959 -0.352103 1.93972 172 219 217
-0.0791228 -0.342733 1.93261 99 164 149
-0.211601 -0.3206 1.92422 76 131 114
0.327248 -0.140917 1.99839 241 255 249
0.766463 -0.0955514 2.0422 105 126 158
0.566607 -0.0887273 2.02878 89 99 86
0.0239292 -0.0756602 1.97868 90 95 94
0.580956 -0.078485 2.02859 138 179 164
0.605788 -0.0739674 2.03239 169 219 217
0.62422 -0.0610315 2.03889 90 138 132
0.61707 -0.0575506 2.03714 147 183 183
0.431618 -0.0514015 1.97213 57 69 63
0.221851 -0.0464146 2.00245 251 255 255
0.633267 -0.0448337 2.03957 102 135 114
0.48493 -0.0389972 1.96722 55 104 84
0.413102 -0.0319373 1.96905 137 158 136
0.427002 -0.0314953 1.96454 87 123 107
0.235662 -0.0302714 2.00043 34 41 61
0.686231 -0.0268353 2.04503 81 115 131
-0.677728 -0.0225725 1.93775 199 234 220
0.171331 -0.0195467 1.99666 107 137 166
0.457573 -0.0143334 1.9558 46 81 61
0.205797 -0.0125862 1.99321 88 111 133
0.152453 -0.00974627 1.99858 93 107 130
0.272118 -0.00390654 2.00712 153 238 200
0.168433 -0.00216212 1.99275 110 141 164
0.12218 3.53656e-05 1.99201 182 213 238
0.165142 0.00529566 1.99501 84 98 116
0.206367 0.00609103 1.99524 60 91 122
0.175341 0.013398 1.99437 118 118 130
0.167225 0.0226789 1.99153 101 132 157
0.291488 0.0470286 2.0149 61 111 99
0.519486 0.0558167 1.94082 25 83 58
0.661895 0.0589393 2.05065 148 177 168
1.00846 0.0672968 2.08832 105 90 128
0.624196 0.0889691 2.0389 151 165 171
0.211401 0.089207 2.00623 220 249 255
-0.312691 -0.752974 1.84249 98 131 134
0.0407936 -0.752415 1.88398 193 244 237
-0.259064 -0.735677 1.85163 100 152 145
-0.161882 -0.718901 1.86039 93 154 128
-0.274555 -0.70472 1.85465 108 152 153
-0.0652652 -0.698079 1.87614 90 133 118
-0.243639 -0.686753 1.85884 103 155 137
-0.169738 -0.689911 1.86443 171 233 227
0.165674 -0.706336 1.90739 103 155 145
-0.669433 -0.675656 1.82756 99 149 137
-0.0575247 -0.691678 1.88145 80 131 123
-0.028825 -0.675838 1.8839 166 237 211
-0.303198 -0.664833 1.86081 97 143 130
-0.0598822 -0.667201 1.87973 88 133 116
-0.315141 -0.657352 1.8579 106 163 154
-0.549833 -0.650307 1.84247 119 168 166
-0.214758 -0.659535 1.8682 179 237 212
-0.241109 -0.651007 1.86597 93 149 130
0.041085 -0.652289 1.89864 106 165 150
0.00991023 -0.642441 1.89045 94 138 125
-1.07896 -0.610453 1.80408 54 108 91
-0.212827 -0.613975 1.87288 144 184 172
-0.0547608 -0.61766 1.88701 76 92 85
-0.170322 -0.612821 1.87596 43 106 74
-0.214183 -0.607523 1.87164 97 143 130
-0.0184026 -0.61075 1.89374 80 142 106
-0.0245855 -0.604334 1.89252 97 160 121
-0.192147 -0.597172 1.88006 91 129 107
-0.0444174 -0.597898 1.89413 118 158 147
-0.104509 -0.593285 1.88184 164 242 211
-0.206138 -0.588954 1.88285 121 157 151
-0.0454094 -0.588201 1.89452 117 155 137
-1.03786 -0.563333 1.81906 72 122 110
-0.0543051 -0.584262 1.89498 90 129 113
0.043939 -0.581766 1.90749 115 161 155
-0.08236 -0.574428 1.89299 79 136 105
-0.199379 -0.568516 1.88809 96 118 106
-0.0980762 -0.561309 1.89141 162 244 195
0.143634 -0.565678 1.92104 89 150 136
-0.418465 -0.547555 1.87021 100 168 161
-0.122493 -0.544169 1.89607 92 146 133
-0.158728 -0.536463 1.89679 84 131 109
-1.04181 -0.513812 1.82912 82 138 125
0.00801582 -0.536149 1.91058 77 117 99
-0.052008 -0.532452 1.90114 91 149 121
0.289414 -0.545102 1.94354 89 132 121
-0.0819562 -0.52909 1.89681 64 99 73
-0.0739023 -0.524376 1.89972 183 242 227
-0.142483 -0.521035 1.89955 120 168 140
0.0124251 -0.509761 1.91279 96 140 111
-0.134405 -0.50656 1.90227 160 239 188
-0.143406 -0.50588 1.90216 108 173 141
-0.074402 -0.50131 1.9049 120 170 158
0.00257889 -0.50161 1.91277 110 162 145
0.232624 -0.504796 1.93329 103 147 140
0.0678707 -0.501331 1.91967 91 143 125
0.160525 -0.49029 1.93209 103 138 124
-0.955487 -0.468075 1.84501 75 129 116
-0.0663898 -0.483871 1.90921 98 148 138
0.160459 -0.490126 1.93271 101 134 120
0.102846 -0.487222 1.92722 89 134 107
0.216911 -0.480076 1.93755 109 154 145
0.353336 -0.485408 1.9572 100 153 143
-0.972161 -0.456451 1.84783 86 124 112
-0.0515403 -0.469164 1.91158 78 121 106
-0.0214302 -0.468781 1.91608 102 159 138
0.00905463 -0.461371 1.92045 99 149 131
0.02489 -0.456458 1.92143 80 121 106
0.179779 -0.442097 1.94128 84 120 96
-0.0923057 -0.431418 1.91564 74 115 107
-0.320129 -0.421733 1.89941 79 130 116
-0.194326 -0.42281 1.91195 71 123 113
0.223517 -0.428419 1.94523 77 131 108
0.0750892 -0.416991 1.93599 67 105 87
-0.398065 -0.396107 1.89854 90 162 149
-0.400396 -0.394504 1.90129 100 171 155
-0.354955 -0.393282 1.9034 115 165 163
-0.385696 -0.380462 1.90111 97 159 147
-0.162094 -0.383872 1.92061 95 155 144
0.324129 -0.39123 1.96833 71 122 115
-0.392713 -0.374924 1.90265 79 143 131
-1.0193 -0.356391 1.86055 76 135 120
-0.351231 -0.345065 1.91026 87 140 130
-0.127385 -0.344819 1.9314 105 158 145
0.0683278 -0.346204 1.94651 84 146 130
0.169294 -0.342803 1.95702 84 146 130
-1.0085 -0.326277 1.86776 73 126 116
-0.217423 -0.333862 1.9227 87 147 129
0.0327354 -0.329105 1.94522 152 215 206
-0.211495 -0.320719 1.92388 76 131 114
0.131797 -0.3133 1.95929 81 142 128
0.0143869 -0.282235 1.9487 79 151 138
-0.0879927 -0.276517 1.9391 78 130 112
-0.0203559 -0.260275 1.94682 86 151 142
0.093655 -0.25631 1.96127 73 137 118
-0.570096 -0.155777 1.92056 129 163 152
0.315134 -0.149079 1.99803 85 147 141
0.356535 -0.138806 2.00369 79 141 135
-0.756228 -0.115381 1.91859 61 103 86
-0.600078 -0.111506 1.92868 118 136 159
0.465796 -0.117915 2.01662 101 154 151
0.550102 -0.0991129 2.02145 70 111 96
0.704832 -0.0982017 2.04038 102 141 149
0.561377 -0.0950416 2.02656 66 82 71
-0.752214 -0.09008 1.92351 100 143 132
0.766551 -0.0957247 2.0418 105 126 158
0.520577 -0.0939624 2.0213 162 205 192
-0.742284 -0.0858784 1.92262 62 93 78
-0.753881 -0.0859564 1.92405 250 255 254
0.606221 -0.0767101 2.03265 73 112 104
0.351733 -0.0717394 2.00644 73 107 97
0.624011 -0.0614458 2.03798 92 139 130
-0.729699 -0.0558559 1.92859 247 255 254
0.619479 -0.0538049 2.03736 151 182 173
0.442765 -0.0459593 1.96225 160 207 185
0.309728 -0.0463821 2.00308 165 223 199
0.438758 -0.0446693 1.95959 146 219 187
0.284513 -0.0436328 2.00489 81 96 129
0.448569 -0.0416691 1.96165 139 178 162
0.435268 -0.0407657 1.96448 246 254 254
0.665456 -0.034725 2.03721 153 202 188
-0.16391 -0.030462 1.97131 90 148 143
0.150285 -0.0258059 1.99524 38 84 95
0.118375 -0.0244087 1.99135 95 152 144
0.418321 -0.0242162 1.95719 140 229 186
-0.678114 -0.0223986 1.93809 197 232 218
0.408851 -0.014483 1.95036 69 107 95
0.265707 -0.0078962 2.00513 139 195 176
0.2722 -0.00361552 2.0077 148 229 196
0.620963 -0.00250251 2.04146 147 140 123
0.311935 -0.0013553 2.01131 68 140 120
0.195593 0.0014999 1.99477 118 130 148
0.152274 0.00677504 1.99626 204 236 249
0.165642 0.0058306 1.99731 108 122 141
0.409905 0.0070612 1.95119 39 86 60
0.148595 0.0096878 1.99763 54 63 90
0.161621 0.00959067 1.99362 201 237 255
0.938066 0.0145364 2.07528 90 102 136
0.178983 0.0174254 1.99311 117 129 153
0.468388 0.0361474 1.92725 35 82 49
-0.00708301 0.0380531 1.99066 66 80 92
0.888048 0.0431865 2.0749 73 104 135
0.187047 0.0447629 1.99777 96 120 140
0.66388 0.0510336 2.04938 199 223 229
0.137981 0.0551533 2.00278 198 235 239
0.66232 0.0592984 2.05134 174 195 187
0.182576 0.0587865 1.99994 198 232 248
0.662113 0.0616177 2.05014 51 55 74
0.135777 0.0605118 2.00517 63 72 86
0.2032 0.0707295 2.00299 191 213 224
1.02507 0.0765734 2.09153 253 255 255
0.155478 0.0746558 2.00423 90 134 133
0.635654 0.0754315 2.04145 210 240 241
0.135281 0.075412 2.00347 206 234 245
0.630734 0.0792548 2.04165 58 56 56
0.637593 0.0795447 2.03888 119 131 143
0.987227 0.0931497 2.08614 246 254 253
0.148313 0.113176 2.00908 109 133 155
0.653112 0.12213 2.05596 129 155 169
0.94658 0.130943 2.08914 59 78 69
1.00054 0.143653 2.09678 71 94 89
-0.119638 -0.740022 1.86112 62 110 86
-0.108241 -0.741156 1.8653 75 98 76
-0.0974524 -0.736141 1.86936 77 118 110
-0.0895206 -0.725649 1.8699 104 123 128
-0.0783926 -0.71586 1.8749 126 162 162
-0.0862982 -0.700186 1.87264 163 213 179
-0.0652405 -0.698008 1.87658 97 143 131
0.0260843 -0.699073 1.88963 96 132 118
-0.036362 -0.692953 1.88258 90 135 116
-1.05993 -0.628805 1.79956 78 133 118
0.0273836 -0.656499 1.89384 90 126 110
-1.05575 -0.619966 1.8035 77 126 106
-1.08118 -0.611216 1.80455 66 118 100
-1.09401 -0.608899 1.80103 90 145 128
-0.301825 -0.618855 1.86813 96 159 150
-0.115012 -0.616584 1.88242 91 111 106
-0.151209 -0.603287 1.87844 88 144 101
0.0360027 -0.598822 1.90178 95 131 117
-0.129171 -0.59236 1.88429 98 132 122
-0.418104 -0.583702 1.86724 183 242 211
-0.206235 -0.589083 1.88226 122 163 155
-0.121224 -0.569618 1.88966 66 109 88
-0.195293 -0.565626 1.88857 153 204 190
-0.211553 -0.560157 1.88144 150 228 175
-0.263408 -0.557464 1.8802 169 228 214
-0.138896 -0.557093 1.8922 102 133 124
-0.0103863 -0.558442 1.9006 72 112 87
0.0498788 -0.553584 1.91077 166 229 219
0.00782581 -0.536371 1.90967 91 130 109
-0.124736 -0.518971 1.89732 84 137 117
0.0883724 -0.521042 1.91868 127 166 151
-0.0752596 -0.513585 1.90312 94 149 130
-0.0881008 -0.507803 1.90377 88 138 114
0.250995 -0.51378 1.93703 80 89 76
0.0677638 -0.501131 1.92045 95 151 132
0.101504 -0.490159 1.92605 117 168 130
0.153917 -0.492176 1.93335 118 170 153
0.158872 -0.486423 1.93143 94 109 105
0.0745721 -0.482844 1.92422 92 145 132
0.0848699 -0.481149 1.92233 67 120 87
0.28233 -0.479518 1.94985 81 114 107
0.00892556 -0.461408 1.92033 99 149 131
-0.0686905 -0.449262 1.91819 86 133 111
0.137976 -0.451225 1.93553 103 127 125
-0.9847 -0.41002 1.85355 91 147 136
-0.1942 -0.422645 1.91249 71 123 113
-0.000938232 -0.414877 1.92695 100 157 148
-0.791064 -0.373772 1.87378 107 162 183
0.173618 -0.375291 1.95054 113 152 131
0.207536 -0.374978 1.95661 88 137 123
-0.183956 -0.351364 1.92333 82 115 108
0.0831869 -0.333424 1.95159 92 156 137
0.0818277 -0.332452 1.95448 80 172 143
0.129779 -0.317881 1.95743 48 100 83
-0.307431 -0.303231 1.91796 85 147 129
-0.226938 -0.298771 1.92694 83 145 133
-0.37266 -0.29036 1.91537 103 160 145
-0.190817 -0.2923 1.93133 102 171 150
-0.312111 -0.2847 1.92202 64 120 107
-0.00337785 -0.287473 1.94247 152 215 205
0.00757933 -0.270147 1.94791 98 141 132
-0.329286 -0.256001 1.92544 85 135 123
-0.622453 -0.245536 1.90624 79 142 140
-0.0969834 -0.245912 1.94454 78 143 118
0.31144 -0.210392 1.99052 111 180 169
-0.584764 -0.194452 1.91706 129 173 167
-0.937679 -0.183619 1.89573 112 163 165
0.309049 -0.154639 1.99633 73 150 136
0.646149 -0.144469 2.03157 105 136 145
0.66202 -0.143382 2.03153 131 170 172
-0.586267 -0.134563 1.92358 121 155 155
0.637567 -0.132955 2.02897 71 94 109
0.285162 -0.119068 1.99908 89 155 143
-0.599596 -0.112455 1.92662 114 131 157
0.561278 -0.0954018 2.02575 66 83 72
-0.753567 -0.0861944 1.92355 250 255 254
0.523608 -0.0900514 2.02374 67 79 67
-0.746095 -0.0794773 1.92101 99 165 136
0.563165 -0.0787293 2.02667 198 163 130
-1.0648 -0.0722658 1.90819 64 114 104
0.0191685 -0.0705294 1.97569 251 255 255
-0.985048 -0.0658962 1.91232 50 105 86
0.607976 -0.0715464 2.03511 144 191 189
0.232765 -0.0554977 2.00121 140 181 190
0.216335 -0.0478052 2.0021 103 161 143
0.319235 -0.0489874 2.00382 155 217 195
0.637424 -0.0475039 2.03966 122 184 170
0.675829 -0.0464233 2.04549 115 170 167
0.19885 -0.0446799 2.00104 76 99 95
0.449206 -0.0414751 1.96203 127 162 148
0.426721 -0.0395869 1.97063 35 52 43
0.721862 -0.0362342 2.04175 199 225 232
0.194908 -0.0317477 1.99629 101 134 149
-0.164135 -0.0295613 1.97315 96 156 150
0.225909 -0.0297822 1.99536 176 194 217
-0.111897 -0.0273021 1.97667 85 138 124
0.455302 -0.0283183 1.95507 44 54 38
0.118246 -0.0244863 1.9912 95 152 144
0.295842 -0.0233092 2.00789 89 87 106
0.428819 -0.023668 1.96082 136 178 161
0.421865 -0.019667 1.95303 51 66 52
0.469653 -0.0221443 1.95715 52 71 52
0.685519 -0.021008 2.04332 95 125 120
0.734116 -0.0204161 2.04266 119 133 145
0.408911 -0.0139954 1.95133 92 130 118
-0.125834 -0.00420175 1.97766 72 117 120
0.199814 -2.87607e-05 1.99194 182 214 243
0.195568 0.000565152 1.99291 75 89 108
-0.252324 0.00629344 1.97098 95 164 154
0.152228 0.00649362 1.99571 201 232 247
0.528041 0.00497615 1.9617 136 206 165
0.161621 0.00959059 1.99362 201 237 255
0.54724 0.0156044 1.96618 109 187 133
0.154317 0.0254399 1.99584 139 159 176
0.678054 0.0265371 2.05152 142 217 201
0.171874 0.0310543 1.99424 67 76 90
0.677653 0.0391143 2.05424 140 216 205
-0.249045 0.0472948 1.97705 86 143 128
0.505219 0.0520075 1.93615 47 85 55
-0.114401 0.0568077 1.98681 80 131 133
0.483929 0.0574966 1.92607 54 133 94
0.0327886 0.0668681 1.99964 73 115 114
0.635209 0.0819567 2.04284 77 83 96
0.126282 0.0976203 2.00823 87 99 135
0.755383 0.136719 2.07371 106 157 149
1.01695 0.149877 2.10433 60 73 71
1.01811 0.149927 2.10438 57 74 70
-0.188323 -0.732188 1.8619 90 131 124
0.112479 -0.739553 1.89636 96 136 131
-0.135241 -0.689761 1.8617 125 206 161
-1.06385 -0.658389 1.79078 95 147 129
-0.0712977 -0.684785 1.876 67 87 64
-1.01095 -0.654499 1.80215 88 137 121
-0.239608 -0.65676 1.86524 87 123 109
-0.0560047 -0.648151 1.88479 125 180 153
-1.09543 -0.608625 1.80388 84 147 131
-0.219236 -0.618064 1.87817 75 106 91
-0.114842 -0.616337 1.88093 90 111 112
-0.172061 -0.610407 1.87295 47 116 79
-0.148488 -0.606936 1.8728 87 150 110
-0.203998 -0.608905 1.87892 66 97 90
0.0101633 -0.603319 1.89919 87 144 119
0.0365616 -0.599071 1.90237 106 145 130
-0.0541269 -0.588197 1.89522 71 101 90
0.268662 -0.594645 1.93541 86 121 111
-0.0970714 -0.568521 1.88628 66 112 76
-0.0592463 -0.574266 1.89956 93 150 119
0.0792486 -0.576747 1.91148 95 134 109
-0.00977337 -0.558655 1.89966 90 123 102
-1.03502 -0.532127 1.82615 93 138 135
-0.13551 -0.543717 1.89455 69 101 84
-0.468772 -0.535386 1.86978 71 132 106
-0.082604 -0.529892 1.89587 63 102 70
-0.209045 -0.514081 1.89282 196 236 231
0.230251 -0.51906 1.93298 131 167 161
-0.122981 -0.499248 1.90555 87 133 110
-0.948458 -0.468971 1.84753 67 136 126
0.217796 -0.480057 1.93892 102 145 136
0.304594 -0.460526 1.95573 89 148 134
-0.0697051 -0.449845 1.91619 78 125 92
-0.457445 -0.423704 1.89201 101 164 144
-1.11913 -0.383554 1.84686 79 131 121
-0.374569 -0.391922 1.90098 67 121 114
0.0225577 -0.391494 1.93408 117 159 148
-0.101143 -0.381107 1.92446 89 138 122
-0.819607 -0.337426 1.87591 251 255 255
0.0831903 -0.33481 1.94836 54 104 94
-0.372577 -0.290444 1.91514 103 160 145
-0.190673 -0.291702 1.93295 89 165 141
-0.181577 -0.290979 1.92982 96 149 135
0.164736 -0.293887 1.96322 82 135 125
-0.0864023 -0.277121 1.94048 73 121 103
-0.0524184 -0.277027 1.94005 60 100 88
-0.265729 -0.252391 1.93027 101 155 155
0.00388715 -0.250462 1.95182 67 107 95
-0.938246 -0.183058 1.89703 118 172 172
-1.05468 -0.176268 1.88924 68 126 108
-0.336526 -0.154702 1.9397 90 143 133
-0.566263 -0.145558 1.92207 101 135 129
-0.586546 -0.134079 1.92466 115 147 146
-0.201753 -0.11507 1.95803 97 157 147
0.46056 -0.118772 2.01245 84 117 113
0.198053 -0.106682 1.99108 87 109 97
-0.59656 -0.0976361 1.93231 95 126 123
0.511071 -0.10124 2.02217 96 131 134
-0.751579 -0.0946716 1.92175 63 109 86
0.48723 -0.0962492 2.01833 77 101 89
0.716351 -0.0978879 2.04301 64 99 95
0.561486 -0.0858627 2.02596 63 63 49
-1.0648 -0.071425 1.90993 86 141 132
0.288393 -0.0777432 2.00426 59 113 100
0.29442 -0.0713331 2.00293 90 131 116
-0.735055 -0.0681216 1.92474 67 93 93
-1.07049 -0.0629948 1.91161 94 140 128
0.164521 -0.0626897 1.99102 69 128 120
-0.944184 -0.0482318 1.91936 95 151 140
0.241206 -0.0483788 2.00083 213 231 242
0.628251 -0.0514692 2.03967 69 83 71
0.7822 -0.0498875 2.05988 119 144 170
0.223433 -0.0473134 2.00177 253 255 254
0.321454 -0.0485151 2.00549 174 237 211
0.63954 -0.0483196 2.0419 133 197 185
0.199148 -0.0444635 2.00148 71 90 87
0.284453 -0.0435285 2.00473 113 126 158
0.651651 -0.0452496 2.04264 81 106 86
0.676473 -0.0461072 2.04615 120 174 174
0.205162 -0.0409159 1.99487 188 225 239
0.313435 -0.0398079 2.0042 64 118 88
0.637338 -0.0394789 2.04225 64 73 63
0.721636 -0.0366316 2.04059 202 226 232
-1.06261 -0.0304055 1.91721 68 117 101
0.212588 -0.0326953 1.99811 74 62 80
0.0334449 -0.0239435 1.97793 142 159 180
0.270788 -0.0224197 2.00717 96 148 138
0.465704 -0.0265519 1.96173 103 167 121
0.248459 -0.0197269 2.0055 81 114 100
0.491052 -0.0137595 1.95284 150 216 174
0.674821 -0.00166354 2.04983 62 70 63
0.362107 0.00203792 1.95962 116 159 146
0.52744 0.0043131 1.96074 111 181 144
0.148644 0.00960043 1.99517 52 63 85
1.01848 0.0104463 2.08389 103 124 145
0.702954 0.0171932 2.05285 70 116 104
0.930033 0.018556 2.07612 177 211 235
0.120856 0.0265318 1.99571 122 146 168
0.171828 0.030865 1.99387 53 62 76
0.899855 0.0338423 2.07907 141 162 190
-0.0134816 0.0354766 1.98877 234 249 252
-0.247702 0.0395618 1.97726 84 133 119
0.681306 0.0390342 2.05535 146 216 209
-0.176276 0.0419087 1.98129 90 138 120
0.188071 0.0588305 1.9966 119 144 164
0.665726 0.0632243 2.05002 125 131 142
1.00747 0.0656434 2.08879 102 97 136
0.632279 0.0803528 2.04058 38 37 46
0.181201 0.0847979 2.00538 84 104 122
0.181823 0.088478 2.01219 101 125 145
0.674534 0.0941954 2.04961 81 88 105
0.126352 0.0980406 2.009 56 82 122
0.635398 0.107721 2.04924 107 108 122
0.0980577 0.105836 2.00591 255 255 255
0.161224 -0.708853 1.90754 107 154 138
-0.324997 -0.637443 1.86464 82 130 118
0.00966624 -0.646234 1.90345 86 137 123
-0.0378718 -0.637685 1.89695 99 133 116
0.0290591 -0.604966 1.89818 55 89 65
-0.201705 -0.556192 1.88761 42 74 43
0.379149 -0.554398 1.94406 114 158 145
-0.121719 -0.531081 1.89863 83 126 99
0.284323 -0.545395 1.94643 84 118 94
-0.141306 -0.497869 1.90408 85 141 106
-0.0880221 -0.479915 1.90438 74 96 72
-0.10645 -0.470745 1.90749 93 132 100
0.343789 -0.481408 1.95344 86 127 120
-0.0618347 -0.467833 1.91156 77 106 83
-0.10781 -0.468374 1.91606 104 148 112
0.288076 -0.432784 1.95593 62 91 66
0.307152 -0.422182 1.96587 142 197 188
0.00324699 -0.414124 1.92884 105 152 143
0.261952 -0.42148 1.96259 171 213 202
0.163067 -0.361519 1.95271 75 123 99
0.245254 -0.365896 1.95839 91 148 123
-0.121582 -0.311093 1.93316 89 143 113
-0.600949 -0.208623 1.91222 90 113 115
-0.566185 -0.198996 1.91591 74 97 83
-0.585654 -0.195598 1.91716 128 173 170
-1.05541 -0.176664 1.89033 63 123 105
-0.562756 -0.180868 1.91878 108 144 144
-0.556178 -0.169565 1.9224 87 114 104
-0.590986 -0.121039 1.92319 76 87 79
-0.63676 -0.119897 1.92625 130 157 167
-0.702061 -0.110712 1.92133 147 202 207
0.155778 -0.111545 1.98727 123 179 158
0.457723 -0.116973 2.01534 67 98 101
-0.596266 -0.0969488 1.93457 103 134 131
0.549311 -0.0950563 2.02325 71 83 65
0.778447 -0.0990644 2.04893 98 115 136
-0.413568 -0.0900409 1.94444 95 150 135
0.364024 -0.0941327 2.00832 58 107 85
0.531057 -0.0882523 2.02424 137 198 188
0.582675 -0.0810061 2.02951 149 190 183
0.70659 -0.0772367 2.03424 114 135 143
0.362112 -0.0731478 2.0095 124 174 162
0.344815 -0.0685221 2.00789 64 93 78
-1.05304 -0.0548518 1.9117 56 97 90
0.646377 -0.0455886 2.04192 90 124 107
0.67086 -0.0436997 2.03803 110 162 155
-0.661286 -0.0363373 1.93806 105 150 134
0.132565 -0.0365478 1.99422 73 116 101
0.231058 -0.0362295 2.0016 85 74 82
0.642496 -0.0331838 2.04376 122 193 176
0.241887 -0.029678 2.00317 157 186 201
0.660246 -0.027569 2.04449 50 69 50
0.272447 -0.0227441 2.00644 88 117 108
0.295804 -0.02115 2.00598 100 107 134
0.391043 -0.0131713 1.95233 117 159 158
0.41308 -0.016795 1.96126 114 186 156
0.17305 0.00897555 1.99434 51 60 70
0.195815 0.011307 1.99253 85 110 120
0.700497 0.0172286 2.05357 79 125 112
0.681319 0.0182187 2.05097 64 74 61
0.904814 0.0185262 2.07467 112 165 162
0.472371 0.0288712 1.94591 53 69 51
0.995387 0.0684992 2.08277 234 236 236
0.983369 0.0822717 2.09138 251 253 253
