ply
format ascii 1.0
element vertex 403
property float x
property float y
property float z
property uchar blue
property uchar green
property uchar red
end_header
0.0567453 -0.62652 1.68919 160 242 200
0.0961214 -0.592017 1.69774 116 197 172
0.0353628 -0.585395 1.69412 106 191 169
-0.033785 -0.561743 1.69503 114 186 164
0.171978 -0.561411 1.71359 93 162 129
0.175921 -0.557346 1.71453 78 152 128
0.219839 -0.558322 1.71853 78 171 126
0.228427 -0.558498 1.71984 157 246 196
-0.314223 -0.538731 1.67867 96 140 147
0.204356 -0.538701 1.72091 140 215 177
0.204519 -0.53818 1.72287 163 237 203
-0.654933 -0.498461 1.65692 165 223 212
0.181122 -0.519957 1.72157 95 150 135
0.166416 -0.515487 1.72076 172 237 216
0.115937 -0.497411 1.71787 100 177 156
0.220538 -0.493665 1.7337 106 173 146
0.105158 -0.486598 1.71731 149 222 190
0.10927 -0.487615 1.71829 186 229 220
0.105257 -0.486278 1.71837 153 215 185
0.00261926 -0.477337 1.71126 115 174 166
0.112166 -0.474233 1.72085 120 173 164
0.026103 -0.460706 1.71478 122 165 156
-0.383082 -0.452295 1.6889 95 152 143
0.0524256 -0.460352 1.71673 94 149 140
-0.0537189 -0.45719 1.71319 103 158 167
0.0632613 -0.450247 1.71783 88 154 135
0.061188 -0.449544 1.71794 145 212 183
0.0521207 -0.443014 1.71933 141 233 192
0.0618784 -0.440596 1.7206 149 235 195
0.0135138 -0.432029 1.71861 89 154 139
-0.703008 -0.417049 1.66887 174 216 221
0.0348042 -0.431681 1.72047 139 224 192
0.0337964 -0.425327 1.7216 145 231 191
0.032996 -0.421891 1.72169 79 153 123
0.0335753 -0.42161 1.72239 81 163 128
-0.143443 -0.408914 1.7178 153 227 209
0.00610195 -0.407926 1.72126 99 167 150
0.00353134 -0.407248 1.72052 167 232 217
-0.54141 -0.387142 1.68602 81 141 133
0.109422 -0.3911 1.73985 157 227 197
0.12335 -0.386537 1.74144 161 241 206
0.107947 -0.380738 1.74102 87 173 133
0.153125 -0.377346 1.74762 91 162 135
-0.262436 -0.345583 1.71695 84 146 134
0.0330445 -0.337107 1.74381 99 170 154
0.126069 -0.338773 1.75388 89 164 136
0.0303007 -0.335361 1.74372 152 227 199
-0.580058 -0.320501 1.69547 83 134 126
-0.0679379 -0.312098 1.74064 105 177 165
0.101365 -0.298643 1.75974 104 176 153
-0.221068 -0.290412 1.73227 153 220 205
0.640534 -0.302296 1.80894 118 173 158
-0.919603 -0.272352 1.6764 87 142 133
-0.110258 -0.275314 1.74367 102 167 152
0.058759 -0.275564 1.76142 102 175 165
0.666878 -0.284098 1.81697 104 173 153
-0.173634 -0.264867 1.7398 100 164 152
-0.0892968 -0.264985 1.74746 106 180 168
-0.884312 -0.238373 1.6843 52 88 72
-0.115774 -0.240416 1.74891 96 163 148
-0.540266 -0.220475 1.71503 81 145 133
-0.266487 -0.221333 1.74038 98 158 148
0.141841 -0.223662 1.78023 91 168 161
-1.0034 -0.165483 1.68849 154 224 201
-0.191846 -0.162044 1.75619 252 254 254
-0.17701 -0.111411 1.76792 105 163 162
0.333192 -0.0990608 1.82249 120 176 165
-0.289238 -0.0859691 1.76248 171 233 215
-0.454242 -0.0705583 1.74917 103 167 161
-0.139121 -0.0565997 1.78054 78 157 144
-0.201413 -0.0454938 1.77686 168 226 215
-0.271808 -0.0250595 1.77416 72 142 125
-0.377856 -0.0150223 1.76611 157 226 215
-0.378036 -0.0148265 1.76647 163 231 220
0.0478158 0.0158326 1.81323 94 148 131
-0.426349 0.0173343 1.76765 100 166 154
-0.0677336 0.0523678 1.80476 96 163 148
-0.370397 0.0595278 1.77802 175 227 204
0.412392 0.0783176 1.86329 104 172 147
0.0357215 -0.627509 1.68744 102 161 133
0.0781389 -0.618151 1.69155 106 178 135
-0.102401 -0.603147 1.68388 82 153 127
0.0351493 -0.585405 1.69415 105 193 169
0.0887103 -0.580312 1.69871 165 240 212
-0.372777 -0.554631 1.6699 158 219 209
0.219806 -0.558279 1.71871 83 176 131
0.0526615 -0.547649 1.699 125 166 159
0.23122 -0.550065 1.72365 85 176 127
0.195663 -0.546937 1.71931 153 222 179
0.188881 -0.54232 1.71832 171 236 214
0.218139 -0.538066 1.72351 148 215 186
0.196677 -0.533201 1.71978 138 235 191
0.166942 -0.52458 1.71945 162 224 202
0.16634 -0.513679 1.72215 104 155 135
0.135537 -0.509613 1.71838 115 177 159
-0.0767542 -0.500535 1.70276 100 171 145
0.124374 -0.50455 1.71686 191 238 230
0.124057 -0.483251 1.72171 107 158 154
0.205699 -0.474603 1.73316 119 185 150
0.0202531 -0.466549 1.71352 116 158 170
0.0872747 -0.464996 1.71999 145 237 194
0.0607802 -0.462464 1.71757 110 181 154
-0.383077 -0.452291 1.68891 95 152 143
0.0520745 -0.460442 1.71634 103 160 151
0.614078 -0.471153 1.77784 119 182 162
-0.0975314 -0.450634 1.71301 102 157 142
0.0687821 -0.448056 1.71934 128 170 159
-0.0588848 -0.440253 1.71334 76 140 134
-0.0826039 -0.438828 1.71597 101 171 154
0.52171 -0.450277 1.77196 110 172 142
-0.116018 -0.426655 1.71622 75 150 136
-0.094613 -0.415351 1.71998 95 152 137
0.143982 -0.419336 1.73641 157 239 204
0.0582647 -0.409553 1.72763 85 161 120
0.258109 -0.413185 1.75693 124 185 171
0.00693135 -0.394188 1.72432 90 149 151
0.129151 -0.388109 1.74074 134 228 193
0.193113 -0.383192 1.75334 111 172 146
-0.0461606 -0.375017 1.72165 181 217 255
-0.0394039 -0.372077 1.72126 57 101 164
0.14685 -0.372644 1.74913 84 143 122
0.0325117 -0.355488 1.74057 94 146 187
0.0596471 -0.3498 1.74392 119 183 171
-0.0705533 -0.343142 1.7356 119 172 162
0.126088 -0.338746 1.75395 89 164 136
-0.264399 -0.329653 1.71874 123 161 161
0.651507 -0.333768 1.80409 106 160 143
0.178717 -0.319326 1.76424 94 174 151
-0.73845 -0.300244 1.68779 149 218 207
0.101972 -0.298637 1.75961 108 182 158
-0.838159 -0.272142 1.68404 81 142 128
-0.0811411 -0.269214 1.74606 177 220 229
-0.759027 -0.249466 1.6945 164 228 216
-0.216902 -0.250127 1.73886 96 157 153
0.647662 -0.262866 1.81857 116 173 152
0.0570536 -0.239286 1.76934 94 158 139
-0.553222 -0.21871 1.714 85 148 139
-0.387176 -0.212352 1.73033 78 144 132
-0.371092 -0.211271 1.7324 58 116 105
-0.685402 -0.188602 1.70946 152 211 196
-0.786765 -0.182792 1.70225 79 140 126
-0.190318 -0.160997 1.75662 255 254 255
-0.238489 -0.102704 1.76437 107 158 154
0.26813 -0.0975426 1.81658 77 159 141
-0.251392 -0.0926398 1.76398 173 228 219
0.304167 -0.0907135 1.82144 111 181 164
0.57418 -0.0771302 1.85264 118 177 173
-0.201641 -0.0454846 1.77691 160 220 209
-0.334468 0.00419099 1.77431 167 235 218
0.163423 0.00904009 1.82352 101 173 161
0.0280183 0.0157102 1.81102 99 157 139
0.073794 0.0446422 1.82047 108 166 155
0.00518613 0.0626553 1.81584 108 164 159
-0.151329 0.0681785 1.80201 84 152 135
-0.168139 0.0729072 1.80171 159 213 213
0.119188 -0.627655 1.69623 95 141 129
0.0534012 -0.606349 1.69051 112 174 158
0.0842312 -0.598388 1.69426 114 152 157
-0.4527 -0.572821 1.66072 196 234 239
-0.0135747 -0.580025 1.6934 116 183 162
-0.54002 -0.56131 1.65632 111 166 163
0.0822803 -0.576389 1.69611 120 170 170
0.10796 -0.576148 1.70293 113 182 161
-0.038617 -0.566588 1.69429 122 177 158
0.00477612 -0.565339 1.69579 150 177 198
0.00215924 -0.563612 1.69555 194 232 234
-0.0137192 -0.556404 1.69787 102 145 130
-0.416674 -0.542564 1.66885 106 154 158
0.0156191 -0.551956 1.69969 101 154 144
0.00809821 -0.543717 1.70062 100 153 139
0.207709 -0.545783 1.7214 80 107 74
0.239825 -0.548059 1.72498 90 151 123
0.110929 -0.539733 1.70822 108 140 159
0.123165 -0.536148 1.71086 149 184 194
0.192667 -0.539703 1.72126 139 186 154
0.0900048 -0.529243 1.70581 88 147 132
0.196918 -0.523341 1.72352 99 162 123
0.134847 -0.517147 1.71319 90 147 114
0.16004 -0.518773 1.71977 197 221 213
0.156728 -0.51721 1.71881 126 162 148
0.0192183 -0.508991 1.70763 133 178 175
0.124595 -0.504359 1.71748 195 242 234
0.110268 -0.502173 1.71506 110 173 157
0.114753 -0.499247 1.71684 89 156 135
-0.0302385 -0.490642 1.70819 81 135 152
0.0759436 -0.486893 1.7123 143 176 179
0.0845248 -0.487485 1.71517 187 238 230
0.515504 -0.498663 1.76087 135 182 180
0.100896 -0.482853 1.71833 159 232 206
-0.716728 -0.455286 1.66215 92 150 145
-0.435404 -0.458667 1.68393 82 144 138
0.0205066 -0.466357 1.71408 113 155 162
-0.108068 -0.462847 1.70936 82 144 122
0.0874491 -0.4625 1.72144 152 233 200
0.0604603 -0.456183 1.71718 128 158 153
-0.164107 -0.447356 1.70834 109 174 158
0.068737 -0.447635 1.72068 125 173 155
0.040695 -0.434389 1.71936 156 242 200
0.120621 -0.437792 1.7313 78 129 121
-0.540369 -0.419483 1.68092 87 144 141
-0.543206 -0.418259 1.67886 176 221 225
0.130215 -0.426264 1.73471 106 152 139
0.631759 -0.439691 1.78312 104 160 139
-0.0927026 -0.421263 1.71797 91 155 136
-0.0769726 -0.413808 1.71715 95 158 149
0.12252 -0.41678 1.73368 115 180 159
-0.0731702 -0.406492 1.71851 141 211 188
0.113587 -0.407337 1.73715 82 130 131
0.0123629 -0.402299 1.72463 185 251 240
0.134443 -0.404866 1.74048 94 161 140
-0.633766 -0.375079 1.682 109 166 158
0.181881 -0.389969 1.75038 100 155 128
-0.0405301 -0.379966 1.72185 100 146 200
-0.0863593 -0.375944 1.72675 74 151 137
-0.0460955 -0.37493 1.72187 187 223 255
-0.0411328 -0.37477 1.72186 45 79 149
0.143083 -0.378101 1.74829 80 149 128
0.12449 -0.376137 1.74667 206 238 243
0.489574 -0.38454 1.78165 116 172 149
-0.29935 -0.364407 1.71153 89 146 131
0.168931 -0.364145 1.75415 150 226 195
-0.371902 -0.346629 1.70745 121 165 159
0.114221 -0.352302 1.74917 116 155 140
0.539395 -0.357235 1.79082 109 181 151
0.552766 -0.357314 1.79184 106 170 148
-0.534575 -0.32668 1.69861 93 143 149
0.0513417 -0.336321 1.74488 107 183 149
-0.506251 -0.324233 1.70052 150 216 205
-0.521494 -0.32256 1.69899 71 131 121
-0.264198 -0.326442 1.7175 190 217 221
-0.0423007 -0.329021 1.73796 110 154 207
-0.11633 -0.323812 1.73475 82 151 131
0.651606 -0.333583 1.80461 94 151 136
-0.242479 -0.316063 1.72369 101 149 143
-0.881197 -0.301856 1.67558 134 162 156
-0.899504 -0.297124 1.67387 133 182 168
-0.649507 -0.298079 1.69366 90 153 144
0.0485958 -0.309189 1.75243 71 131 107
0.683219 -0.314492 1.81509 111 174 154
-0.925463 -0.280251 1.67508 128 188 170
-0.346791 -0.289169 1.71866 96 143 147
-0.346284 -0.276944 1.72189 194 235 237
-0.852896 -0.269337 1.68273 138 200 188
-0.714517 -0.269996 1.69421 70 130 100
-0.314522 -0.275995 1.72579 66 118 108
-0.835477 -0.266692 1.68741 78 118 106
0.404662 -0.285516 1.79289 109 153 136
0.420441 -0.280353 1.79497 116 186 156
-0.966453 -0.253466 1.67815 128 178 154
-0.972692 -0.251795 1.67891 65 94 79
0.111056 -0.267674 1.76859 93 159 147
-0.759011 -0.249389 1.69466 158 224 212
-0.505841 -0.252443 1.71167 169 226 217
-0.496349 -0.251188 1.71257 200 234 233
-0.97919 -0.243626 1.67849 108 162 145
0.589763 -0.264906 1.81602 93 173 144
0.102869 -0.253493 1.7702 128 195 180
-0.915918 -0.232538 1.68336 146 208 196
0.0417334 -0.244718 1.7673 104 164 153
-0.550678 -0.231351 1.71234 232 255 254
-0.30645 -0.234065 1.73513 105 163 158
-0.128443 -0.233731 1.74911 95 161 149
0.602474 -0.241223 1.82196 111 171 160
-0.0675133 -0.223256 1.75435 95 159 147
-0.387669 -0.212335 1.73044 70 134 122
-0.371149 -0.21104 1.7329 58 116 105
0.608584 -0.220717 1.82837 131 221 186
-0.228394 -0.16838 1.75298 102 151 143
-0.19053 -0.160596 1.75748 254 253 255
-0.206753 -0.15326 1.75767 88 147 139
-0.344943 -0.148594 1.74593 108 159 152
-0.45377 -0.128702 1.74039 83 139 134
-0.13589 -0.121497 1.77021 87 155 138
-0.115641 -0.117468 1.77085 92 151 137
-0.555514 -0.106527 1.7337 78 134 115
-0.280067 -0.0606257 1.76669 80 152 139
-0.468289 -0.0447302 1.75305 169 226 211
-0.163234 -0.0313223 1.7831 103 184 169
-0.0369288 -0.0023306 1.79993 87 141 136
-0.3706 0.0066382 1.77178 65 134 123
-0.816114 0.0146342 1.73402 67 117 99
-0.549516 0.0209739 1.75579 80 152 146
-0.159662 0.0579154 1.79941 109 164 169
-0.53176 -0.581421 1.65265 190 238 240
0.0272458 -0.595449 1.69106 181 255 222
-0.452826 -0.572546 1.66175 190 228 233
0.0883216 -0.54991 1.70568 215 245 250
-0.211431 -0.540206 1.68544 168 218 216
-0.0193195 -0.54233 1.69968 212 253 248
0.11086 -0.539866 1.70774 119 145 162
0.123165 -0.536148 1.71086 149 184 194
-0.177294 -0.489617 1.69953 216 247 246
0.101201 -0.482857 1.71824 154 228 200
-0.0663188 -0.477574 1.70989 101 150 134
0.0947304 -0.467234 1.71778 141 231 196
0.137302 -0.470051 1.72656 87 123 123
-0.664894 -0.427713 1.66817 100 153 143
0.0542634 -0.440153 1.7204 156 237 190
-0.115502 -0.426672 1.71657 70 149 130
-0.0928865 -0.421669 1.71682 105 164 143
-0.468542 -0.410194 1.68838 164 218 211
0.0266386 -0.399941 1.72671 200 236 254
0.0545377 -0.398571 1.73121 81 151 168
-0.409597 -0.37068 1.69961 111 155 149
-0.751409 -0.357548 1.67687 153 212 198
-0.29939 -0.365394 1.71007 88 151 135
-0.371375 -0.346845 1.7074 124 173 165
0.539752 -0.348655 1.79183 121 180 160
-0.558995 -0.318157 1.69658 195 236 239
0.0612775 -0.320718 1.75135 103 170 143
-0.755492 -0.304789 1.68538 43 105 89
-0.310192 -0.295944 1.72357 98 151 141
-0.918069 -0.280282 1.67375 61 89 76
-0.869922 -0.280156 1.6793 102 155 146
0.549442 -0.297029 1.80487 119 187 152
-0.852633 -0.269296 1.68279 140 202 190
-0.832577 -0.261223 1.68772 119 183 177
-0.955417 -0.254426 1.67804 87 110 102
-0.979352 -0.243435 1.67835 108 162 145
-0.865095 -0.240647 1.68753 117 158 143
-0.939712 -0.236226 1.68207 133 192 178
-0.466002 -0.237096 1.71677 206 237 238
-0.0674188 -0.223273 1.7543 95 159 147
-0.273261 -0.217176 1.74044 78 118 117
-0.97106 -0.16857 1.68868 52 96 83
-1.00256 -0.16662 1.68697 131 192 172
-0.696702 -0.163872 1.7135 88 154 142
-0.453192 -0.12892 1.73848 84 141 133
-0.978407 -0.121161 1.69456 118 172 149
-0.785826 -0.122767 1.71502 168 236 213
0.212493 -0.124653 1.80597 90 171 156
-0.962154 -0.112157 1.69711 100 145 128
1.05644 -0.124947 1.89964 98 149 141
-0.92159 -0.104211 1.7013 100 147 131
-0.337678 -0.0688414 1.76016 80 141 127
0.693797 -0.0101676 1.87898 107 169 155
-0.53176 -0.581307 1.65307 190 238 239
0.143996 -0.570377 1.71163 101 164 138
0.125513 -0.55284 1.70878 95 156 142
0.198119 -0.541479 1.72585 82 98 75
0.174409 -0.529074 1.72081 87 114 88
0.227353 -0.533791 1.72693 64 82 53
0.162356 -0.523172 1.71811 186 236 232
0.00660186 -0.513382 1.70657 102 162 138
0.136226 -0.516558 1.71635 110 167 142
0.0619421 -0.486446 1.71142 107 152 156
0.088888 -0.475665 1.71844 159 224 209
-0.053633 -0.463929 1.71266 182 225 244
0.084956 -0.458753 1.71827 119 168 148
0.235867 -0.434202 1.7478 106 164 139
-0.636829 -0.396805 1.67691 88 138 128
-0.0487937 -0.374192 1.72481 112 165 228
-0.0703764 -0.365916 1.73009 94 176 158
-0.303996 -0.356205 1.71219 88 148 137
0.180792 -0.353997 1.75668 100 143 130
-0.835902 -0.331239 1.67367 123 179 168
0.16921 -0.34544 1.75844 91 149 131
-0.889488 -0.322922 1.67065 118 170 160
-0.267359 -0.32779 1.71975 208 237 241
-0.909487 -0.316236 1.66835 128 181 172
-0.501805 -0.319426 1.70135 212 243 244
-0.89279 -0.301122 1.67506 120 183 173
-0.0651391 -0.309254 1.74144 174 228 228
-0.914355 -0.288906 1.67628 108 154 141
-0.858088 -0.289321 1.67792 107 159 142
-0.900755 -0.285167 1.67782 114 158 145
-0.851388 -0.286995 1.68078 63 84 76
-0.865853 -0.284224 1.6806 63 86 78
-0.883502 -0.275178 1.67941 62 88 74
-0.832377 -0.26133 1.68746 119 183 177
-0.980517 -0.252007 1.674 116 186 169
-0.841266 -0.245111 1.68807 144 191 182
-0.938498 -0.237531 1.67924 126 185 171
-0.845071 -0.237591 1.69024 74 113 97
-0.158903 -0.186989 1.75374 185 220 233
-0.971796 -0.168037 1.68977 55 101 89
-0.112762 -0.15912 1.76377 100 154 147
-0.95287 -0.138564 1.69412 55 77 58
-0.932524 -0.127183 1.69678 129 177 171
-0.973288 -0.120667 1.69594 111 168 147
0.212548 -0.124784 1.80569 90 169 155
-0.99109 -0.0845036 1.70358 69 127 98
-0.240147 -0.0701292 1.76866 81 144 128
-0.817456 0.0162482 1.73642 101 150 134
0.712096 0.124977 1.90704 230 253 249
0.180563 -0.527821 1.71625 75 94 73
0.174314 -0.528643 1.72247 85 114 88
-0.870157 -0.329994 1.66508 102 143 135
-0.90845 -0.327077 1.67073 97 113 106
-0.827747 -0.328167 1.67823 69 98 83
-0.890641 -0.322305 1.67222 119 173 160
-0.0866881 -0.328995 1.73846 86 147 127
-0.827862 -0.309604 1.67876 63 89 76
-0.911719 -0.275049 1.67577 77 98 90
-0.832022 -0.252728 1.68837 99 140 133
-0.876555 -0.246141 1.68694 52 71 52
-0.847756 -0.236662 1.68837 72 88 70
-0.859292 -0.232267 1.69182 69 85 74
-0.956817 -0.137591 1.69615 57 76 57
-0.8958 -0.13649 1.69894 70 123 109
-0.91116 -0.11569 1.70091 66 75 62
-0.969825 -0.107179 1.69535 93 155 137
-0.935584 -0.0887133 1.70211 53 84 75
