ply
format ascii 1.0
element vertex 748
property float x
property float y
property float z
property uchar blue
property uchar green
property uchar red
end_header
-3.52337 3.8738 -8.16121 123 170 154
0 0 0 169 221 197
8.74381 -4.81052 17.0038 82 142 141
10.7738 -5.89148 21.2824 163 212 190
-0.345934 0.538756 -1.77834 77 160 121
7.95895 -4.01418 15.4078 115 161 149
-0.298388 0.441229 -1.61708 115 141 147
-0.63699 0.56727 -2.37063 74 152 129
-0.29886 0.433602 -1.61013 117 157 162
6.74683 -2.62616 12.9347 78 122 109
-0.392574 0.454899 -1.81715 96 144 150
-0.278972 0.413121 -1.54397 73 105 94
-0.297913 0.418413 -1.58772 70 113 104
-0.238954 0.392059 -1.44003 90 111 119
-0.447094 0.441847 -1.91155 95 122 118
-0.461463 0.442233 -1.93973 118 160 153
-0.668386 0.485873 -2.39711 177 234 235
-0.279039 0.377933 -1.50303 114 140 140
-1.77359 0.843494 -4.78174 116 147 162
-0.703167 0.486912 -2.4643 86 130 129
-0.524536 0.429607 -2.05497 103 139 139
-0.761724 0.492072 -2.58736 117 167 165
-1.07993 0.586332 -3.28361 161 194 197
-1.10961 0.59486 -3.34672 171 195 195
-0.545603 0.422599 -2.09022 89 136 120
-0.345138 0.370344 -1.62991 151 182 179
-1.72839 0.726494 -4.64658 105 149 156
-0.680968 0.428878 -2.3798 97 131 130
-3.3379 1.15464 -8.03277 132 177 168
-0.694261 0.422126 -2.39864 157 203 184
-0.86107 0.454207 -2.76167 116 165 167
-0.684604 0.413586 -2.37051 84 135 127
-0.571252 0.388287 -2.11655 171 210 202
-0.786428 0.425537 -2.58605 87 109 104
-0.797143 0.426158 -2.6108 96 134 134
4.47293 -1.03485 8.17282 123 186 184
-0.636094 0.385746 -2.24726 67 115 103
-0.980986 0.451402 -3.00314 85 135 133
-0.417133 0.330947 -1.73323 166 211 202
-0.378574 0.326024 -1.64171 142 166 158
-1.65705 0.543118 -4.43035 105 151 152
-0.89654 0.393365 -2.79274 175 215 203
-0.377498 0.319112 -1.62922 164 187 182
-1.9994 0.601653 -5.1483 199 243 237
-0.576618 0.339543 -2.08068 123 165 148
-1.43798 0.484857 -3.95416 163 223 215
-2.70435 0.713436 -6.61721 91 145 138
-0.640504 0.334542 -2.21117 152 186 179
-0.7719 0.337499 -2.48444 91 119 120
-0.747203 0.31131 -2.41539 106 119 117
-1.26072 0.354251 -3.51765 178 220 219
-1.06744 0.289922 -3.08235 179 204 208
-3.51436 0.460181 -8.17912 158 204 191
-0.895894 0.223775 -2.65813 107 132 128
-5.76932 0.40834 -12.7887 80 148 137
-0.946878 0.179714 -2.73274 73 110 114
-1.29638 -0.0405283 -3.3327 163 194 191
-1.45651 2.47961 -3.70505 146 195 179
-5.79002 5.64644 -12.82 167 227 209
-5.17564 4.80985 -11.698 107 164 155
-6.44678 5.86769 -14.2718 177 231 224
-12.3633 10.5226 -26.3617 146 191 175
-6.43981 5.62162 -14.3384 96 134 116
0 0 0 144 196 173
-6.40528 5.47056 -14.3166 196 237 229
-7.55153 6.29511 -16.6848 109 131 113
9.55266 -5.45398 18.6784 94 114 109
8.78603 -4.85556 17.0782 149 218 205
4.60202 -2.18204 8.4068 124 168 155
-0.420458 0.527679 -1.91957 39 66 57
7.4827 -3.12759 14.4755 130 183 173
-0.345728 0.44933 -1.71664 106 136 147
6.87315 -2.74442 13.1996 171 219 207
6.84368 -2.70857 13.1331 91 143 136
7.93085 -3.14981 15.422 152 204 186
-0.330553 0.431556 -1.66958 90 117 131
-0.440363 0.465117 -1.92151 90 129 138
7.75918 -2.94574 15.0597 180 222 221
-0.437967 0.45982 -1.91233 85 137 137
6.32533 -2.35651 12.0632 91 151 141
-0.502276 0.479664 -2.05679 82 125 134
-0.272204 0.395152 -1.51081 135 176 168
-1.54569 0.841548 -4.32026 175 216 218
-0.281632 0.395948 -1.53133 101 129 130
-1.75877 0.867438 -4.75748 83 105 117
-0.477698 0.430107 -1.9658 111 158 155
-0.477682 0.423643 -1.958 65 113 107
-0.70295 0.486812 -2.46478 81 120 118
-0.720273 0.480938 -2.49064 86 106 107
-0.505244 0.414796 -2.0033 77 125 119
-0.506897 0.413457 -2.00863 97 147 143
-0.768926 0.481693 -2.59639 115 161 162
-0.329591 0.369979 -1.59988 79 110 109
-1.70367 0.732661 -4.60376 151 187 195
-0.674476 0.431019 -2.36698 107 146 144
-1.04501 0.522251 -3.1807 83 101 102
-1.33766 0.593674 -3.80508 174 226 219
-3.33792 1.15464 -8.03279 132 177 168
-0.334139 0.351434 -1.56501 84 149 124
-1.94711 0.74763 -5.09208 85 145 139
-0.78989 0.444329 -2.61261 113 165 155
-0.565541 0.391855 -2.10976 185 221 221
-0.704036 0.422049 -2.42001 84 124 119
-0.560737 0.39033 -2.09925 95 134 126
-1.97471 0.717153 -5.13309 87 119 132
-3.41082 1.08469 -8.15369 100 143 152
-0.485115 0.364119 -1.91398 178 216 210
-1.36913 0.54976 -3.84979 119 154 158
-0.745458 0.398764 -2.48599 112 160 154
-1.43139 0.530437 -3.96749 115 159 160
-0.7183 0.381491 -2.41605 83 110 106
-0.654107 0.348893 -2.25372 64 96 95
3.01707 -0.500699 5.13154 110 178 171
-0.348419 0.307976 -1.54769 120 124 119
-0.982301 0.370781 -2.95115 80 130 120
7.42273 -1.27162 14.2586 116 161 152
-1.16538 0.380443 -3.33792 199 237 231
-0.488098 0.297262 -1.83982 100 145 142
-6.50489 1.17614 -14.4497 86 136 126
2.94467 -0.370129 4.97864 109 169 158
9.06661 -1.15796 17.6308 102 147 151
-1.17643 0.325168 -3.32821 107 124 127
0 0 0 129 187 182
-0.738428 0.278358 -2.36893 183 224 226
0 0 0 110 162 155
-1.55378 0.28723 -4.08736 71 100 97
-0.713869 0.240489 -2.27376 139 198 178
-0.759419 0.233541 -2.36994 93 133 128
-0.760539 0.233346 -2.37159 93 134 129
-1.4659 0.222774 -3.87583 124 173 175
15.3284 1.76074 30.0922 92 149 140
-7.58024 -1.37941 -16.0315 53 84 81
-1.55929 2.57329 -3.91865 152 222 205
-2.18624 3.08584 -5.23338 151 226 194
-3.89723 4.19733 -8.9209 145 221 197
-4.20386 4.41224 -9.55969 159 219 201
-6.97914 6.44228 -15.3043 95 133 121
0 0 0 146 213 184
-5.35286 4.85269 -12.0906 70 109 101
-12.1972 10.3758 -25.9757 128 173 156
-15.3844 12.9553 -32.5228 161 210 190
-9.32266 7.99722 -20.1854 161 207 195
0 0 0 141 187 165
0 0 0 94 120 107
-6.24868 5.33732 -14.0044 106 153 145
-6.75137 5.71506 -15.0265 83 110 106
-7.57878 6.34781 -16.7074 170 218 192
-15.9002 12.5181 -33.7989 78 97 88
10.6133 -7.41899 20.5341 115 186 169
0 0 0 75 103 83
0 0 0 113 142 119
12.5787 -7.90533 24.8775 142 196 189
0 0 0 128 165 145
11.9943 -7.05372 23.7328 135 178 167
7.36542 -3.99852 14.1177 103 157 140
8.4276 -4.58279 16.3451 166 229 233
10.4319 -5.72764 20.5396 158 223 208
9.74376 -5.32163 19.1041 103 136 132
11.582 -6.35291 22.9555 74 90 79
10.8449 -5.9266 21.4084 167 217 193
10.3072 -5.5165 20.3145 137 163 149
10.5292 -5.55654 20.7773 120 135 121
9.35923 -4.90191 18.3302 151 204 190
6.20238 -3.12875 11.7211 131 193 179
9.62318 -4.92067 18.904 147 190 181
-0.314108 0.489833 -1.68411 54 103 89
9.41439 -4.55671 18.4751 149 207 196
-0.304561 0.48261 -1.65845 164 241 204
-0.307629 0.481039 -1.66393 54 99 82
-0.292948 0.472711 -1.62559 182 246 211
-0.300564 0.470355 -1.64028 148 220 178
6.98036 -3.14718 13.3902 183 235 228
7.42645 -3.17613 14.3385 87 109 97
7.07738 -3.00429 13.6204 182 228 216
-0.330494 0.458371 -1.69593 70 125 152
7.28585 -3.07864 14.0448 151 198 182
-0.297513 0.441091 -1.61433 124 145 153
-0.295631 0.432908 -1.60045 104 137 140
6.87504 -2.74663 13.1956 179 232 219
-0.352622 0.44712 -1.72626 81 111 122
-0.620458 0.543162 -2.32311 83 147 117
-0.416094 0.467726 -1.87701 106 151 162
6.76382 -2.62945 12.965 71 120 104
-0.362207 0.443417 -1.74295 75 129 122
-0.455352 0.475464 -1.95862 73 111 113
-0.330328 0.431287 -1.66924 90 117 131
8.81072 -3.4713 17.2616 81 123 116
6.58324 -2.52087 12.5986 175 228 214
-0.444058 0.462188 -1.92611 210 247 239
6.30666 -2.34673 12.0281 91 151 141
-0.502465 0.479586 -2.05722 86 128 140
-0.252463 0.395251 -1.47265 104 127 135
-0.451232 0.457828 -1.93677 195 239 240
4.47209 -1.53167 8.17393 119 183 171
-0.468396 0.454997 -1.96654 174 226 226
4.58005 -1.54872 8.40489 212 246 240
-0.460326 0.448919 -1.94955 187 234 231
-1.6884 0.88369 -4.61716 96 128 133
-0.635875 0.503561 -2.34157 197 230 226
-0.459726 0.445447 -1.94078 67 107 102
-0.384252 0.419601 -1.76724 110 151 166
-0.646421 0.502654 -2.36308 115 153 158
-0.493275 0.450871 -2.01492 82 130 131
-2.12083 1.01978 -5.53344 132 170 175
-0.6658 0.500011 -2.40028 84 136 149
-1.83957 0.90905 -4.93832 143 177 177
-0.627129 0.482528 -2.30917 93 122 131
-0.650004 0.487507 -2.36144 192 229 227
-0.40883 0.414977 -1.81126 199 225 219
-0.678676 0.493284 -2.42193 181 230 232
-0.554246 0.45274 -2.13995 228 250 255
-0.477983 0.429916 -1.96661 104 153 151
-0.670884 0.485781 -2.39933 182 239 238
-0.870752 0.544559 -2.84042 78 106 113
-0.490597 0.429794 -1.99129 89 129 127
-0.385922 0.400309 -1.74904 89 131 130
-0.816467 0.519956 -2.71357 104 156 156
-0.905123 0.546242 -2.90744 101 133 132
-0.513323 0.427894 -2.03384 140 180 215
-0.505734 0.425712 -2.01408 84 116 129
-0.499757 0.422027 -1.99895 173 215 208
-0.897245 0.528675 -2.8816 105 147 152
-0.520638 0.421699 -2.04087 55 124 109
-0.505776 0.414434 -2.00483 79 129 125
-0.562605 0.427147 -2.13482 78 112 106
-0.29671 0.363127 -1.51951 97 154 145
-0.380943 0.381192 -1.71821 92 130 130
-1.01331 0.537188 -3.12366 93 133 145
-0.450404 0.389742 -1.87272 88 145 137
-1.80521 0.757733 -4.81557 109 155 162
-3.07086 1.12351 -7.47927 81 123 128
-0.64039 0.425776 -2.29199 94 125 124
-2.23507 0.861626 -5.7158 135 192 184
-0.676796 0.430122 -2.36937 101 141 139
-1.04225 0.521165 -3.17265 88 107 112
-0.395641 0.367201 -1.73103 64 116 109
-0.579483 0.405755 -2.14954 70 113 110
-0.834944 0.46246 -2.71691 108 146 140
-0.836378 0.462472 -2.7183 103 138 134
-1.03719 0.515001 -3.15755 159 206 203
-0.334278 0.351211 -1.5656 89 154 133
-0.526243 0.387823 -2.02266 114 143 148
-0.527085 0.387003 -2.02567 93 128 132
-0.745467 0.434646 -2.51119 79 113 112
-0.685349 0.419521 -2.37979 81 122 117
-0.700885 0.418477 -2.40876 171 212 205
-0.621265 0.396292 -2.22478 190 227 223
-1.343 0.562389 -3.79838 97 135 139
-0.995964 0.475717 -3.05181 98 140 139
-0.511482 0.3722 -1.97816 98 144 132
-0.95093 0.462418 -2.952 108 166 165
3.55798 -0.777027 6.26743 133 180 177
-0.510374 0.3624 -1.96268 77 103 97
-0.701386 0.394583 -2.39082 92 123 116
6.91782 -1.5975 13.2506 102 153 145
-1.43027 0.530738 -3.96459 115 159 160
-0.755016 0.387796 -2.49635 120 172 162
-0.462154 0.340228 -1.84145 81 125 118
-7.28291 1.84832 -16.1943 89 152 143
-1.31207 0.48804 -3.70048 89 148 144
-0.416814 0.32872 -1.73112 111 148 152
-0.981602 0.420301 -2.98634 126 175 167
-1.02425 0.423904 -3.07333 196 234 228
-0.456371 0.331846 -1.81799 185 225 223
-0.57153 0.345641 -2.075 104 156 138
-0.492397 0.334251 -1.89965 86 113 109
-0.818077 0.379804 -2.62071 87 129 118
2.20039 -0.3542 3.42493 118 189 173
-0.684382 0.356659 -2.32672 96 133 131
-1.58636 0.516417 -4.27134 116 148 147
-0.673298 0.353488 -2.29805 91 114 109
-0.73181 0.361567 -2.42837 94 116 111
-0.65484 0.348471 -2.2556 62 100 100
-0.706733 0.356027 -2.37067 64 95 88
-0.360283 0.312128 -1.57835 120 156 139
0 0 0 109 170 160
4.49645 -0.807335 8.21044 115 178 169
3.01684 -0.500393 5.1305 110 178 171
-1.26454 0.431003 -3.57065 105 136 139
4.49218 -0.774751 8.19876 112 177 168
4.49252 -0.774907 8.19948 112 177 168
-0.710289 0.341468 -2.36196 89 127 127
0 0 0 100 148 142
2.76419 -0.429455 4.60243 117 183 172
-0.704476 0.341575 -2.34951 146 179 182
0 0 0 76 138 132
-0.384733 0.305168 -1.6267 165 185 186
-1.04426 0.377654 -3.0813 70 112 105
-0.721135 0.333581 -2.37787 106 146 144
0 0 0 111 150 152
3.13397 -0.47448 5.37742 121 177 166
-0.666267 0.323889 -2.25442 94 116 104
16.0908 -2.80084 32.1909 106 166 160
-1.13151 0.379555 -3.26719 126 153 149
-1.52455 0.438454 -4.10531 101 150 142
-0.689341 0.320279 -2.30114 197 227 228
-0.705049 0.32032 -2.33053 78 101 103
-0.837788 0.335048 -2.62388 97 139 138
-5.11129 1.02047 -11.5981 105 163 162
-0.38321 0.292267 -1.60047 181 200 203
-0.821292 0.327918 -2.58215 105 155 145
-0.862772 0.331425 -2.67239 104 144 139
-1.55721 0.412375 -4.15792 197 225 226
-0.712965 0.310363 -2.34067 65 97 96
11.5218 -1.77141 22.7033 100 144 143
8.59633 -1.2739 16.6775 134 182 186
-12.1917 2.03367 -26.2269 104 161 160
-3.7405 0.707898 -8.71827 103 145 144
-1.25831 0.354161 -3.51001 183 225 224
-0.520066 0.288065 -1.89976 114 131 117
-0.791071 0.298518 -2.50031 102 135 128
0 0 0 108 154 148
-1.19396 0.327285 -3.36482 190 218 219
-1.21362 0.331023 -3.40367 119 145 151
-13.0779 1.90887 -27.9861 75 110 96
9.65751 -1.23481 18.8557 193 232 234
9.13199 -1.16863 17.7597 105 150 154
-2.95651 0.525191 -7.0684 85 117 112
-0.699637 0.280774 -2.28462 84 107 99
3.16489 -0.335589 5.42906 130 191 177
-0.719493 0.281176 -2.33116 88 108 103
-2.6984 0.48012 -6.52348 122 154 165
-0.701656 0.277881 -2.28696 71 98 88
-1.42992 0.330449 -3.85828 96 107 115
-8.82025 1.19891 -19.1777 87 147 141
0 0 0 110 162 155
-0.731071 0.263956 -2.33615 109 143 136
-0.935489 0.271822 -2.77942 126 142 135
-1.39637 0.290907 -3.76156 180 224 231
-0.755457 0.254492 -2.37884 196 230 224
-0.713791 0.251197 -2.28842 176 226 208
-1.57351 0.28943 -4.12942 92 105 113
-1.38381 0.276201 -3.72919 83 109 109
-0.717534 0.23894 -2.28225 165 210 201
-0.758942 0.233828 -2.36795 91 128 126
2.89773 -0.170105 4.86926 121 176 167
-0.89967 0.225337 -2.66847 85 106 103
-0.762698 0.222472 -2.3672 92 113 105
-1.66825 0.18855 -4.2793 114 152 157
-1.74936 0.184722 -4.44464 97 137 136
8.08918 -0.189894 15.5318 122 157 153
-1.39365 0.165355 -3.6838 75 123 124
-0.645088 0.195461 -2.06762 103 135 141
2.66996 -0.0378041 4.39296 76 124 112
2.71333 -0.028963 4.48336 78 129 115
-0.980962 0.151159 -2.78524 94 137 134
-7.24207 0.0256766 -15.6969 91 142 134
-1.17165 0.12937 -3.18576 109 149 144
-1.23885 0.12417 -3.3271 86 122 116
2.38075 0.0192961 3.78991 125 164 162
2.64387 0.0387687 4.33361 85 146 126
0 0 0 85 145 135
11.0251 0.697671 21.4547 92 146 147
-1.43682 -0.00631567 -3.66767 78 87 90
-10.829 -0.899358 -22.8187 82 133 126
-1.41537 -0.0112034 -3.60835 96 125 122
-1.42008 -0.0151673 -3.62304 92 118 118
-14.6742 -1.51788 -30.5405 87 115 116
8.88961 1.13601 17.0378 96 147 149
5.7595 0.7974 10.6928 95 140 137
-2.21245 -0.289762 -5.19746 197 235 229
-6.4219 -1.26037 -13.6661 102 157 154
-0.759233 0.0210119 -2.12445 54 100 77
-1.67945 -0.252841 -4.05762 45 111 100
-1.82324 -0.291119 -4.35369 58 109 101
-1.7029 -0.288956 -4.08627 135 220 192
-0.894501 -0.04659 -2.38249 81 117 105
-1.13873 -0.178368 -2.86516 97 151 144
-0.278679 0.965013 -1.70403 134 176 158
-2.15261 3.10699 -5.10796 152 221 200
-4.26775 4.46411 -9.69306 137 193 174
-4.60041 4.72274 -10.3843 94 147 134
-5.17075 5.13553 -11.5532 184 237 224
-7.23693 6.86327 -15.7331 167 217 205
-7.22941 6.81942 -15.7214 109 142 138
-12.0854 10.7694 -25.5899 154 214 196
0 0 0 92 135 124
-9.6595 8.47087 -20.7904 100 135 125
-12.9196 11.0485 -27.4331 87 98 90
0 0 0 78 110 99
-15.1867 12.5607 -32.1748 136 191 182
-6.25478 5.34254 -14.0211 106 153 145
-11.1095 9.11911 -23.9162 134 196 172
0 0 0 127 166 151
-14.4957 11.5284 -30.9283 156 209 195
0 0 0 75 112 92
0 0 0 126 171 152
0 0 0 111 171 147
11.1186 -6.13962 21.9686 72 102 89
11.546 -6.33163 22.889 74 90 79
8.95117 -4.78941 17.5071 100 147 139
6.3499 -3.25891 12.0378 100 143 128
10.5102 -5.54115 20.7283 116 136 123
6.20193 -3.1321 11.731 127 192 176
10.2882 -5.09769 20.3117 163 218 199
6.03493 -2.81527 11.4214 136 188 178
-0.413832 0.526329 -1.90456 52 88 71
-0.2905 0.466932 -1.61778 47 114 77
8.47552 -3.91227 16.4966 126 166 148
-0.478347 0.513009 -2.03004 190 234 235
7.37864 -3.07029 14.2465 136 205 192
-0.292273 0.435442 -1.59838 90 109 114
-0.228852 0.406855 -1.43477 156 214 209
-0.293331 0.427783 -1.59111 103 125 131
7.74736 -3.04396 15.0388 96 128 123
-0.238214 0.401044 -1.44822 85 114 121
-0.440535 0.4651 -1.92169 90 129 138
-0.444098 0.462197 -1.92612 210 247 239
7.29613 -2.71716 14.081 99 143 130
4.59261 -1.55621 8.42962 219 248 245
-0.452495 0.442464 -1.92518 172 222 218
-0.460404 0.445181 -1.94221 65 96 93
-0.259325 0.385403 -1.47202 99 129 134
-0.268241 0.384791 -1.49045 128 160 155
-0.627221 0.482259 -2.31019 93 122 131
-0.663482 0.490505 -2.38817 95 122 118
-0.680529 0.482157 -2.4163 126 170 164
-0.506448 0.425403 -2.01567 73 108 121
-1.17153 0.599634 -3.47027 107 121 120
-0.333049 0.370881 -1.60314 149 197 198
-0.365355 0.376878 -1.68002 104 125 122
-0.346966 0.370795 -1.63338 153 196 193
-2.54793 1.00431 -6.38822 214 243 248
-0.374106 0.374135 -1.69558 175 216 211
-0.919293 0.509438 -2.91739 141 193 186
-1.53416 0.680425 -4.23715 98 125 122
-0.366964 0.36951 -1.67415 157 197 196
-0.423078 0.381293 -1.80595 104 135 136
-0.640294 0.424168 -2.29111 98 130 125
-1.23654 0.579758 -3.59685 73 105 118
-1.30581 0.599449 -3.74691 201 236 239
-0.378659 0.366468 -1.69557 92 124 119
-0.52695 0.387005 -2.02552 108 138 143
-0.382729 0.353096 -1.69075 171 217 218
-0.62172 0.396127 -2.22572 190 227 223
-0.511712 0.372465 -1.97949 93 141 129
-0.568799 0.380847 -2.10276 103 145 134
-0.995347 0.47593 -3.05029 98 140 139
-0.397643 0.350714 -1.71464 91 125 124
-1.02057 0.476542 -3.10257 95 133 151
-0.404721 0.350225 -1.73015 175 227 220
-1.21727 0.497247 -3.51686 113 150 154
-1.0743 0.446512 -3.19124 95 137 136
-1.12651 0.460313 -3.31188 130 174 175
-0.720257 0.379896 -2.41925 98 125 116
-1.35877 0.497458 -3.80209 96 138 137
-0.408179 0.328678 -1.71 131 172 164
-1.79251 0.576993 -4.71958 100 123 131
3.66591 -0.698313 6.49231 109 149 138
-0.456371 0.331846 -1.81799 185 225 223
-2.62126 0.752377 -6.46158 93 133 131
-0.882908 0.386887 -2.7576 92 116 106
-0.583372 0.339536 -2.09228 72 95 87
-1.11142 0.417747 -3.24655 88 140 133
-1.20983 0.435508 -3.46214 78 129 121
-1.28604 0.448849 -3.62631 116 150 144
2.32923 -0.369708 3.69369 124 181 166
-0.427568 0.317864 -1.73757 126 140 136
-0.422859 0.314306 -1.72198 86 102 91
-0.51723 0.320908 -1.93493 115 134 141
-0.9144 0.374555 -2.81009 118 128 128
4.48953 -0.773903 8.1948 112 177 168
-0.630569 0.32831 -2.18379 174 203 200
-0.667061 0.323707 -2.25572 84 110 96
4.35466 -0.6893 7.91469 136 183 175
-1.40032 0.422253 -3.84461 111 147 153
-0.667078 0.317605 -2.24748 193 222 219
-0.802859 0.333845 -2.5497 54 76 71
4.05566 -0.612825 7.291 98 173 157
-0.704151 0.32021 -2.33342 81 106 108
10.9015 -1.75765 21.4693 92 151 147
3.21426 -0.450102 5.54058 104 157 147
-0.66866 0.307157 -2.24429 90 93 91
-1.35027 0.375766 -3.71427 82 98 104
-1.75532 0.426836 -4.57274 112 164 157
-1.15875 0.344086 -3.30309 89 113 135
3.0542 -0.351587 5.20661 114 171 156
0 0 0 115 166 158
-0.695003 0.279737 -2.27526 92 99 92
-0.740891 0.277295 -2.37167 183 215 220
0 0 0 103 161 156
-0.766429 0.25658 -2.40717 149 183 182
-0.75503 0.254206 -2.37907 206 238 233
5.42965 -0.433709 10.0922 97 157 151
-1.52198 0.263062 -4.0162 90 128 128
-0.899239 0.225526 -2.66754 87 108 105
-0.776111 0.218819 -2.39259 88 128 127
2.70982 -0.0579165 4.47744 73 122 108
-1.24968 0.174112 -3.38211 98 113 115
-0.58938 0.200493 -1.9488 80 97 93
2.53639 -0.00913555 4.11536 105 164 149
-0.979564 0.15203 -2.78173 91 134 131
-7.24878 0.024829 -15.7115 96 145 137
-1.00129 0.141763 -2.82287 209 237 238
2.64348 0.0390434 4.33245 85 144 124
-0.930683 0.133493 -2.65664 134 156 154
2.53692 0.0513453 4.11116 76 109 95
-0.856519 0.134236 -2.48552 94 115 116
-1.02383 0.115535 -2.84715 96 108 110
-1.72343 0.0590951 -4.31824 89 165 153
-1.97735 0.0402127 -4.8538 89 144 135
-1.43581 -0.00627465 -3.66665 89 100 104
-1.35198 0.00131296 -3.48637 200 235 231
-2.06501 -0.119661 -4.95809 91 135 128
-0.945855 0.0415268 -2.5926 97 116 113
-2.21866 -0.292895 -5.21177 197 235 229
-11.8067 -2.14245 -24.5744 87 132 135
-7.58754 -1.38075 -16.0422 49 83 77
-0.831378 -0.0030045 -2.27673 99 146 137
-1.68022 -0.253538 -4.05996 45 111 100
-1.64835 -0.273904 -3.97741 35 93 75
0 0 0 86 116 111
0 0 0 102 122 117
0 0 0 91 108 111
-1.95022 2.93487 -4.68745 118 164 151
-2.07575 3.01208 -4.98409 100 154 137
-2.65465 3.57056 -6.10035 97 161 142
-4.2628 4.45723 -9.67436 149 210 190
-8.04443 7.5489 -17.3591 106 129 125
-7.30352 6.8802 -15.8846 105 137 136
-9.43952 8.71182 -20.2054 152 222 205
-10.8409 9.81216 -23.0036 85 137 120
-7.18426 6.6195 -15.7107 99 130 123
-5.54854 5.14096 -12.4395 157 224 209
0 0 0 79 115 98
-12.7961 10.9517 -27.2014 92 100 90
-7.43741 6.49642 -16.3473 164 227 218
-15.4347 13.0082 -32.5773 158 209 195
0 0 0 81 124 113
-8.09322 6.96172 -17.737 77 106 103
-10.595 8.96988 -22.7978 147 190 179
-8.70931 7.40216 -18.9859 136 198 186
0 0 0 114 156 133
0 0 0 101 138 122
0 0 0 84 116 105
10.3768 -7.24269 20.0575 94 158 146
0 0 0 87 117 98
13.9092 -8.57337 27.6988 142 200 189
12.0756 -7.13125 23.9062 132 185 171
12.9389 -7.6156 25.7256 75 77 57
10.1689 -5.82974 19.965 91 101 89
8.50577 -4.70506 16.5415 151 220 207
6.77064 -3.62346 12.884 152 190 184
9.5906 -5.08932 18.7914 88 104 93
6.33125 -3.24482 11.9978 100 146 133
9.01659 -4.70694 17.6114 154 218 206
8.89429 -4.62465 17.3568 192 245 232
8.13651 -4.10562 15.8058 113 150 142
8.03829 -4.04279 15.6092 103 145 138
7.3497 -3.35828 14.1325 120 157 147
6.81168 -2.99086 13.0788 96 125 122
6.92897 -2.90851 13.3128 107 150 141
-0.388041 0.467843 -1.82037 114 175 161
-0.293222 0.427998 -1.5905 103 125 131
-0.32288 0.433045 -1.65505 89 103 109
-0.355632 0.440262 -1.72653 106 170 164
-0.378895 0.446853 -1.78073 101 142 145
3.65749 -1.12179 6.46551 149 191 184
-0.305187 0.387539 -1.56635 72 116 109
-0.674402 0.485517 -2.4043 159 215 210
-0.286135 0.375518 -1.51631 130 172 177
-0.853443 0.527262 -2.79476 78 127 119
-1.0603 0.580344 -3.23925 104 134 145
-0.519882 0.422275 -2.03954 68 130 118
-0.989634 0.548867 -3.07917 175 222 219
-0.506425 0.413472 -2.0047 114 161 158
-1.17379 0.598648 -3.47864 83 100 103
-2.05505 0.827621 -5.3476 112 146 152
-0.67768 0.430473 -2.37286 101 141 139
-2.9074 1.04583 -7.12156 113 151 151
-3.59358 1.18799 -8.55175 68 104 110
-0.422733 0.361216 -1.78287 96 147 140
-1.15715 0.523044 -3.40211 89 116 112
-0.382567 0.353209 -1.69034 171 217 218
-0.616248 0.395797 -2.21314 184 218 212
-1.09288 0.501292 -3.25844 118 153 157
-0.370956 0.345874 -1.65107 161 204 201
-0.781327 0.423248 -2.57471 122 145 141
-0.477093 0.360001 -1.89664 211 244 247
-0.721095 0.404057 -2.43988 135 162 158
-0.378759 0.342785 -1.65943 82 113 106
-0.40465 0.346498 -1.72564 83 124 116
-3.89431 1.17058 -9.14948 95 150 159
-0.697136 0.395078 -2.38311 112 133 130
-0.67101 0.389071 -2.32182 83 110 106
6.90543 -1.58809 13.2237 107 161 154
-0.408428 0.336417 -1.71774 167 217 207
-1.62895 0.54471 -4.37024 125 166 169
3.72647 -0.712009 6.61597 109 156 140
-1.69608 0.554959 -4.51539 107 138 139
-1.79184 0.577395 -4.71586 115 139 145
-0.497774 0.332261 -1.91113 83 97 96
-0.557541 0.339094 -2.03867 85 112 103
-0.570173 0.344112 -2.07445 102 135 128
-0.673541 0.352152 -2.29698 83 110 101
-0.454616 0.322329 -1.79674 77 125 119
-0.417232 0.316456 -1.71454 173 214 207
-0.525287 0.329544 -1.96374 93 124 133
-0.813432 0.364197 -2.5961 75 104 95
-0.476784 0.319095 -1.84348 199 237 239
-0.500317 0.320864 -1.89656 178 215 219
-0.514185 0.319928 -1.92847 82 103 101
-0.64433 0.332022 -2.21621 103 124 121
-1.22128 0.410065 -3.47033 132 157 167
-0.575216 0.321515 -2.04706 163 226 210
16.0833 -2.93047 32.21 215 252 250
-6.0453 1.26305 -13.5468 113 162 154
-1.14134 0.378426 -3.28783 111 142 135
-0.506863 0.304762 -1.89059 165 218 221
-0.530617 0.306396 -1.9461 188 228 227
-0.803733 0.333404 -2.55185 54 77 73
-0.654231 0.314399 -2.21956 161 195 194
10.8264 -1.73621 21.3028 124 181 182
-0.494677 0.298104 -1.85367 169 212 209
-0.587732 0.305758 -2.07085 132 156 144
2.48542 -0.318417 4.01252 119 172 158
-0.484686 0.295098 -1.83198 80 116 102
-1.34993 0.387822 -3.72705 126 147 155
0 0 0 126 170 169
-0.728628 0.308627 -2.37331 225 249 249
-1.38078 0.37369 -3.77474 80 92 96
-1.15968 0.343921 -3.3046 68 92 114
-1.16858 0.332258 -3.3148 224 247 249
-1.32635 0.348441 -3.64451 132 150 157
-4.07943 0.70637 -9.3992 91 136 133
-0.694023 0.279893 -2.27384 80 84 78
-1.44326 0.330709 -3.88677 102 112 119
-0.742845 0.275986 -2.37694 202 229 233
-0.773764 0.273499 -2.44344 98 118 105
-0.863264 0.275313 -2.63567 83 112 103
-1.40235 0.312373 -3.78679 210 237 247
-1.49817 0.31752 -3.98416 175 223 227
-1.34136 0.301767 -3.65115 65 91 98
-0.764876 0.25686 -2.40485 126 160 159
-0.712824 0.245815 -2.27144 138 173 163
-1.17405 0.248371 -3.26962 92 123 126
-0.759517 0.222949 -2.36097 104 125 117
-0.507576 0.229136 -1.80173 72 80 73
-0.498418 0.22788 -1.76981 133 163 158
-0.499203 0.222843 -1.77931 171 212 214
-1.64665 0.190571 -4.23552 112 143 144
2.85686 -0.0616846 4.77545 119 161 143
-0.593927 0.196236 -1.95937 126 156 161
-1.08321 0.158941 -3.01757 101 142 135
-5.79588 0.134681 -12.7641 83 130 121
-1.02502 0.146266 -2.87825 109 135 129
-2.74573 0.0852573 -6.47496 114 168 161
-1.00289 0.140493 -2.82755 188 222 222
-1.23902 0.12234 -3.3216 89 123 116
-0.929545 0.134513 -2.65011 112 130 131
2.53951 0.0495502 4.11682 74 102 89
0 0 0 99 139 137
-1.09918 0.0751194 -2.98202 131 186 183
2.167 0.12867 3.34508 104 155 141
-1.65661 -0.0548339 -4.12094 105 132 129
9.05734 0.919308 17.3841 118 155 151
-0.998465 0.0424295 -2.72743 64 90 90
-12.4937 -1.30967 -26.108 69 100 93
-1.36285 -0.10701 -3.43548 48 101 87
2.76631 0.394308 4.57922 117 184 163
-11.7023 -2.11161 -24.3463 88 132 133
-2.38464 -0.360527 -5.53205 72 116 103
-2.75129 -0.437857 -6.28297 86 134 128
-6.79015 -1.22607 -14.4518 84 132 126
-7.03418 -1.47893 -14.8632 76 131 122
-0.894815 -0.0317999 -2.40494 79 144 128
-13.3504 -2.90285 -27.5604 110 167 159
-1.19271 -0.16118 -3.01162 63 115 105
4.37953 1.09359 7.89135 101 143 148
0 0 0 83 137 137
-1.12795 -0.171586 -2.84101 88 144 133
-7.9036 7.44124 -17.1078 101 128 124
-10.6314 9.47772 -22.6728 99 122 117
-16.1735 14.2053 -33.8465 85 134 118
0 0 0 95 131 117
-7.96993 6.9726 -17.4752 94 131 123
-6.33626 5.43367 -14.1898 181 231 221
-11.438 9.4794 -24.5981 86 111 97
0 0 0 153 218 203
0 0 0 165 229 217
0 0 0 100 133 118
0 0 0 94 120 96
0 0 0 84 115 94
0 0 0 150 218 193
16.8947 -11.0815 33.8033 99 135 119
11.3397 -6.87597 22.3854 91 110 93
16.88 -10.2631 33.9203 147 188 180
10.0728 -5.76612 19.8112 85 96 80
10.0362 -5.71819 19.6694 106 127 119
9.18759 -5.07201 17.9502 73 93 81
7.02274 -3.77999 13.4407 50 98 74
6.53039 -3.35159 12.4185 119 192 152
8.13196 -4.10886 15.8162 113 150 142
-0.415398 0.535946 -1.91751 157 217 186
-0.351876 0.450919 -1.73272 106 140 140
-0.394031 0.433393 -1.80045 135 186 189
-1.75539 0.897457 -4.76669 227 241 253
-0.453999 0.418681 -1.91063 108 133 129
-0.677678 0.477159 -2.4102 103 127 125
-0.551732 0.429762 -2.1184 71 91 78
-2.55531 0.915972 -6.39864 72 102 97
-1.68949 0.622541 -4.52571 122 154 167
-3.76071 1.15175 -8.89788 141 209 202
-0.548214 0.368834 -2.05449 112 170 159
-1.8523 0.577212 -4.84227 158 198 196
-0.497829 0.332562 -1.91053 88 100 100
-0.88313 0.389437 -2.76649 98 115 106
-0.555422 0.339475 -2.03548 82 110 97
-0.577108 0.331353 -2.07439 66 80 76
-0.536987 0.321997 -1.97569 199 231 236
-0.601267 0.328242 -2.12591 147 209 195
-0.446504 0.311621 -1.77122 108 113 111
-0.570208 0.32297 -2.03633 144 200 187
-0.66155 0.316578 -2.24354 200 227 224
-0.55763 0.30405 -1.99959 63 61 53
-0.75082 0.310181 -2.42389 116 135 132
-1.05128 0.341109 -3.07961 98 138 133
-0.556677 0.294562 -1.98206 115 172 157
-1.24274 0.360077 -3.49167 146 175 179
-1.38095 0.37608 -3.78747 97 109 113
-0.787447 0.299616 -2.49905 145 177 166
-1.2223 0.344743 -3.43514 216 245 252
-11.7056 1.68185 -25.1636 77 104 95
-1.44732 0.332122 -3.8971 99 111 117
-0.740993 0.271238 -2.36804 203 227 225
-0.770487 0.275025 -2.43617 87 114 104
-1.0693 0.283525 -3.07927 116 132 131
-1.59432 0.317653 -4.19374 114 145 146
-1.44475 0.284145 -3.86526 174 214 226
-0.52748 0.245097 -1.85639 100 113 105
-0.734891 0.223582 -2.29985 67 78 70
-0.750766 0.209136 -2.3172 96 129 125
-0.760825 0.201045 -2.34556 97 135 137
-0.527594 0.216411 -1.82504 100 109 96
-0.588606 0.200821 -1.94821 89 107 100
-1.17825 0.163236 -3.22936 108 149 151
-1.26711 0.152986 -3.40585 94 136 135
-2.69968 0.0962989 -6.39995 106 143 135
-0.913334 0.10691 -2.58521 79 96 92
-3.17244 -0.0850573 -7.29881 99 129 124
-1.51365 -0.0100296 -3.8401 92 103 101
-1.64129 -0.0521452 -4.0948 112 136 134
0 0 0 96 149 139
-1.19016 -0.0282378 -3.09267 83 86 77
-8.66385 -1.57812 -18.2361 93 115 110
0 0 0 112 171 163
-1.63473 -0.268593 -3.96028 56 106 88
0 0 0 89 120 117
