ply
format ascii 1.0
element vertex 1227
property float x
property float y
property float z
property uchar blue
property uchar green
property uchar red
end_header
-0.282487 -0.475003 2.24495 101 127 113
-0.526569 -0.471075 2.23088 110 173 157
-0.285085 -0.47427 2.24584 181 207 201
-0.789666 -0.460982 2.2062 229 240 230
-0.989181 -0.448558 2.15401 149 132 113
-0.753413 -0.460359 2.21205 179 230 223
-0.797669 -0.446433 2.20788 105 148 151
-0.813032 -0.444447 2.2018 246 255 252
-0.744988 -0.445542 2.21467 205 239 229
-1.00939 -0.400287 1.99209 185 180 181
-0.776216 -0.444794 2.21243 178 231 222
-0.760521 -0.437664 2.21416 215 234 219
0.308733 -0.452719 2.29235 95 158 142
-0.853255 -0.427216 2.1932 142 179 177
0.223889 -0.444772 2.28899 111 164 161
0.354806 -0.443571 2.29673 157 191 174
-0.601594 -0.427729 2.23224 81 173 138
-0.846502 -0.418058 2.195 157 196 194
-0.845169 -0.416901 2.19893 98 145 137
-0.291136 -0.425718 2.25213 70 141 124
-0.517719 -0.420615 2.23769 117 180 170
-0.842645 -0.412715 2.19627 155 206 199
-0.828274 -0.412921 2.20285 182 228 229
-0.701214 -0.414967 2.2233 175 231 208
-0.558055 -0.417046 2.23566 165 227 197
-0.50646 -0.415342 2.23754 191 241 237
-0.265333 -0.415731 2.25751 84 159 143
-0.31195 -0.402499 2.25158 216 244 231
-0.500466 -0.398833 2.23739 163 211 199
-0.116522 -0.401586 2.27144 200 237 233
-1.02265 -0.360803 2.05782 208 215 224
-0.846826 -0.374676 2.19814 158 194 194
-0.795475 -0.373926 2.21226 181 233 223
-0.610683 -0.376464 2.23357 110 160 166
-0.603514 -0.374091 2.23548 169 212 215
-0.284806 -0.368295 2.26251 81 147 128
-0.817407 -0.351249 2.21064 134 206 176
0.000167211 -0.360967 2.28921 159 228 218
-0.758386 -0.348351 2.22228 237 255 252
-0.766688 -0.337031 2.22161 159 214 205
-0.483994 -0.331392 2.24982 200 238 238
-0.776999 -0.320041 2.22433 225 251 245
-0.479592 -0.323374 2.2514 92 112 123
-0.569785 -0.32111 2.24593 112 168 163
-0.826756 -0.313399 2.21236 141 204 195
-0.874511 -0.303184 2.19101 165 200 210
-0.831532 -0.299606 2.21237 100 146 147
-0.875603 -0.296385 2.18963 142 171 186
-0.575382 -0.303605 2.24583 168 213 216
0.0138453 -0.310424 2.29638 240 252 252
0.0149674 -0.298998 2.29939 105 150 133
-0.817936 -0.286538 2.21961 139 186 184
-0.683108 -0.287897 2.23523 164 232 221
-0.81909 -0.279504 2.21896 74 128 115
-0.788886 -0.276544 2.2238 67 142 114
-0.831986 -0.274479 2.21096 49 95 76
-0.52289 -0.279244 2.25307 104 155 151
-0.746467 -0.271131 2.23519 105 160 167
-0.739855 -0.264092 2.23269 169 215 203
-0.855939 -0.258811 2.20642 135 194 179
-0.659768 -0.259885 2.24144 113 148 168
-0.849619 -0.250768 2.21117 130 198 181
-1.00421 -0.245535 2.17347 238 226 220
-0.911417 -0.244938 2.18765 157 199 206
-0.921599 -0.241627 2.18594 43 86 75
-0.920618 -0.241759 2.18548 48 92 86
-0.114052 -0.252575 2.29818 83 153 152
-0.934853 -0.237933 2.18401 209 230 228
-0.936911 -0.236817 2.18728 106 138 137
-0.069184 -0.249068 2.29748 247 247 247
-0.967049 -0.235124 2.1804 86 124 96
-0.954143 -0.231372 2.18121 157 202 169
-0.750521 -0.237119 2.23601 178 230 230
-0.727198 -0.235959 2.23921 205 242 240
-0.758608 -0.234005 2.23344 163 221 192
0.305815 -0.241678 2.32839 98 174 150
-0.807042 -0.229354 2.22524 191 233 226
-0.759311 -0.22978 2.23185 157 234 206
-0.873089 -0.223208 2.20705 99 147 121
-0.831651 -0.223963 2.22446 166 211 222
-0.882094 -0.21772 2.20315 73 140 109
-0.982515 -0.214622 2.17853 115 156 135
-0.877346 -0.217288 2.21056 69 128 107
-0.878408 -0.215509 2.20482 157 222 190
-0.819763 -0.211576 2.22582 69 113 120
-0.734012 -0.210822 2.24302 175 219 232
-0.863914 -0.206434 2.21208 159 203 196
-0.946974 -0.201749 2.18256 80 158 117
-0.905996 -0.199086 2.19463 130 186 145
-0.905642 -0.198967 2.19491 121 174 134
-0.930557 -0.195746 2.19109 162 236 194
-0.809952 -0.196624 2.22737 155 212 204
-0.895782 -0.193357 2.20315 127 195 160
-0.896388 -0.193117 2.20384 134 195 161
-0.896714 -0.188111 2.20397 143 228 183
-0.781037 -0.18832 2.23384 108 144 152
-0.965874 -0.183328 2.18818 233 250 237
-0.943995 -0.177747 2.19237 121 178 163
-0.87959 -0.177041 2.21125 115 169 170
-0.940936 -0.169343 2.19345 80 154 118
-0.588849 -0.174871 2.26452 100 145 142
-1.00388 -0.166743 2.18908 172 238 213
-0.572998 -0.167643 2.26588 108 173 164
-0.96828 -0.154849 2.18876 75 136 92
-0.723849 -0.160025 2.25093 79 141 127
-0.150138 -0.155849 2.30884 86 147 133
-0.85915 -0.147843 2.22826 209 236 250
-0.899505 -0.14612 2.21806 133 198 176
-0.343032 -0.151649 2.29162 179 232 229
0.472324 -0.154466 2.35366 100 171 151
-0.850086 -0.143879 2.22974 168 216 218
-0.893489 -0.142202 2.22146 70 138 115
-0.275425 -0.142088 2.30092 229 252 247
-0.859906 -0.124169 2.23326 171 228 227
-0.733583 -0.125222 2.25668 82 135 126
-0.643907 -0.12517 2.26825 86 144 133
-0.207561 -0.127065 2.30925 70 129 115
-0.228289 -0.126004 2.30349 81 137 118
-0.0903749 -0.125944 2.31899 181 220 228
-0.0887292 -0.124627 2.32028 123 171 177
-0.766773 -0.116693 2.24807 83 129 140
-0.429941 -0.118949 2.28592 99 154 161
-0.881409 -0.107361 2.23277 103 174 154
-0.939494 -0.104223 2.22654 152 215 199
-0.32545 -0.105446 2.30159 74 131 122
-0.85031 -0.0936427 2.23839 163 216 206
0.253567 -0.099355 2.35075 120 181 171
-0.840994 -0.0920641 2.24185 151 216 194
-0.407241 -0.0945103 2.29271 195 241 235
-0.111605 -0.0950756 2.32175 176 239 223
-0.888662 -0.0903109 2.23505 172 223 219
0.015992 -0.0899062 2.33411 157 220 204
-0.737839 -0.0853368 2.26353 56 140 98
-0.863934 -0.0831482 2.23643 86 127 120
-0.271002 -0.0865223 2.31268 209 248 240
-0.2668 -0.0774394 2.31375 228 247 244
-0.354057 -0.0734487 2.30064 107 151 150
-0.899901 -0.0658905 2.23171 158 206 200
-0.342829 -0.0578339 2.30452 78 141 121
-0.727866 -0.0559527 2.27128 88 175 142
-1.0798 -0.0488618 2.22326 183 226 223
-0.91677 -0.0473626 2.23464 167 213 221
-1.07268 -0.0438171 2.22292 95 149 144
-0.659508 -0.0457546 2.28061 87 158 141
-0.80562 -0.0409206 2.26421 127 190 174
-0.586484 -0.0421613 2.28961 101 167 155
-0.497647 -0.0398124 2.29679 82 162 145
-0.478109 -0.0368263 2.30032 110 169 178
-0.0382402 -0.0378009 2.33928 76 144 127
-0.658396 -0.0350134 2.28459 170 223 226
-0.248847 -0.031058 2.3217 241 254 255
-0.73479 -0.0266437 2.27346 66 131 132
-0.867911 -0.0250262 2.25021 83 129 137
-0.842016 -0.0247892 2.25915 93 139 157
-0.311446 -0.0263641 2.31635 216 241 245
0.510617 -0.0277547 2.37968 87 164 136
-0.435912 -0.0236583 2.30482 89 163 159
-1.03824 -0.0177555 2.23289 149 203 186
-0.978148 -0.017285 2.2367 129 191 177
-0.815888 -0.0164617 2.26563 91 161 144
-0.363589 -0.0156404 2.31271 247 255 253
-1.07857 -0.0108966 2.22842 194 228 227
-0.459552 -0.0120283 2.3085 102 175 153
-0.813934 -0.0101255 2.26454 68 139 129
-0.398899 -0.0102164 2.31107 107 153 171
-0.465291 -0.00893287 2.3088 116 185 172
-1.03009 -0.00214338 2.23377 183 242 214
-0.852699 0.00309094 2.25745 133 219 189
-0.814081 0.0078543 2.26928 165 237 224
0.152123 0.00987592 2.36578 94 165 149
-0.610903 0.0154145 2.30032 78 138 130
-0.842486 0.0160144 2.26311 163 231 206
-0.943501 0.0170638 2.24616 156 201 212
-0.711702 0.0175111 2.28498 91 157 145
-0.519949 0.0226842 2.30935 197 231 225
-0.630904 0.0232671 2.29736 175 241 222
-0.525182 0.0283493 2.31005 87 145 140
-1.10552 0.0283998 2.23465 149 195 173
-1.11765 0.0315305 2.23074 89 145 122
-1.1175 0.0318521 2.2314 79 137 113
-0.717871 0.0332276 2.28491 130 199 188
-1.11128 0.0326847 2.2333 125 177 154
-0.66223 0.0333161 2.29411 77 151 117
-0.451098 0.0336315 2.31914 170 234 238
-0.758627 0.0418356 2.28229 166 225 217
-0.514826 0.0460244 2.31503 252 254 254
-0.787953 0.0473429 2.27728 169 233 204
-0.749202 0.0479103 2.2816 174 236 222
-0.610261 0.0481814 2.30238 135 194 173
-0.774807 0.0484026 2.27946 65 138 116
-0.535829 0.0505619 2.31195 85 164 137
-0.50393 0.0498011 2.31303 214 237 232
-0.735362 0.0544526 2.28475 144 206 194
-0.83465 0.0545491 2.26964 183 202 205
-0.835767 0.0586265 2.26963 184 218 217
0.25018 0.0618405 2.38624 84 156 133
-0.120085 0.0651645 2.35358 92 161 134
-0.637996 0.0740335 2.3056 92 153 139
-0.274836 0.0789872 2.34526 92 157 131
-0.569991 0.0801031 2.31516 160 227 206
-0.232528 0.0814617 2.35062 155 218 192
-0.632674 0.0826812 2.30919 153 213 205
-0.828875 0.0857478 2.27822 216 245 242
-0.429872 0.0901396 2.32888 91 144 141
-0.812032 0.089097 2.27896 222 245 240
0.253182 0.0943857 2.3944 81 166 134
-0.19894 0.0963956 2.35409 82 149 122
-0.385689 0.107818 2.33662 163 243 220
-0.802215 0.108727 2.28347 195 234 232
0.384425 0.113733 2.40516 98 167 154
-0.875468 0.110975 2.27708 234 255 248
-0.309383 0.114496 2.34857 77 152 120
-0.118302 0.115522 2.36503 104 166 154
-0.878493 0.116262 2.2767 148 221 189
-0.65506 0.121242 2.30963 66 135 120
-0.922457 0.121361 2.27328 183 231 219
-0.366711 0.124124 2.33958 65 140 132
-0.531457 0.127194 2.32878 255 255 255
-0.725392 0.129505 2.29746 74 156 134
0.286324 0.137728 2.4043 82 146 127
0.561191 0.138454 2.42236 75 134 119
-0.999074 0.134304 2.2691 249 255 254
-0.691964 0.136599 2.30459 153 221 204
-0.484478 0.140737 2.33578 60 121 117
-0.412273 0.142641 2.34008 57 127 126
-0.947921 0.140499 2.27721 248 253 254
-0.436877 0.144435 2.33975 77 147 134
-0.713716 0.142833 2.29982 84 141 138
-0.490069 0.144263 2.33606 212 245 248
-0.748805 0.143371 2.29523 145 242 208
-0.746706 0.146889 2.29573 57 130 134
-0.843676 0.146978 2.28431 156 219 209
-0.326843 0.152137 2.35435 103 170 141
-0.939548 0.149382 2.2772 91 115 113
-0.538521 0.154988 2.33299 108 148 166
-0.351886 0.158554 2.35054 101 165 153
-0.982421 0.158748 2.27672 190 236 230
-0.619505 0.162649 2.32719 71 143 123
-0.47194 0.166444 2.34147 155 221 202
-0.648092 0.167212 2.32338 76 145 124
-0.320872 0.186499 2.36253 87 154 145
-0.863335 0.182699 2.29165 210 254 255
-0.86286 0.182873 2.29194 215 255 252
-0.515655 0.186295 2.34005 74 136 122
-1.1817 0.187368 2.25706 140 204 185
-0.476644 0.193522 2.34923 105 169 150
-0.573724 0.204122 2.33704 69 139 109
0.355239 0.213289 2.42591 78 136 111
-1.01142 0.20458 2.27727 191 231 226
0.348704 0.217192 2.42603 151 206 179
-0.641535 0.210007 2.32942 91 165 129
0.0322793 0.216766 2.39944 90 151 137
-0.316159 0.216455 2.37016 77 132 117
-0.547639 0.216593 2.34288 96 158 146
-1.19822 0.214087 2.25957 76 102 96
0.33564 0.228465 2.42811 164 209 192
-1.19873 0.214292 2.25997 58 80 75
-0.990456 0.221358 2.28548 129 163 146
-0.520039 0.234247 2.34966 104 139 135
0.17512 0.243472 2.41376 101 152 138
0.217409 0.248457 2.42187 137 210 184
-0.897638 0.238662 2.30055 175 214 198
0.257807 0.254977 2.42639 149 218 191
-0.218177 0.254118 2.38836 137 205 180
-0.070505 0.260951 2.39601 68 135 114
-0.501452 0.260843 2.35722 62 129 98
0.269756 0.270749 2.42676 164 230 195
-0.507956 0.265225 2.35531 163 233 203
-0.264258 0.268167 2.38598 66 134 111
0.0384807 0.271815 2.41059 105 158 148
-0.515232 0.266735 2.35445 53 115 85
-0.0852719 0.273502 2.39832 90 153 143
0.232701 0.286638 2.43127 156 253 243
-0.351942 0.28244 2.38336 83 145 121
-0.450962 0.286021 2.36923 171 231 201
-0.0231009 0.296864 2.40791 88 155 124
-0.0363212 0.328352 2.41847 95 160 145
-0.657851 -0.876064 2.18098 137 188 190
-0.535335 -0.806286 2.19262 86 141 132
0.0857782 -0.817068 2.23284 87 180 153
-0.838335 -0.765944 2.16617 70 112 101
-0.605015 -0.745967 2.19632 195 247 240
-0.684751 -0.724143 2.1919 82 158 124
-0.56408 -0.711165 2.20429 152 190 190
-0.258804 -0.716756 2.22044 77 150 134
-0.556587 -0.703666 2.20423 202 253 255
-0.717206 -0.697671 2.19104 235 255 254
-0.692208 -0.692967 2.19365 92 149 128
-0.820256 -0.682896 2.1772 72 126 103
-0.780204 -0.68457 2.1847 83 146 120
-0.84426 -0.678646 2.1698 121 126 111
-0.667406 -0.6772 2.20025 67 149 126
-0.77529 -0.668257 2.18864 69 141 119
-0.666068 -0.671987 2.1983 87 161 143
0.060868 -0.657608 2.25226 103 179 155
-0.834326 -0.634112 2.1809 78 132 103
-0.801303 -0.636456 2.18553 191 255 226
-1.28308 -0.610053 2.13649 126 149 151
-0.79403 -0.612442 2.18896 89 144 125
-0.807556 -0.610146 2.18649 78 132 119
-0.652952 -0.601556 2.20673 100 165 150
-0.689268 -0.599959 2.2038 87 165 142
-0.477082 -0.603168 2.21807 104 173 153
-0.699625 -0.594649 2.2013 92 155 139
-0.369671 -0.591881 2.22512 85 155 142
-0.320917 -0.579203 2.22635 222 246 238
-0.747295 -0.561377 2.19944 78 149 129
-0.271331 -0.566133 2.23588 82 154 134
-0.583535 -0.553096 2.21543 218 249 250
-0.97553 -0.531967 2.14755 135 117 100
-0.833387 -0.541242 2.18889 168 217 197
0.143852 -0.561172 2.26842 226 255 252
-0.831722 -0.537086 2.18976 130 183 163
-0.541558 -0.539275 2.21821 255 255 254
-0.516016 -0.537158 2.22413 204 250 255
-0.765697 -0.528617 2.20164 241 255 251
-0.759935 -0.527508 2.2003 212 235 220
-0.797366 -0.523391 2.19682 185 244 216
-0.752354 -0.523606 2.20301 87 137 125
-0.843939 -0.517784 2.18387 70 109 84
-0.798771 -0.520576 2.19715 90 136 113
-0.790334 -0.511168 2.20032 200 246 217
-0.802841 -0.509535 2.20109 166 217 203
-0.306635 -0.511898 2.23873 124 193 173
-0.778738 -0.501641 2.20462 143 209 174
-0.781691 -0.498809 2.20141 133 176 155
0.167248 -0.51427 2.27509 90 171 144
-0.284305 -0.487394 2.24635 217 255 252
-0.788446 -0.475175 2.20754 205 243 231
-0.574844 -0.476547 2.22846 73 147 123
-0.723487 -0.469472 2.21287 166 236 213
-0.617312 -0.466163 2.22723 92 156 126
-0.687259 -0.463064 2.22117 140 203 183
-0.989209 -0.44855 2.15405 149 132 113
-1.60641 -0.701681 3.41507 189 203 202
-0.860013 -0.449085 2.18865 52 64 58
-0.517732 -0.452585 2.23401 119 188 178
-0.498854 -0.445746 2.23518 216 255 252
-0.762222 -0.435652 2.21344 132 159 155
-0.810554 -0.433532 2.20386 86 120 110
-0.85419 -0.421687 2.19173 57 77 72
0.352852 -0.443019 2.29652 166 219 199
-0.826464 -0.420663 2.19818 78 124 112
-0.517672 -0.420639 2.23759 117 180 170
0.0945079 -0.428385 2.28418 104 168 149
-0.85092 -0.408015 2.19451 72 97 93
-0.846992 -0.408047 2.19682 148 202 202
-0.814598 -0.410406 2.20561 171 228 220
-0.562325 -0.414253 2.23302 234 254 249
-0.776198 -0.404969 2.21621 205 243 237
-0.313652 -0.409425 2.24944 163 199 193
-0.753207 -0.400066 2.21895 98 156 132
-0.309831 -0.407403 2.25223 72 114 103
-0.850143 -0.395425 2.19564 188 220 231
-0.852771 -0.382812 2.19222 91 126 129
-0.820556 -0.37965 2.20761 229 255 249
-0.795853 -0.374627 2.2126 177 233 222
-0.528187 -0.377098 2.24253 85 159 129
0.550452 -0.381122 2.31735 106 179 147
-0.768198 -0.352014 2.22012 153 195 200
-0.824408 -0.348952 2.20766 156 225 205
-0.761733 -0.351801 2.22241 123 158 171
-0.864044 -0.342353 2.19127 143 205 183
-0.749926 -0.340449 2.22354 85 133 134
0.0315866 -0.350623 2.29209 96 181 161
-0.856367 -0.330324 2.19586 147 197 203
-0.484611 -0.331678 2.25029 197 238 241
0.175522 -0.334775 2.30395 102 180 156
-0.502101 -0.317914 2.25049 79 128 136
-0.874568 -0.308134 2.18914 128 160 159
-0.512039 -0.317215 2.25097 89 151 145
0.0403878 -0.316494 2.29941 162 224 212
-0.829234 -0.29839 2.21302 153 210 201
-0.730269 -0.299983 2.23304 203 240 236
-0.80762 -0.286084 2.22076 100 155 146
-0.760841 -0.286468 2.22956 186 228 241
-0.809922 -0.283689 2.22117 160 216 205
-0.86642 -0.277427 2.19987 88 120 125
-0.882858 -0.255469 2.19496 155 185 202
-0.73762 -0.260262 2.23326 54 99 83
-0.990388 -0.250249 2.17609 250 255 255
-0.261619 -0.260855 2.28068 86 160 130
-0.905865 -0.248422 2.18984 172 218 226
-0.996789 -0.245427 2.17587 226 228 228
-0.133636 -0.259396 2.29143 89 154 138
-0.900346 -0.244727 2.18991 71 109 87
-0.842381 -0.246016 2.21474 56 102 89
-0.714631 -0.248851 2.24166 145 209 197
-0.244708 -0.254113 2.28374 99 173 155
-0.989834 -0.238574 2.17777 252 254 254
-0.673031 -0.246426 2.24423 219 243 241
-0.964583 -0.237713 2.18065 160 215 190
-0.951851 -0.236673 2.18428 88 142 125
-0.63809 -0.244276 2.24793 107 157 169
-0.527749 -0.24046 2.25792 109 163 158
-0.931157 -0.227666 2.18667 107 140 133
-0.874187 -0.221692 2.20127 54 106 69
-0.830041 -0.223741 2.22226 175 217 230
-0.284396 -0.230028 2.28192 180 233 236
-0.974762 -0.219129 2.17904 132 200 159
-0.965043 -0.216659 2.17903 153 229 195
-0.899928 -0.218367 2.19458 146 214 183
-0.726204 -0.223776 2.24302 221 254 250
-0.982765 -0.214444 2.17903 109 149 131
-0.871282 -0.218083 2.20666 143 199 188
-0.844956 -0.216659 2.2191 128 160 166
-0.971518 -0.211635 2.18007 164 234 203
-0.813478 -0.213433 2.22803 194 230 240
0.587008 -0.222779 2.34517 93 154 126
-0.102399 -0.217434 2.30108 143 203 193
-0.992987 -0.204252 2.18025 254 254 254
-0.912809 -0.200445 2.18917 132 231 181
-0.912782 -0.2004 2.18929 125 224 174
-0.886577 -0.195186 2.20525 150 212 182
-0.880254 -0.180288 2.05076 61 102 71
-0.843239 -0.193852 2.22651 84 130 137
-0.989365 -0.189058 2.1825 119 173 150
-0.945317 -0.187579 2.18583 86 158 122
-0.0905259 -0.197483 2.3038 251 255 252
-0.875763 -0.182606 2.21104 99 145 152
-0.747629 -0.172051 2.24255 63 93 94
-0.977041 -0.153497 2.19024 151 240 200
-0.318259 -0.16194 2.29276 100 164 159
-0.345662 -0.158019 2.28915 67 118 121
-0.822506 -0.151406 2.23481 250 255 253
-0.354469 -0.153352 2.2904 209 246 255
-0.858941 -0.147915 2.22806 209 236 250
-0.950968 -0.14423 2.19937 89 155 136
-0.861246 -0.144535 2.22736 120 154 178
-0.776716 -0.129671 2.24194 82 126 120
0.302014 -0.13593 2.34766 104 180 156
-0.709593 -0.128656 2.25758 173 232 218
-0.666787 -0.127671 2.26359 89 165 131
-0.0305895 -0.131623 2.32363 108 166 155
-0.149769 -0.130629 2.31494 162 227 206
-0.776889 -0.124389 2.24302 88 145 147
-0.823608 -0.119685 2.23807 229 251 249
-0.735603 -0.11747 2.25605 85 168 130
-0.939651 -0.108797 2.22556 154 211 203
-0.601826 -0.108385 2.27706 160 215 228
-0.341973 -0.107197 2.29544 254 255 251
-0.0855967 -0.105538 2.3226 244 255 255
0.358076 -0.105511 2.35831 157 211 198
-0.271999 -0.101586 2.30694 132 185 176
-0.8506 -0.0929506 2.23883 176 223 214
-0.840994 -0.0920641 2.24185 151 216 194
-0.935434 -0.0883053 2.22839 105 143 148
-0.925333 -0.0862628 2.23316 104 150 157
-0.737787 -0.0855073 2.26311 56 140 98
-0.841367 -0.0823159 2.24588 86 121 131
-0.829702 -0.0801092 2.24994 235 255 255
-0.964157 -0.0762125 2.22741 102 130 124
-0.990042 -0.0747641 2.22523 102 149 140
-0.733969 -0.075795 2.26347 87 151 129
0.507671 -0.0782893 2.37122 88 163 142
-0.129237 -0.0704378 2.32678 96 141 124
0.298177 -0.0709849 2.36295 115 159 128
0.128647 -0.068161 2.34968 93 168 140
0.304503 -0.0674296 2.36135 158 222 203
-0.532791 -0.0633816 2.29154 232 252 247
-0.231539 -0.0583265 2.31712 120 178 173
-0.823053 -0.0556339 2.25729 74 111 109
-0.524903 -0.0493224 2.29216 75 136 122
-0.268606 -0.0475778 2.31693 173 242 239
0.54692 -0.0484582 2.38138 90 179 153
-0.924265 -0.0398451 2.23518 94 150 161
-1.08456 -0.0371851 2.21972 195 232 236
-0.814308 -0.0389466 2.25942 142 208 179
0.206482 -0.0388035 2.36102 98 153 136
-1.18064 -0.0304372 2.22042 211 246 250
0.451911 -0.0341634 2.38025 99 174 152
0.197681 -0.0303042 2.36171 160 236 205
-1.10245 -0.0237892 2.2219 170 199 203
-0.905036 -0.0218313 2.24192 124 168 181
-1.2173 -0.0182401 2.21973 176 231 214
-1.10207 -0.0175096 2.22151 143 174 177
-0.816115 -0.0164086 2.26559 91 161 144
-0.764832 -0.0157524 2.27259 243 255 254
-1.06746 -0.0116449 2.23038 83 126 111
0.452151 -0.01229 2.38209 91 169 145
-0.815236 -0.00984304 2.26537 54 127 117
-0.72746 -0.0090207 2.27432 96 150 137
-1.06771 -0.00725051 2.23228 181 224 209
-0.376995 -0.00500044 2.31085 248 255 255
-0.802868 -0.000826251 2.27173 193 229 223
-0.853363 0.00292208 2.2582 129 214 186
-0.655701 0.00670408 2.292 86 132 140
-0.823018 0.0109861 2.26775 51 105 82
0.567469 0.0121748 2.39365 102 192 163
-0.29617 0.0134262 2.32638 194 237 228
-0.842201 0.0159406 2.26293 163 233 203
-0.949681 0.0167515 2.24398 157 223 211
-0.711701 0.0175108 2.28498 91 157 145
-0.34089 0.0171939 2.31958 54 113 99
-0.99184 0.0210494 2.24695 230 253 248
-0.608853 0.0203857 2.29826 56 108 98
0.241941 0.0229671 2.37666 99 175 151
-0.220872 0.0272385 2.3362 215 246 239
-1.11756 0.0319103 2.23153 79 137 113
-0.821016 0.0365458 2.27372 255 254 255
-0.594869 0.0373263 2.3048 158 228 197
-0.35126 0.0361966 2.32137 55 131 107
-0.452936 0.0390179 2.31867 69 127 109
-0.837468 0.0396833 2.27046 193 188 189
-0.721768 0.0446327 2.28294 162 230 199
-1.10487 0.0442206 2.23685 96 138 121
-0.724967 0.0454882 2.28184 99 172 140
-0.51503 0.0461555 2.31534 245 250 249
-0.535466 0.0503833 2.31153 72 153 128
-0.759532 0.0526289 2.27941 89 165 141
0.186988 0.0569372 2.38052 87 155 132
-0.836385 0.0588849 2.27022 197 229 234
-0.783139 0.0610225 2.27899 133 164 157
-0.415518 0.0631091 2.32513 122 171 187
-0.308545 0.0661044 2.33742 84 146 110
-0.287528 0.066726 2.34114 103 173 133
-0.63784 0.0737141 2.30492 83 145 129
-0.480842 0.0741439 2.32313 223 244 245
-0.448685 0.0737781 2.32709 88 153 138
-0.501633 0.076808 2.32205 248 255 255
-0.624492 0.0766178 2.30952 85 128 119
-0.492622 0.0814325 2.32042 248 255 252
-0.403576 0.081704 2.32887 89 134 145
-0.265579 0.0857394 2.34778 83 140 119
-0.355126 0.090298 2.33741 81 155 143
-0.222473 0.0923619 2.35404 58 137 104
-1.19376 0.0894834 2.24247 129 159 148
-1.26283 0.094969 2.23842 178 239 225
-0.395582 0.0993268 2.33332 163 223 222
-0.81093 0.0975688 2.28147 179 227 228
-0.820064 0.098918 2.27817 189 219 230
-1.17815 0.10417 2.24438 184 237 228
-0.385514 0.107648 2.33625 163 243 220
-0.24825 0.109267 2.35411 67 141 117
-0.337968 0.112779 2.34329 165 225 201
-0.309494 0.114519 2.34862 77 152 120
-1.01429 0.115006 2.2634 177 214 210
-0.814333 0.117902 2.2832 121 131 115
-0.635748 0.122238 2.31527 79 138 117
0.53311 0.127548 2.41748 98 169 149
-0.135054 0.126674 2.36704 152 225 193
0.449086 0.128817 2.41663 97 171 143
-1.00855 0.122801 2.26703 180 234 221
-0.701863 0.126767 2.30355 99 163 151
-0.672617 0.132044 2.30947 169 226 218
-0.489958 0.140452 2.33412 48 119 122
-0.994015 0.139302 2.27054 232 255 255
-1.19548 0.140709 2.24798 184 229 220
-0.680658 0.142949 2.30853 110 164 187
-0.657617 0.147316 2.31403 89 143 154
-0.784353 0.146623 2.29137 80 137 129
0.648181 0.158727 2.43343 84 147 115
-0.655755 0.159085 2.3158 94 146 152
-0.469108 0.163824 2.34051 96 166 153
-0.808574 0.167682 2.29172 111 166 187
-0.464287 0.175343 2.34521 84 149 134
-0.651722 0.181526 2.32331 61 123 107
-0.352049 0.191061 2.35808 108 171 145
-0.706923 0.187626 2.31132 207 233 239
-0.68967 0.190886 2.31969 77 132 123
-1.18143 0.187128 2.2566 140 204 185
-0.684895 0.192582 2.32074 94 154 144
-0.408516 0.199857 2.35404 70 132 114
0.144184 0.204724 2.40937 89 138 116
0.127686 0.206528 2.40571 88 168 137
0.399988 0.21156 2.42991 75 156 129
-0.780496 0.202582 2.3035 73 141 130
-1.01151 0.204624 2.27736 191 231 226
-0.964513 0.206276 2.28804 203 239 247
-0.0217141 0.215097 2.39177 79 141 123
-0.98187 0.208932 2.28273 103 156 143
-0.316164 0.216456 2.37017 77 132 117
-0.421716 0.2166 2.35847 91 148 133
0.33901 0.223396 2.42729 146 205 190
-1.16297 0.212676 2.26345 66 86 73
-0.999041 0.214478 2.28427 180 224 211
-0.421927 0.222122 2.36073 81 153 133
-0.558422 0.224269 2.34262 73 145 123
0.768183 0.235256 2.45635 127 172 163
-1.11543 0.220638 2.26602 131 167 143
0.252887 0.238889 2.42517 150 232 203
-0.873653 0.22768 2.3003 84 136 113
-0.512726 0.247708 2.35328 66 123 114
0.0950802 0.25372 2.40711 45 112 81
0.225309 0.256469 2.42524 150 213 197
-0.218606 0.253363 2.38655 143 214 188
-0.828137 0.250118 2.31018 153 199 176
-0.689667 0.256576 2.32871 141 188 172
-0.512347 0.258957 2.35358 45 98 78
0.0598839 0.269453 2.41387 156 223 191
0.0277816 0.281226 2.41061 167 237 220
-0.274095 0.282217 2.38961 235 255 250
0.236544 0.291986 2.4316 70 138 97
-0.129477 0.314952 2.41078 94 170 139
-0.0504408 -0.934152 2.21221 94 158 129
-0.222232 -0.920003 2.19652 122 172 160
-0.692445 -0.884903 2.17901 70 146 128
-0.786256 -0.869774 2.1676 231 255 253
0.10349 -0.89056 2.22724 97 172 158
-0.979145 -0.848187 2.12941 143 136 127
-0.117508 -0.878749 2.21247 106 178 155
-0.217869 -0.868963 2.206 248 255 255
-0.63417 -0.857984 2.18338 196 245 243
-0.493097 -0.857799 2.19056 131 184 204
-0.423227 -0.849901 2.19469 107 172 170
-0.364031 -0.849584 2.19544 216 251 254
-0.80803 -0.836225 2.16657 88 152 117
-0.841878 -0.819633 2.16031 80 119 93
-0.820005 -0.820774 2.16493 79 136 115
-0.678306 -0.822222 2.18469 76 156 133
-0.314448 -0.814882 2.20593 101 161 150
-0.535129 -0.807068 2.19279 87 140 131
0.1056 -0.822349 2.23553 101 180 161
-0.466799 -0.806132 2.19592 98 161 152
-0.948773 -0.776676 2.13284 128 112 89
-0.562588 -0.79604 2.19471 210 251 244
-0.791627 -0.786075 2.17056 82 145 119
-0.588072 -0.793787 2.19521 228 255 255
-0.535753 -0.791116 2.19471 98 170 148
-0.838652 -0.774175 2.16079 48 80 63
-0.145651 -0.796028 2.22137 222 255 253
-0.817262 -0.7746 2.16959 80 135 118
-1.14808 -0.855838 2.4523 203 216 218
-0.960178 -0.743763 2.13364 121 100 78
-0.83208 -0.755906 2.16715 61 99 87
-0.628955 -0.764503 2.19462 93 154 126
-0.437514 -0.76548 2.20124 107 168 154
-0.557317 -0.758336 2.19928 98 164 153
-0.843807 -0.737435 2.16194 99 121 103
-0.721721 -0.742552 2.18604 209 242 215
-0.535283 -0.747139 2.19861 113 178 163
-0.76076 -0.7357 2.18329 184 236 206
-0.834743 -0.727143 2.1709 66 89 67
-0.6847 -0.723964 2.19319 84 154 123
0.194137 -0.741652 2.24831 109 178 163
0.0432217 -0.727469 2.24064 103 170 139
-0.73707 -0.706707 2.18731 156 221 195
-0.378884 -0.714271 2.21229 87 151 139
-0.56347 -0.711191 2.20431 145 187 186
0.138341 -0.722713 2.24851 96 178 165
-0.80565 -0.697223 2.18117 153 221 198
-0.572224 -0.702902 2.20331 119 171 164
-0.556515 -0.703591 2.20473 202 253 255
-0.717066 -0.697744 2.19052 235 255 254
-0.562209 -0.70271 2.20552 114 170 157
-0.783328 -0.691453 2.18381 97 169 146
-0.731615 -0.681727 2.19094 236 255 251
-0.606324 -0.682217 2.20333 180 238 233
-0.683316 -0.67895 2.1989 77 140 100
-1.29778 -0.654956 2.12447 183 241 240
-0.83545 -0.672056 2.17811 67 83 66
-0.426811 -0.678596 2.2098 116 177 157
-0.822761 -0.659938 2.1809 89 149 131
-0.348151 -0.670092 2.21653 109 185 167
-0.835522 -0.655059 2.1783 159 218 203
-0.740972 -0.657404 2.19298 84 145 131
-0.764422 -0.647329 2.18819 81 145 123
-0.637296 -0.647561 2.20472 67 149 120
-0.892833 -0.633678 2.15923 111 103 74
-0.816214 -0.63834 2.18259 83 123 111
0.119347 -0.655154 2.25552 111 180 170
-0.822165 -0.623355 2.18365 68 115 99
-0.580261 -0.627983 2.21046 86 157 140
-0.832023 -0.619225 2.18339 58 92 75
-0.689046 -0.619693 2.20268 77 143 124
-0.795678 -0.612465 2.19045 85 140 123
-0.823751 -0.606805 2.18534 96 143 127
-0.518787 -0.616778 2.21654 100 174 162
-0.585401 -0.613306 2.21112 173 233 225
-0.947865 -0.593224 2.14897 127 116 86
-0.931013 -0.587197 2.1527 94 85 65
-0.888126 -0.588385 2.16028 129 109 68
-0.652976 -0.601484 2.20711 100 165 150
-0.890791 -0.584113 2.16046 127 102 62
-0.397184 -0.595319 2.22387 92 155 139
0.123442 -0.602162 2.26475 101 175 163
-0.842873 -0.569037 2.17709 108 145 119
0.485809 -0.596134 2.28033 216 250 243
-0.321591 -0.57992 2.2271 221 251 246
-0.612271 -0.575813 2.21473 85 142 121
0.243762 -0.589345 2.26844 170 240 227
-0.840057 -0.56527 2.18395 187 230 217
-0.847883 -0.560127 2.17605 107 157 125
-0.725875 -0.56702 2.20058 158 229 189
-1.08512 -0.592686 2.30361 210 214 209
-0.772236 -0.565055 2.19976 91 159 136
-0.824693 -0.557711 2.18771 85 135 111
-0.816923 -0.558861 2.19283 80 141 113
0.201324 -0.574401 2.26885 217 255 248
-0.844427 -0.550287 2.1804 93 141 113
0.103414 -0.563302 2.26721 94 170 152
-0.975077 -0.531652 2.14706 121 101 84
0.144562 -0.560881 2.26821 233 255 252
-0.806288 -0.537976 2.19473 253 255 255
0.151343 -0.557304 2.26844 224 252 252
-0.704963 -0.537791 2.2063 84 161 140
-0.542013 -0.539104 2.21908 255 255 254
-0.581461 -0.538781 2.22022 167 242 234
-0.505438 -0.539171 2.2247 173 234 224
-0.819675 -0.529423 2.1909 142 199 174
-0.786902 -0.531323 2.19871 220 254 253
-0.770872 -0.530002 2.2022 180 226 213
-0.557739 -0.534605 2.22436 106 179 177
-0.591045 -0.532451 2.22061 75 150 129
-0.566296 -0.532274 2.22245 228 255 255
-0.761341 -0.526886 2.20326 210 239 213
-0.779009 -0.525335 2.20168 85 114 99
-0.592411 -0.528405 2.22226 163 237 203
-0.569189 -0.529187 2.22275 189 240 243
-0.848891 -0.514188 2.18149 134 191 166
-0.844069 -0.513472 2.18436 80 119 94
-0.797709 -0.516919 2.19384 100 148 122
-0.832962 -0.512312 2.18767 66 106 95
-0.827064 -0.513978 2.1924 165 215 213
-0.739296 -0.513082 2.20678 116 161 134
-0.789113 -0.51133 2.19927 192 242 212
-0.741441 -0.512932 2.20569 106 155 127
-0.607946 -0.516491 2.22116 86 155 140
-0.710083 -0.506504 2.21279 96 160 138
0.0732731 -0.521123 2.26978 106 183 169
-0.519101 -0.50913 2.22832 137 195 200
-0.697803 -0.50164 2.21277 62 126 107
0.167714 -0.514397 2.27486 90 171 144
-0.775286 -0.494564 2.20338 98 144 152
-0.694945 -0.496812 2.21581 90 158 133
-0.562144 -0.499247 2.22346 240 255 253
-0.846198 -0.490256 2.18923 88 128 126
-0.785665 -0.492102 2.20072 213 241 242
-0.769401 -0.492579 2.20305 202 236 242
-0.813431 -0.490442 2.19845 105 149 132
-0.952127 -0.476982 2.15543 135 110 78
-0.696172 -0.49014 2.21548 69 144 112
-0.769523 -0.486852 2.20659 253 255 255
-0.4842 -0.490584 2.22739 90 161 135
-0.508486 -0.490949 2.23025 242 255 255
-0.771889 -0.483013 2.20644 112 158 146
-0.484909 -0.489703 2.23122 83 149 124
-0.500433 -0.486715 2.22904 99 156 147
-0.78667 -0.47987 2.20478 99 152 139
-0.85565 -0.47453 2.18736 90 122 121
-0.753153 -0.478455 2.20694 228 252 250
-0.848152 -0.470667 2.19318 109 136 132
-2.12585 -0.755388 3.5444 132 146 152
-0.503506 -0.475968 2.22985 114 180 175
-0.846756 -0.466318 2.19202 151 208 210
-0.641263 -0.471519 2.22328 166 240 204
-0.55647 -0.473145 2.22878 238 255 254
-0.800399 -0.46212 2.20492 250 254 255
-0.84879 -0.456676 2.19116 87 125 119
-0.825108 -0.459299 2.19937 190 240 230
-0.806717 -0.460198 2.20306 122 162 157
-0.828895 -0.457131 2.19895 86 136 134
-0.753573 -0.459353 2.21193 193 233 228
-0.482832 -0.458004 2.23415 98 139 131
-0.773143 -0.449936 2.21259 188 240 217
-0.815037 -0.444751 2.20169 242 255 254
-0.550184 -0.440127 2.23007 74 135 131
0.306405 -0.453151 2.29376 83 142 127
-1.02977 -0.424252 2.16955 210 221 219
-0.551414 -0.437088 2.23233 236 255 252
-0.823459 -0.428439 2.20191 100 148 172
-0.810446 -0.427561 2.20153 86 112 112
-0.765914 -0.430082 2.21528 86 141 132
-0.840925 -0.422365 2.20304 147 198 191
-0.519114 -0.428361 2.2347 213 251 251
-0.513196 -0.426136 2.23554 233 255 255
-0.846353 -0.41483 2.19496 72 93 94
-0.798629 -0.417785 2.20741 253 255 255
-0.964509 -0.405546 2.15693 115 108 89
-0.509958 -0.418886 2.23669 117 162 153
-0.757479 -0.413757 2.21703 100 153 140
-0.868359 -0.406179 2.18008 145 153 143
-0.849146 -0.406188 2.18934 83 120 116
-0.618771 -0.414766 2.23207 189 234 225
-0.846262 -0.408493 2.19515 150 207 208
-0.833777 -0.407962 2.20129 197 235 229
-0.564317 -0.414763 2.23438 232 254 252
-0.518057 -0.412658 2.23807 173 232 224
-0.307884 -0.414207 2.2516 125 200 179
0.0806446 -0.419394 2.28377 91 153 139
-0.590251 -0.403092 2.23421 83 144 134
-0.823785 -0.396247 2.20464 85 149 137
0.0582532 -0.410504 2.28402 114 183 170
-0.774206 -0.396446 2.21625 209 239 234
-0.63408 -0.395272 2.22983 100 152 142
-0.862259 -0.383976 2.19021 156 178 173
-0.834598 -0.383965 2.20188 65 122 107
-0.813576 -0.384424 2.20948 204 242 244
-0.950571 -0.375699 2.16316 123 112 98
-0.84072 -0.377385 2.199 116 156 154
0.0507437 -0.394608 2.28663 248 255 252
-0.945715 -0.370613 2.16083 137 125 113
-0.846013 -0.371309 2.20091 89 111 109
-0.795494 -0.374519 2.21292 177 229 219
-0.237091 -0.382016 2.264 86 158 146
-0.866613 -0.363784 2.18895 97 146 132
-0.790899 -0.369227 2.21712 143 204 194
0.200375 -0.382897 2.29903 96 164 147
-0.973175 -0.35821 2.16143 126 112 94
-0.569378 -0.359148 2.24003 88 139 132
-0.480756 -0.359692 2.24656 88 160 140
-0.761966 -0.352514 2.2201 118 157 166
-0.244547 -0.361332 2.26684 103 169 157
-0.816764 -0.351027 2.21044 132 203 176
-0.762129 -0.351979 2.22188 132 168 178
-0.830127 -0.347331 2.20657 37 90 76
-0.867924 -0.340751 2.18781 112 169 144
-0.101629 -0.354302 2.28059 104 172 165
-0.749592 -0.340485 2.22338 93 145 145
-0.846733 -0.333387 2.19598 133 178 175
-0.856444 -0.330243 2.19612 147 197 203
-0.144236 -0.34383 2.27926 69 134 125
0.00158325 -0.343453 2.28993 89 145 132
-0.824932 -0.327321 2.21199 209 247 241
0.217973 -0.343397 2.30595 98 169 149
-0.509579 -0.311936 2.25179 200 236 244
-0.846447 -0.303148 2.20444 80 124 125
0.225795 -0.317147 2.31006 208 244 238
-0.8696 -0.290523 2.19628 65 77 77
0.0347779 -0.303941 2.29838 146 208 196
0.441955 -0.304498 2.32628 122 180 169
0.189512 -0.300177 2.3093 82 157 141
-0.761076 -0.286363 2.2299 186 228 241
-0.856826 -0.279416 2.20428 153 206 196
-0.818258 -0.280481 2.21672 83 129 117
-0.725649 -0.277793 2.23447 126 174 186
0.0652157 -0.281721 2.30618 84 140 119
-0.811549 -0.268951 2.22086 161 212 204
-0.751336 -0.26973 2.2353 67 122 107
-0.877559 -0.262009 2.19478 159 187 204
-0.863553 -0.261364 2.20431 77 98 106
-0.751774 -0.263512 2.23237 67 138 105
-0.731477 -0.262862 2.23509 106 156 152
0.040196 -0.269355 2.3063 71 126 107
-0.996531 -0.25224 2.17436 232 240 240
-0.894509 -0.252345 2.18723 63 116 83
-0.716551 -0.258185 2.24162 83 138 141
-0.916269 -0.250667 2.18438 120 151 154
0.029354 -0.264201 2.30289 93 170 149
-0.976353 -0.247763 2.17679 214 250 244
-0.983866 -0.245438 2.17739 82 94 82
-0.789692 -0.252094 2.22514 175 224 232
-0.915863 -0.24546 2.18201 69 83 77
-0.903168 -0.248182 2.18999 164 217 214
-0.881306 -0.247195 2.1972 61 95 89
-0.839094 -0.248852 2.21749 172 209 205
-0.792293 -0.249699 2.2211 99 142 163
-0.926499 -0.242832 2.18717 106 155 139
-0.829387 -0.247082 2.22108 163 215 227
-0.919941 -0.242482 2.18549 71 104 97
-0.11395 -0.254283 2.29572 97 154 151
-0.989961 -0.238671 2.17752 253 255 255
-0.904762 -0.237877 2.18996 75 117 86
-0.965139 -0.235032 2.17867 76 115 93
-0.070503 -0.248817 2.29836 255 255 255
0.310203 -0.24946 2.32775 102 167 151
-0.967252 -0.232907 2.18261 81 149 126
-0.957237 -0.229494 2.18145 92 136 105
-0.943732 -0.230346 2.18691 186 228 233
-0.799555 -0.233627 2.22889 85 145 144
-0.962009 -0.227441 2.18175 181 233 216
-0.704942 -0.232863 2.24149 162 219 216
-0.945948 -0.226153 2.18618 98 148 138
-0.295054 -0.231978 2.27843 86 148 136
-0.975222 -0.218935 2.1796 126 194 153
-0.959612 -0.219516 2.18225 138 214 182
0.458965 -0.237162 2.33806 92 157 141
-0.89896 -0.218328 2.19502 155 228 190
-0.63581 -0.223565 2.25171 91 162 142
-0.261281 -0.227346 2.28443 106 163 164
-0.952582 -0.214765 2.18367 86 153 114
-0.795344 -0.220195 2.22909 80 131 127
-0.888962 -0.215587 2.19779 60 96 66
-0.608581 -0.221466 2.25245 89 152 143
-0.555496 -0.220756 2.25798 97 171 143
-0.121691 -0.225485 2.30032 59 119 101
-0.769423 -0.216306 2.23592 89 125 108
-1.02769 -0.2087 2.17618 192 180 186
-0.844056 -0.215133 2.2217 98 140 152
-0.813016 -0.213931 2.22686 193 228 241
-0.721059 -0.216434 2.24539 112 167 172
-0.917353 -0.2091 2.19026 76 145 100
-0.854878 -0.212154 2.21798 155 195 194
-0.933214 -0.2075 2.18676 128 178 138
-0.819057 -0.211707 2.22548 63 107 114
-0.738185 -0.207372 2.24009 246 253 248
-0.307879 -0.2077 2.28427 212 242 253
-0.717428 -0.201693 2.24745 82 148 153
-0.846372 -0.197121 2.22029 140 191 187
-0.716099 -0.198158 2.24518 175 235 235
-0.935827 -0.190727 2.18693 57 102 83
-0.849942 -0.193861 2.22213 73 116 133
-0.843253 -0.193828 2.22658 84 130 137
-0.989458 -0.1891 2.1824 121 167 148
-1.00139 -0.18651 2.18313 186 203 199
-0.88974 -0.189874 2.20791 78 120 97
-0.927965 -0.185547 2.18772 155 238 193
0.510876 -0.200688 2.34795 122 188 169
0.471976 -0.192851 2.34844 211 245 235
-1.00219 -0.175713 2.18553 139 167 161
-0.997053 -0.174478 2.18738 193 240 231
-0.978591 -0.172788 2.18621 88 157 130
-0.996543 -0.170822 2.18294 93 136 121
-0.0344312 -0.181912 2.31527 106 175 164
-0.919475 -0.169966 2.20376 73 112 104
-0.991899 -0.168114 2.18435 161 219 208
-0.746667 -0.171641 2.24135 63 93 94
-1.00845 -0.165405 2.18442 254 254 254
-1.01117 -0.161334 2.18477 175 202 193
-0.908872 -0.163116 2.20823 171 236 220
1.14955 -0.177572 2.38267 142 235 190
-0.971126 -0.151409 2.19074 181 246 201
-0.813305 -0.152584 2.23582 81 133 123
-1.00475 -0.147354 2.18744 80 118 112
-0.821204 -0.151728 2.23407 248 254 253
-0.149145 -0.155733 2.30979 89 149 138
-0.468715 -0.148403 2.27565 92 140 158
-0.304278 -0.149332 2.29549 59 121 127
0.471895 -0.154722 2.35413 90 157 136
-0.362822 -0.145856 2.29139 117 153 169
-0.735002 -0.139634 2.2496 64 114 96
-0.79187 -0.136075 2.24068 72 119 111
-0.729964 -0.136305 2.25225 78 147 120
-0.324513 -0.138851 2.29758 195 222 226
-0.731655 -0.134965 2.2521 116 190 156
-0.351745 -0.135282 2.2951 99 149 177
-0.16336 -0.136921 2.30988 83 152 131
-0.96685 -0.124807 2.20534 111 154 151
-0.925272 -0.124943 2.21707 106 154 155
-0.819908 -0.126853 2.23947 184 226 231
-0.596531 -0.129013 2.27487 205 244 236
-0.954119 -0.1216 2.20812 95 140 131
-0.287264 -0.126758 2.30152 103 147 160
-0.74296 -0.123172 2.25463 64 116 106
-0.23032 -0.124956 2.30412 148 209 189
-0.838099 -0.119066 2.23168 92 144 127
-0.762562 -0.121378 2.24983 75 98 114
-0.699633 -0.122388 2.26026 69 118 110
-0.363192 -0.124284 2.29133 108 159 169
-0.22156 -0.125031 2.30422 63 108 92
-0.210613 -0.123424 2.30813 165 227 209
-0.735721 -0.117386 2.25627 85 168 130
-0.687563 -0.118622 2.25913 91 138 122
-0.355386 -0.118089 2.29481 115 163 157
-0.8834 -0.1076 2.23212 91 165 141
-0.495545 -0.109509 2.28234 90 157 142
0.360549 -0.111867 2.35666 85 124 116
-0.661023 -0.102729 2.2684 112 168 173
-0.27135 -0.101355 2.30745 130 181 177
-0.832916 -0.0963601 2.24194 54 116 94
-0.808859 -0.0948709 2.2504 91 144 141
-0.283502 -0.0994286 2.30781 235 253 246
-0.755899 -0.0946222 2.25602 91 150 136
-0.247806 -0.0955023 2.31209 68 138 115
-0.876273 -0.0907651 2.23552 90 136 137
-0.935207 -0.0884859 2.22794 105 143 148
-0.769906 -0.0889615 2.2578 153 213 203
-0.925019 -0.086494 2.23259 99 145 153
-0.865766 -0.0836385 2.23739 89 120 113
-1.02586 -0.0760008 2.21968 92 129 133
-0.282293 -0.0803706 2.31288 76 127 129
-0.383546 -0.0788127 2.29571 124 169 180
-1.25209 -0.0719886 2.20683 236 255 253
-0.830895 -0.072466 2.25016 213 244 237
-0.638183 -0.0724309 2.27878 80 138 133
-0.218157 -0.0747458 2.31867 90 155 123
-1.18376 -0.0685623 2.21237 218 255 255
-1.11774 -0.0686395 2.21539 112 167 158
0.160691 -0.0727813 2.35019 90 162 140
1.01089 -0.0733579 2.38884 84 174 138
-1.13668 -0.0645936 2.21634 102 154 144
-0.809134 -0.0646743 2.25851 212 244 239
-1.01311 -0.0609594 2.22302 81 105 93
-0.532511 -0.063211 2.29192 246 255 254
0.475702 -0.0688935 2.37062 119 186 149
-1.1347 -0.0594525 2.21636 241 255 255
-0.529724 -0.0622751 2.28964 255 255 255
-0.379092 -0.06447 2.29826 118 176 175
-1.00857 -0.0551457 2.22566 139 213 179
-0.362169 -0.0574297 2.3 166 229 213
-0.37873 -0.0554723 2.30042 98 155 152
-0.479976 -0.0537605 2.29883 68 125 100
-1.18716 -0.0475989 2.21817 187 236 220
-0.524746 -0.0489736 2.29296 75 136 122
-0.937296 -0.0449095 2.23225 81 146 131
-0.26747 -0.0470683 2.31778 168 239 236
-0.529046 -0.0447991 2.29047 160 231 215
-0.77597 -0.0442243 2.27034 75 157 138
-0.635292 -0.0415539 2.2816 169 229 218
-1.16639 -0.0393052 2.22095 243 255 253
-0.313756 -0.041163 2.31589 69 129 123
-1.08548 -0.0368992 2.22042 200 241 243
-0.966587 -0.0379954 2.23202 94 163 143
-1.23412 -0.0361148 2.21937 94 153 132
-0.612559 -0.0369712 2.28614 90 157 142
-1.1883 -0.0346614 2.22174 224 253 255
-0.0200956 -0.0365798 2.34086 75 148 126
-1.30861 -0.0327444 2.21014 221 255 255
-0.758602 -0.0334548 2.27467 85 140 147
-1.12993 -0.0320667 2.21989 242 255 255
-1.02657 -0.0319235 2.22795 82 136 113
0.213493 -0.0340697 2.36208 79 145 116
-1.18078 -0.0297146 2.22217 219 252 255
-1.17668 -0.028702 2.22114 199 224 220
-1.10911 -0.0298096 2.22159 78 125 129
-0.383918 -0.0303986 2.3069 119 178 198
-1.00148 -0.0270436 2.23258 100 155 158
-0.506456 -0.0229605 2.30088 148 196 214
-0.335106 -0.0235903 2.31748 112 168 169
-0.905107 -0.0216533 2.24232 115 158 173
-0.851864 -0.0216841 2.2558 81 144 158
-0.711926 -0.0203657 2.28235 191 232 235
1.07693 -0.0230505 2.40545 102 185 140
-1.10226 -0.0172064 2.22219 152 181 178
-1.06126 -0.0167621 2.22908 186 230 223
-0.719063 -0.0174879 2.28146 109 157 158
0.318876 -0.0192475 2.37 81 137 124
0.319861 -0.0192658 2.36983 76 133 124
0.453508 -0.0195897 2.38345 66 130 108
-1.06941 -0.0149956 2.22924 189 226 222
-1.00525 -0.0140693 2.23566 159 217 223
-0.753992 -0.0139029 2.27367 237 255 248
-0.601687 -0.0150126 2.29371 194 241 249
-1.07702 -0.011551 2.22884 217 245 245
-1.2402 -0.0095931 2.22 79 123 100
-1.10653 -0.00949392 2.21937 86 102 109
-1.08194 -0.00921686 2.22777 70 107 105
-0.895577 -0.00946031 2.24565 98 173 159
-0.96233 -0.00666014 2.23962 66 128 116
-1.02795 -0.00362426 2.23481 108 176 153
-0.490624 -0.00414626 2.30704 90 154 148
-0.870205 -0.00269972 2.25204 151 220 209
-0.464539 -0.00339958 2.30778 113 165 155
-0.366489 -0.0025595 2.31175 174 221 219
-1.22457 0.0020722 2.22266 155 217 187
-0.517984 0.00578069 2.30695 101 159 154
-0.418199 0.00612658 2.3131 77 122 135
-0.406556 0.00571604 2.31193 73 113 125
-1.07706 0.00800472 2.23164 138 187 185
-1.07852 0.00910087 2.23409 148 195 193
-0.648054 0.0104688 2.29441 90 141 137
-0.243903 0.011144 2.33232 80 151 124
-0.770737 0.0130888 2.27565 233 249 255
-0.727904 0.0133146 2.28358 69 126 118
0.66525 0.0121065 2.40049 105 178 162
-0.608824 0.0157972 2.29857 83 144 134
-0.263299 0.0163979 2.33014 64 121 100
0.0403076 0.0160846 2.35496 76 126 132
-1.12851 0.0172279 2.22789 90 127 111
-0.340998 0.0174182 2.3201 65 129 110
-0.782836 0.0190583 2.27331 98 144 162
-0.623324 0.0204242 2.29853 79 148 128
-1.00745 0.0201376 2.24759 70 122 105
-0.991498 0.0208331 2.24646 234 254 249
-0.948538 0.0217078 2.24627 106 153 174
-0.424165 0.0240058 2.31422 80 132 125
-0.244486 0.0236687 2.33563 172 238 209
1.18805 0.0239814 2.42142 109 167 138
-1.23605 0.0242465 2.22657 70 116 94
-0.544465 0.0265702 2.30674 62 124 106
-0.846164 0.0278972 2.26633 247 253 252
-0.855158 0.0299277 2.26667 90 120 137
-1.22843 0.0300156 2.2288 158 221 212
-1.09235 0.0304649 2.23539 90 131 123
-0.905873 0.0314513 2.25471 87 128 121
-0.69041 0.0326246 2.2886 158 229 209
-1.11332 0.0335153 2.23436 127 185 160
-0.56831 0.0355938 2.30354 220 241 239
-0.427275 0.0346811 2.31627 84 135 127
-0.351035 0.0358769 2.32064 55 131 107
-0.847507 0.0367494 2.26913 242 255 255
-0.676667 0.0377399 2.2932 81 127 114
-0.59497 0.0375262 2.30524 158 228 197
-0.570147 0.0363174 2.30528 216 242 236
-0.712723 0.0385071 2.28311 68 132 110
-0.498409 0.0391583 2.31171 98 171 149
-0.497892 0.0405549 2.31471 81 161 138
-0.397311 0.0398572 2.3179 69 148 104
-0.833606 0.0419301 2.2751 254 252 251
-0.823907 0.0416353 2.27315 243 245 245
-0.752502 0.0413299 2.28236 94 140 128
-0.693306 0.0438207 2.29091 101 147 134
-1.10557 0.0448856 2.23827 96 139 124
-0.426528 0.0441698 2.31672 85 157 145
-0.618486 0.0457417 2.30264 85 148 132
-0.37743 0.0462464 2.32509 106 163 155
0.0618748 0.0472044 2.3649 101 157 128
1.08392 0.047834 2.42615 74 162 122
-0.836042 0.0489712 2.27293 255 254 255
-0.55673 0.0497229 2.30904 96 173 146
-0.492736 0.0498365 2.31551 53 117 105
-0.672413 0.0495353 2.29782 79 151 131
-0.650837 0.0503154 2.29956 72 157 142
-0.610164 0.0516126 2.30521 76 128 121
-0.758629 0.0521397 2.27831 89 165 141
0.0612616 0.0533852 2.36534 82 150 127
0.064197 0.0531789 2.36495 72 124 87
-0.882479 0.0533277 2.26422 84 123 138
-0.881927 0.0534104 2.26435 83 124 139
-0.910054 0.0572515 2.25833 68 97 134
-1.09615 0.0590904 2.24276 172 224 230
-0.793804 0.0597826 2.27736 87 155 144
-0.36054 0.0607674 2.32685 86 143 140
-0.781831 0.0611373 2.27837 108 150 143
-0.635176 0.0621491 2.30115 105 157 173
-1.15434 0.0613383 2.23652 164 218 205
-0.919746 0.0630669 2.26114 206 239 255
-0.864556 0.0627878 2.26669 103 147 134
-0.772365 0.0624165 2.27908 79 129 147
-0.796713 0.063627 2.2785 198 245 242
-0.277241 0.0658705 2.34217 65 114 76
-1.0051 0.0662219 2.25655 255 254 253
-0.824963 0.0656493 2.27243 102 156 149
-0.812528 0.0644493 2.27552 93 141 135
0.200073 0.0677492 2.38211 88 139 125
-1.16166 0.0667172 2.23555 152 207 204
-1.00518 0.069577 2.25469 253 255 255
-0.588738 0.0777912 2.31293 157 228 185
-0.501415 0.076878 2.32218 250 255 254
-0.774071 0.0820375 2.28201 230 255 251
-1.12564 0.0835186 2.24428 92 154 138
-0.490749 0.0871031 2.32326 97 120 112
-1.16624 0.0860732 2.24164 173 215 214
-0.910305 0.0863558 2.26437 60 127 112
-0.429137 0.0899143 2.3282 87 133 134
-0.146772 0.0905456 2.35923 67 130 104
-0.820372 0.0895895 2.27744 255 254 255
-0.81366 0.0894022 2.28063 222 239 236
-1.1535 0.0922305 2.2413 201 238 228
-0.80871 0.0943886 2.28212 81 130 140
-0.389842 0.0976011 2.33216 69 121 121
-0.394825 0.0995083 2.33191 164 226 226
-0.443925 0.100095 2.32967 78 148 155
-1.00664 0.0998193 2.26109 110 165 150
-0.699416 0.102318 2.29673 77 125 129
-0.380597 0.104366 2.33796 81 134 120
-0.325733 0.10435 2.34429 59 132 100
-0.381146 0.104227 2.33772 108 163 154
-0.925676 0.104564 2.26828 103 162 154
-0.388493 0.110628 2.33664 92 148 135
0.148774 0.11245 2.38694 62 125 99
-0.89524 0.110439 2.27071 197 253 234
-0.197797 0.113807 2.3588 168 227 219
-0.627496 0.113788 2.31076 246 246 246
-0.990921 0.1163 2.26675 180 235 220
-0.814756 0.118489 2.2844 100 128 122
-1.12727 0.116477 2.25071 101 135 128
-0.35524 0.121496 2.34161 71 142 122
0.566635 0.12348 2.42033 105 171 159
-0.669614 0.122405 2.30848 85 145 135
-0.675293 0.125686 2.30839 187 239 229
-1.22919 0.128689 2.24905 117 152 138
-0.898794 0.1291 2.27663 237 251 249
-0.376139 0.132704 2.33921 69 120 122
-0.367488 0.132396 2.34118 77 135 140
-1.22978 0.128804 2.24931 113 146 131
-1.04693 0.129637 2.2613 239 255 254
-0.349962 0.137035 2.35015 115 182 179
-0.464345 0.137976 2.33651 82 157 135
0.428267 0.142079 2.41694 90 168 144
-1.22768 0.135154 2.24492 119 154 144
-1.04047 0.135218 2.26078 177 228 221
-0.732461 0.137871 2.29523 63 139 107
-0.500313 0.140111 2.33647 223 255 249
-1.16438 0.139199 2.25305 67 109 108
-1.0816 0.13862 2.25911 85 136 116
-1.05749 0.137761 2.25933 59 112 99
-0.64322 0.14187 2.31348 162 220 232
-0.680825 0.143048 2.30874 107 159 182
-0.70002 0.144004 2.30433 60 114 114
-0.784474 0.146881 2.29188 80 137 129
-0.595858 0.148621 2.32605 106 172 171
-0.840619 0.147865 2.28506 160 220 210
0.660639 0.155924 2.43061 77 142 116
-0.96814 0.148611 2.27625 87 149 131
-0.823905 0.147763 2.28888 86 144 126
0.649359 0.159399 2.4345 86 150 115
-1.081 0.149585 2.26214 93 140 124
-0.538422 0.154806 2.33371 108 148 166
0.114605 0.162178 2.39668 86 130 129
-0.656192 0.16012 2.31786 108 155 159
-0.829547 0.160907 2.29112 54 111 112
-0.753405 0.162312 2.3003 123 182 201
-0.469172 0.163664 2.3402 99 165 153
-1.04686 0.162026 2.26118 169 234 219
-0.546816 0.166099 2.33416 65 111 105
0.138055 0.170262 2.39975 81 142 132
-0.648924 0.167296 2.32128 81 149 124
-1.06504 0.165805 2.26329 50 96 83
-1.19753 0.169739 2.2545 75 99 87
0.377319 0.181116 2.42082 71 136 111
-0.538568 0.179132 2.33619 57 123 98
1.37728 0.190807 2.48125 68 147 108
1.20796 0.192353 2.47186 111 184 158
-0.803614 0.182343 2.29912 82 141 133
-0.485847 0.186742 2.34597 105 168 172
-0.250354 0.187544 2.37134 88 156 121
-0.343928 0.18837 2.36 70 129 98
0.396494 0.19607 2.42539 79 153 127
-0.916898 0.189519 2.28862 170 232 216
-0.830032 0.203517 2.29914 68 104 92
-0.427824 0.208673 2.35448 209 236 240
-1.13415 0.204142 2.26432 44 81 73
-0.832175 0.206338 2.30455 131 177 165
0.34691 0.21662 2.42552 155 214 186
-1.02546 0.206101 2.27593 74 111 103
-0.603277 0.209923 2.33307 194 242 236
-0.371262 0.2134 2.36118 180 243 233
-0.55456 0.213819 2.34169 188 230 219
-0.686528 0.212959 2.32294 184 231 215
-0.46574 0.217277 2.35394 105 168 148
-1.11326 0.21235 2.26806 164 212 214
-1.12768 0.213429 2.26622 30 73 60
-1.03659 0.216688 2.27572 144 206 192
-1.10653 0.217047 2.26793 153 208 191
-0.960639 0.220009 2.29176 232 254 255
-0.955364 0.219225 2.29506 172 227 212
-1.07272 0.219173 2.27077 72 112 101
-1.11606 0.221373 2.26738 128 160 135
-0.535619 0.228914 2.34448 69 109 98
-0.874727 0.228634 2.30212 73 128 109
-0.662136 0.23114 2.32723 53 106 92
-0.518486 0.233818 2.34836 95 129 119
-0.956357 0.231784 2.28775 180 164 135
-0.537354 0.236529 2.34196 156 197 199
-0.868208 0.235917 2.30563 150 209 178
-0.566656 0.23908 2.34183 162 223 209
