ply
format ascii 1.0
element vertex 1277
property float x
property float y
property float z
property uchar blue
property uchar green
property uchar red
end_header
-0.601054 0.933412 6.19304 147 246 200
1.79954 -0.79056 -5.01154 101 165 153
2.02712 -1.00815 -6.24299 76 128 121
-0.598105 0.971131 6.17037 138 200 160
2.00344 -1.0167 -6.13137 77 118 111
2.05478 -1.05865 -6.40966 255 255 255
1.96887 -0.992711 -5.93711 144 193 185
2.02559 -1.04381 -6.25649 110 129 132
2.01842 -1.0412 -6.2207 101 124 126
1.49322 -0.561583 -3.37641 170 241 214
1.98822 -1.03273 -6.06578 72 118 112
2.0102 -1.05872 -6.18759 83 100 97
1.94752 -1.00564 -5.84616 65 102 92
1.38319 -0.469698 -2.78804 94 167 145
-0.760192 1.19429 7.08011 35 85 61
1.59096 -0.674339 -3.90271 79 134 125
1.44813 -0.54857 -3.14399 156 216 192
1.42746 -0.541489 -3.04727 200 244 231
1.71268 -0.856173 -4.59974 98 158 150
1.72338 -0.867835 -4.64849 72 130 119
1.65443 -0.800351 -4.28586 118 187 166
1.62813 -0.787022 -4.13813 83 145 131
1.61454 -0.787806 -4.07667 73 126 117
1.42172 -0.578061 -3.01203 135 204 177
1.4076 -0.568356 -2.94165 58 107 93
1.39413 -0.562184 -2.87224 93 164 138
-0.36719 1.02507 5.30518 59 128 91
1.39607 -0.571286 -2.8923 88 143 128
1.40045 -0.574254 -2.90927 160 219 199
1.80442 -1.03644 -5.10199 106 154 136
1.38694 -0.575094 -2.83771 142 197 172
1.51772 -0.775763 -3.57796 84 155 135
1.40104 -0.629696 -2.92147 76 142 123
1.94984 -1.34201 -5.8476 208 232 222
1.37586 -0.618066 -2.78992 80 164 130
1.35219 -0.593523 -2.66826 54 108 78
1.29423 -0.516783 -2.3378 97 158 148
1.34771 -0.595308 -2.64762 79 123 110
1.34194 -0.595811 -2.61479 169 238 218
3.48595 -4.01044 -15.1888 156 162 169
1.79304 -1.42995 -5.43346 171 208 222
1.31612 -0.632427 -2.49801 77 146 135
1.38977 -0.781843 -2.95229 145 189 172
1.76962 -1.46116 -5.35059 175 203 227
1.48723 -0.959667 -3.54553 103 132 106
1.47876 -0.964586 -3.50622 101 157 128
1.40156 -0.849766 -3.0489 113 168 149
1.35343 -0.774226 -2.76556 87 116 107
1.68127 -1.45219 -4.91074 191 224 244
1.34922 -0.787936 -2.75651 129 166 150
1.37545 -0.858288 -2.93003 132 182 164
1.57392 -1.36317 -4.34782 116 136 153
1.57084 -1.36238 -4.33916 122 146 164
1.38441 -0.947994 -3.04434 89 147 122
1.37186 -0.943619 -2.98224 78 97 78
1.3329 -0.895105 -2.75912 106 162 139
1.84706 -2.14797 -6.28237 128 123 124
1.36575 -0.98987 -2.9935 91 109 86
1.32154 -0.974693 -2.77621 88 132 103
1.61016 -2.08355 -5.23985 188 184 183
3.65321 -6.52153 -15.7629 118 158 130
2.3785 -4.0605 -9.24165 58 85 69
0.532379 -0.881381 1.44287 93 171 140
0.500426 -1.01378 1.63336 207 214 217
0.546164 -0.83979 1.40107 93 154 126
0.591341 -0.730561 1.24102 156 220 168
0.510758 -0.976975 1.61108 162 152 152
0.525944 -0.941005 1.55872 151 174 196
0.590203 -0.730986 1.24569 158 210 163
0.264803 -1.51353 2.36376 130 181 173
0.543255 -0.853335 1.4429 61 129 98
0.578891 -0.748345 1.28543 137 191 186
0.576078 -0.77357 1.32654 67 71 65
-0.0771826 -2.25443 3.448 113 173 163
0.511544 -0.961684 1.63095 177 189 189
-0.12497 -2.35765 3.62528 79 119 108
-0.100343 -2.30614 3.54984 107 161 148
0.581114 -0.729382 1.27632 78 113 93
0.51265 -0.955879 1.63245 175 176 174
-0.231235 -2.59511 4.03645 130 185 170
0.580396 -0.710981 1.29122 145 182 132
-0.243556 -2.60616 4.19657 92 125 110
0.55356 -0.798842 1.4447 150 149 169
0.209903 -1.59259 2.69048 107 159 149
0.499211 -0.963578 1.73467 157 144 146
0.570117 -0.756535 1.39657 253 251 250
0.549461 -0.794625 1.46909 254 253 255
-0.286498 -2.67298 4.43588 107 155 143
0.494514 -0.95847 1.7496 135 125 125
0.549776 -0.791818 1.47071 139 128 130
0.494605 -0.958465 1.7499 135 125 125
0.501973 -0.93773 1.73918 138 134 139
0.578475 -0.661539 1.26347 134 206 176
0.166495 -1.63874 2.99486 105 163 152
0.152163 -1.6688 3.05717 103 154 147
0.49435 -0.921394 1.78993 150 136 118
0.159051 -1.64752 3.03653 108 166 155
-0.0704529 -2.12857 3.93519 104 158 159
-0.456974 -2.98091 5.44306 168 227 206
0.0856257 -1.77127 3.39697 132 173 165
-0.642165 -3.35829 6.29305 102 158 145
0.120335 -1.6879 3.26943 97 133 121
-0.262453 -2.50568 4.77448 106 156 144
0.0679291 -1.80162 3.49498 108 161 151
-0.222332 -2.41267 4.68418 100 127 118
-0.174235 -2.30101 4.47163 109 154 138
-0.54025 -3.10934 6.01318 135 177 166
0.558704 -0.646434 1.37962 48 67 58
-0.940286 -3.97055 7.69889 118 186 169
0.335728 -1.21142 2.48857 163 203 192
0.342755 -1.1776 2.43312 131 199 176
-0.152113 -2.202 4.49765 91 143 136
0.550309 -0.642772 1.41898 181 145 107
0.317021 -1.21714 2.58766 134 165 156
-0.454051 -2.85162 5.81237 106 158 140
0.310793 -1.23178 2.62872 125 151 135
0.52306 -0.69698 1.55064 251 234 207
0.520539 -0.700894 1.56368 255 255 247
0.516745 -0.709642 1.58594 235 206 167
0.518745 -0.703586 1.57247 243 220 188
0.525581 -0.685924 1.53945 200 153 115
0.503789 -0.735718 1.65037 240 229 199
0.52587 -0.682914 1.53861 242 216 186
0.544412 -0.633069 1.43294 56 86 73
0.52872 -0.674769 1.52828 213 194 179
0.544132 -0.635562 1.44414 117 122 120
0.529523 -0.669198 1.52369 246 232 214
-0.454435 -2.80251 5.93314 87 137 125
0.543612 -0.630101 1.44329 175 240 208
0.304508 -1.20191 2.65449 151 206 173
0.317019 -1.17154 2.59121 110 169 155
0.543418 -0.634513 1.45461 218 228 212
0.497941 -0.736855 1.68266 244 223 201
0.540799 -0.637971 1.46728 255 252 241
-0.394695 -2.65434 5.68814 120 178 154
0.509132 -0.689376 1.58787 150 217 178
0.308243 -1.18123 2.63975 115 156 148
-0.427955 -2.70948 5.86445 100 158 133
0.542423 -0.626843 1.46023 204 186 155
0.505339 -0.688386 1.60239 59 102 75
0.506897 -0.683466 1.5936 86 130 101
0.538464 -0.631361 1.48135 170 137 104
0.517076 -0.654069 1.53338 151 220 175
0.517243 -0.653806 1.53452 154 219 174
0.539947 -0.627887 1.47688 253 253 239
-0.493567 -2.80439 6.22146 134 176 169
0.235636 -1.3159 3.01503 119 159 157
0.494708 -0.688032 1.64293 132 204 162
-0.399895 -2.60114 5.84556 90 149 135
-0.502824 -2.80444 6.3113 95 157 133
-0.46062 -2.70672 6.13028 120 176 157
0.509746 -0.639926 1.55196 64 133 106
0.51032 -0.637717 1.54956 141 226 194
-0.0657875 -1.89751 4.38285 98 138 126
-0.450721 -2.67237 6.1173 85 152 123
0.552134 -0.564718 1.38069 84 128 97
0.506636 -0.635145 1.56449 123 201 160
0.259652 -1.24289 2.98075 108 152 153
0.498599 -0.663996 1.64083 146 223 179
0.509602 -0.629322 1.55803 42 123 90
0.498696 -0.662698 1.64445 49 118 85
0.550396 -0.553009 1.37564 103 144 106
0.508583 -0.628198 1.565 76 162 128
0.466316 -0.692288 1.73503 152 224 178
0.499809 -0.644964 1.62814 118 208 165
-0.146929 -2.01103 4.82814 118 159 151
0.430829 -0.876735 2.21013 181 176 173
0.239574 -1.24518 3.10449 100 171 151
0.498834 -0.633171 1.62657 91 137 108
0.499394 -0.625165 1.6125 105 179 149
0.230832 -1.25691 3.16063 91 100 97
-0.738372 -3.10627 7.63631 110 168 144
0.485305 -0.649787 1.69744 145 220 174
0.488227 -0.642991 1.68199 67 126 88
0.518713 -0.588864 1.55392 44 105 69
0.189898 -1.29915 3.34545 189 227 227
-0.513273 -2.63051 6.62118 116 176 165
0.54642 -0.518585 1.37381 82 125 104
-4.92622 -11.0306 27.8869 122 178 167
-0.321942 -2.23765 5.74997 127 171 164
0.510271 -0.591839 1.58904 171 246 202
0.541842 -0.520062 1.39233 115 163 134
0.448364 -0.68587 1.84624 81 102 93
0.509851 -0.587082 1.59972 45 91 62
0.440562 -0.69451 1.90304 58 92 68
0.539593 -0.513622 1.40089 56 106 82
0.519701 -0.568875 1.55802 115 208 157
0.481578 -0.624275 1.72654 147 216 171
0.411524 -0.854162 2.35179 126 116 109
0.493327 -0.6053 1.67673 106 173 141
0.535348 -0.537032 1.48431 83 144 134
0.480043 -0.62641 1.73643 159 224 179
0.492807 -0.602513 1.67341 124 188 153
0.522931 -0.555296 1.54535 110 212 170
0.490213 -0.604597 1.69181 117 181 139
0.476512 -0.630597 1.76589 146 204 169
0.436586 -0.687922 1.93263 48 83 56
-0.566879 -2.59483 7.01686 116 167 163
0.437429 -0.681483 1.93243 157 221 185
0.476912 -0.618027 1.7544 106 187 154
0.478198 -0.6135 1.75001 107 209 167
0.438771 -0.671216 1.92124 146 213 174
0.475253 -0.613856 1.76274 162 241 214
-0.43596 -2.32416 6.43686 189 228 230
0.431381 -0.680538 1.96123 25 72 39
0.479184 -0.600164 1.73074 52 109 88
0.433297 -0.673365 1.94344 124 171 139
0.47597 -0.603148 1.75288 148 245 201
0.475249 -0.606061 1.76909 80 153 113
0.479637 -0.592223 1.73817 62 142 105
0.487227 -0.545309 1.60634 133 244 194
0.486343 -0.545623 1.61774 54 110 87
0.472455 -0.59912 1.7847 145 228 189
0.472965 -0.593867 1.78708 74 100 77
0.515115 -0.513629 1.5373 99 125 95
0.485117 -0.538301 1.61808 119 213 158
0.512449 -0.512761 1.54184 57 101 70
0.106718 -1.30461 3.87548 83 111 112
0.466637 -0.600052 1.81928 157 246 190
0.484359 -0.541734 1.63822 106 196 150
0.133207 -1.24718 3.73869 67 88 85
0.484167 -0.533445 1.62681 114 206 165
0.48376 -0.529724 1.62931 25 76 48
0.461593 -0.597357 1.84366 47 69 41
0.481966 -0.535138 1.64672 117 189 146
-3.16811 -6.7539 20.2218 100 175 153
0.109237 -1.25678 3.85069 106 135 142
0.509146 -0.50171 1.55246 30 62 37
-2.71249 -5.96368 17.926 110 179 164
0.250731 -1.02867 3.17861 118 169 165
0.48304 -0.522641 1.62406 131 207 159
0.488133 -0.510551 1.59619 116 182 140
0.48326 -0.512496 1.61609 140 237 193
0.473609 -0.531756 1.68354 112 157 130
0.485398 -0.505439 1.60339 100 155 136
0.0138759 -1.37471 4.31497 172 207 210
0.41549 -0.604436 1.94223 115 207 172
0.459874 -0.564794 1.82039 83 110 90
0.456839 -0.569376 1.83932 100 146 110
0.478548 -0.508657 1.63834 71 87 70
0.412422 -0.599414 1.95417 134 192 167
0.473014 -0.516352 1.67464 142 223 184
0.478834 -0.495416 1.61576 132 216 187
0.410623 -0.592737 1.95829 112 197 159
0.470804 -0.512946 1.68832 96 159 117
0.408254 -0.594052 1.97061 66 124 96
-1.24576 -3.30926 10.7032 82 151 130
0.502335 -0.465996 1.52996 125 187 157
0.467603 -0.516779 1.70986 139 222 177
0.470486 -0.51364 1.70055 124 189 144
0.486606 -0.477547 1.58137 115 172 134
0.457461 -0.52928 1.77376 58 95 69
0.502651 -0.462464 1.53341 39 96 65
-1.08842 -3.02278 9.95411 112 158 152
0.468372 -0.506951 1.70113 151 207 166
-0.00978487 -1.35025 4.51386 211 236 238
0.473772 -0.484757 1.63582 38 108 72
0.455217 -0.522457 1.77541 111 183 147
0.503358 -0.451916 1.51893 69 127 98
0.472544 -0.482033 1.63997 87 158 125
0.502452 -0.452578 1.52615 128 191 159
0.453558 -0.518677 1.77626 31 66 39
0.474315 -0.480203 1.63079 47 137 102
0.346742 -0.783912 2.70344 245 252 255
0.398493 -0.592095 2.03879 133 225 184
0.472726 -0.480227 1.64427 123 193 157
0.405553 -0.574519 1.99277 42 126 91
0.444621 -0.531061 1.83883 131 201 164
0.441132 -0.531538 1.84534 74 131 100
0.471955 -0.475558 1.64018 111 152 120
0.458165 -0.496939 1.73084 119 199 162
0.458353 -0.494143 1.72941 48 87 62
0.401136 -0.566771 2.01125 47 87 59
0.470154 -0.468405 1.64118 154 220 178
0.456529 -0.495067 1.74828 23 66 39
0.466691 -0.473877 1.66688 60 115 98
0.494802 -0.440074 1.53701 35 86 66
-1.30574 -3.18847 11.1342 186 233 224
0.456189 -0.495165 1.74801 30 74 45
0.392058 -0.577239 2.07312 131 209 178
0.443483 -0.512916 1.82984 51 115 79
0.405157 -0.547863 1.97228 124 231 188
0.451915 -0.498625 1.78924 146 214 173
0.488098 -0.442012 1.57004 133 210 189
0.457572 -0.471831 1.70201 129 214 176
0.455187 -0.47268 1.72026 144 200 165
0.45871 -0.467769 1.70033 68 87 60
0.45338 -0.474607 1.73276 110 167 136
0.382453 -0.573359 2.13417 44 111 79
0.459493 -0.459698 1.68469 139 210 170
0.443842 -0.492762 1.82936 81 98 77
0.460241 -0.456288 1.68621 71 102 75
0.437866 -0.495515 1.85866 52 137 99
0.439332 -0.488979 1.84783 122 163 131
0.450302 -0.462793 1.74231 76 136 102
0.435988 -0.490147 1.86623 137 200 160
0.445009 -0.467938 1.7789 115 179 143
0.366158 -0.600838 2.32105 164 222 181
0.386826 -0.546066 2.10955 59 134 102
0.441591 -0.471876 1.80478 113 209 168
0.453955 -0.449729 1.71278 158 225 188
0.431644 -0.489987 1.88634 64 115 78
0.43931 -0.472332 1.8115 72 155 123
0.455543 -0.443699 1.70742 100 155 122
2.8439 2.61739 -10.4668 93 166 144
0.385389 -0.523494 2.13709 59 126 97
0.385539 -0.522235 2.14299 75 165 136
0.380351 -0.524091 2.16558 42 121 88
2.02701 1.52859 -6.29767 95 168 152
2.54627 2.16064 -8.97948 90 165 143
0.435445 -0.426363 1.76429 44 67 52
2.94738 2.6386 -11.0602 102 184 165
0.449678 -0.412122 1.70239 135 200 168
3.62615 3.42968 -14.5324 82 150 127
0.432011 -0.406321 1.74858 109 140 119
0.412805 -0.44412 1.93994 34 72 54
0.326973 -0.540616 2.43701 141 234 189
0.3279 -0.529701 2.42326 141 203 167
0.347832 -0.500158 2.27372 42 80 50
0.419236 -0.399367 1.80392 113 157 134
0.334115 -0.50399 2.35777 46 60 36
0.340155 -0.494641 2.31256 47 106 78
-0.268302 -1.23831 5.89966 131 185 162
0.434832 -0.376581 1.72079 46 67 45
0 0 0 74 131 123
0.421482 -0.384518 1.77741 26 34 27
1.80893 1.07394 -5.18649 100 172 149
0.325493 -0.502537 2.40161 122 192 156
0.339444 -0.485616 2.31182 167 211 172
0.408892 -0.401726 1.87657 43 50 35
0.332395 -0.488665 2.33565 133 189 160
0.344239 -0.468168 2.26719 49 85 55
0.419227 -0.377988 1.78001 43 69 53
0.339326 -0.470236 2.29187 138 194 159
0.341973 -0.468995 2.28408 114 172 137
0 0 0 78 112 101
0.339895 -0.463981 2.28951 48 79 52
0.33304 -0.47082 2.32805 82 132 100
0 0 0 92 146 117
-0.590673 -1.50395 7.57032 88 135 127
0.312779 -0.494818 2.46334 128 158 133
0.33252 -0.468388 2.32099 161 227 186
0.416765 -0.371609 1.78634 150 192 169
0.3647 -0.4226 2.0984 105 159 129
0.330084 -0.465124 2.33709 77 144 105
0.334842 -0.460605 2.3101 80 107 81
0.349366 -0.436248 2.19508 135 176 145
0.351074 -0.431732 2.17866 48 70 46
0.323205 -0.46187 2.38175 146 204 163
0.29335 -0.491855 2.60768 137 210 170
0 0 0 163 230 215
0.377514 -0.384141 1.98607 38 57 42
0.301943 -0.47675 2.52397 80 116 92
0.358681 -0.40425 2.1079 158 207 175
5.07705 4.13207 -22.2635 66 115 93
0.283342 -0.506224 2.71241 120 150 125
0.378534 -0.381955 1.98597 44 60 42
0.331107 -0.425422 2.27115 152 203 165
0.369409 -0.385508 2.025 36 66 53
2.77319 1.86229 -10.1874 115 177 165
4.67632 3.69218 -20.149 172 229 214
0.308325 -0.455307 2.46078 81 129 100
0.400399 -0.352236 1.84295 55 100 74
4.80816 3.78086 -20.8236 73 128 113
0.323945 -0.424754 2.30816 146 193 161
5.57049 4.45689 -24.7357 74 132 91
5.15775 4.05664 -22.5899 85 151 110
0.302271 -0.455892 2.51289 56 80 50
0.390706 -0.358773 1.91258 133 172 140
0 0 0 69 143 115
0.340199 -0.402105 2.18952 127 152 132
2.20109 1.27386 -7.19363 107 171 159
5.56781 4.37653 -24.6388 145 206 162
2.40022 1.44536 -8.22895 118 166 154
4.13093 3.05888 -17.3179 151 209 204
0.348516 -0.388101 2.1342 88 97 84
4.91606 3.74038 -21.3709 127 192 147
8.11568 6.68354 -38.2404 98 160 144
3.99354 2.88737 -16.575 108 161 151
0.326227 -0.408744 2.29615 158 196 166
0.355268 -0.376851 2.09545 163 202 170
4.11893 2.9764 -17.2241 152 228 204
0.330812 -0.396306 2.24441 73 93 70
0.334757 -0.393095 2.21863 174 215 188
0.357302 -0.371065 2.08095 54 65 49
0.34791 -0.375442 2.12291 159 196 162
7.05473 5.5417 -32.7114 175 221 215
0.338127 -0.380475 2.17194 153 205 175
2.02781 1.05257 -6.27979 105 170 149
4.04882 2.8386 -16.8329 156 229 207
1.8729 0.9041 -5.47536 96 178 160
1.76464 0.806196 -4.92368 227 255 252
2.05362 1.06142 -6.423 116 179 169
0.296556 -0.418627 2.49404 116 176 145
3.72035 2.45828 -15.1523 164 234 217
2.8722 1.72559 -10.7055 79 153 129
0.341955 -0.360778 2.13851 67 85 62
6.37353 4.67105 -29.1465 104 175 149
6.58141 4.77579 -30.2547 71 130 116
4.15494 2.69209 -17.4149 94 180 140
6.51903 4.59296 -29.9454 87 136 122
6.07844 4.18456 -27.6187 90 129 113
6.31831 4.34771 -28.8321 146 217 184
1.72464 0.693241 -4.70417 113 181 170
0.351978 -0.328697 2.081 52 62 49
4.98448 3.19873 -21.7842 159 223 188
4.74056 2.97718 -20.5137 69 140 113
0.349206 -0.319577 2.08276 54 87 66
6.15351 3.95893 -27.9003 80 143 123
3.841 2.20335 -15.8251 93 154 140
2.42597 1.14906 -8.33852 99 145 139
3.43132 1.88526 -13.6432 96 161 140
-2.58314 -2.42819 17.9844 196 232 255
1.83896 0.687187 -5.28514 88 123 103
4.62953 2.60794 -19.8637 101 157 136
1.53604 0.453952 -3.74204 150 198 186
1.79059 0.563935 -5.01945 188 232 219
1.54469 0.403134 -3.75174 91 168 134
0.359432 -0.249197 2.02597 48 79 64
3.35084 1.38239 -13.185 182 240 229
3.45594 1.43324 -13.7108 106 165 151
1.85053 0.547779 -5.32346 90 150 126
0.354492 -0.244906 2.05888 134 211 173
1.60745 0.409274 -4.06207 81 142 132
1.62766 0.419127 -4.16871 101 167 155
0.172334 -0.334277 3.277 221 233 239
0.216179 -0.312014 3.00511 232 235 239
2.84329 1.00321 -10.5209 100 157 148
1.88179 0.514577 -5.46467 87 143 132
1.95543 0.552472 -5.84964 82 157 141
2.1273 0.636609 -6.74586 106 156 146
2.0951 0.606475 -6.58683 68 121 101
0.3405 -0.231712 2.15418 96 156 122
2.95985 1.01057 -11.1059 86 136 126
1.78624 0.445843 -4.97426 106 166 148
2.09893 0.581138 -6.60492 88 164 133
0.335663 -0.225148 2.17374 119 177 149
0.337381 -0.224992 2.15799 25 44 35
2.06027 0.556444 -6.38921 89 149 119
2.84382 0.879401 -10.5105 88 140 123
1.76994 0.395687 -4.86218 147 224 187
1.76664 0.394095 -4.8568 146 220 184
1.60821 0.322544 -4.05672 110 180 163
1.73664 0.37424 -4.70887 134 192 157
1.77769 0.387536 -4.91472 87 144 123
2.11732 0.529926 -6.68771 109 169 159
1.36816 0.204817 -2.83552 99 140 133
0.287458 -0.223445 2.57155 142 141 161
1.68893 0.326653 -4.45688 89 157 116
1.66477 0.297651 -4.3145 77 99 70
2.19155 0.492409 -7.05567 92 165 143
1.66054 0.29118 -4.29609 66 95 72
1.6757 0.294613 -4.3804 73 105 74
1.79241 0.338623 -4.98668 87 144 119
1.52794 0.239705 -3.62514 98 172 138
1.84443 0.350545 -5.2633 162 230 205
1.6913 0.289653 -4.45308 65 81 64
1.65955 0.275627 -4.27937 123 208 158
1.86267 0.339625 -5.34899 113 157 134
1.66542 0.26504 -4.30384 68 115 76
1.626 0.24778 -4.11273 146 238 189
1.52514 0.209086 -3.60489 80 146 111
1.78961 0.293642 -4.96483 156 225 188
1.67639 0.254955 -4.35999 128 200 153
1.51938 0.194787 -3.57187 65 127 87
1.63505 0.228194 -4.14286 62 132 91
1.66596 0.234144 -4.29275 85 173 120
1.47958 0.177268 -3.37038 95 137 119
1.62582 0.216668 -4.10055 122 214 167
1.81766 0.271977 -5.09239 84 143 123
0.285178 -0.164473 2.53996 217 218 214
1.8561 0.258076 -5.30544 88 144 121
1.38677 0.133441 -2.9056 98 162 143
0.286216 -0.144995 2.52144 106 93 95
1.44544 0.123312 -3.18447 88 127 112
0.305715 -0.136424 2.39218 252 254 254
1.66529 0.16699 -4.28062 64 134 93
2.1581 0.243443 -6.86919 70 122 105
2.23321 0.259483 -7.26197 66 114 96
1.67563 0.140708 -4.34686 142 206 177
0 0 0 86 125 123
1.65159 0.128802 -4.21399 146 216 185
1.64256 0.126517 -4.17452 91 150 119
2.10452 0.200834 -6.56829 98 162 150
0.31763 -0.113231 2.30584 220 221 225
0 0 0 115 136 144
1.47852 0.0775541 -3.34059 97 129 112
0.295443 -0.105501 2.44587 126 140 162
1.52935 0.0836136 -3.58318 97 138 106
2.18173 0.16796 -6.96369 90 149 129
0 0 0 54 114 83
0.311294 -0.10232 2.33776 103 118 151
1.59741 0.0886476 -3.93418 72 104 85
1.68374 0.0925212 -4.37255 83 141 113
2.28006 0.161637 -7.46129 94 155 145
1.64427 0.0858447 -4.16123 92 140 112
1.68169 0.0804234 -4.38087 116 181 155
1.61115 0.0701372 -4.0004 148 227 186
0 0 0 140 191 177
1.68475 0.0614735 -4.38411 93 137 114
1.69658 0.0604691 -4.45326 88 143 118
0 0 0 162 202 201
1.3875 0.0315869 -2.86615 70 147 120
2.12818 0.0862844 -6.67887 83 152 131
1.65035 0.0493012 -4.19899 90 133 118
1.67034 0.0516735 -4.30819 150 214 179
1.48416 0.0346602 -3.35511 91 150 135
1.58778 0.042298 -3.87922 74 135 101
0.282756 -0.0753298 2.49861 109 128 165
1.55383 0.0384755 -3.70701 83 138 105
1.64862 0.0426911 -4.20628 144 208 173
1.59854 0.0361483 -3.93072 80 138 103
1.56238 0.0261904 -3.74498 102 177 133
1.50735 0.0211488 -3.46411 84 128 105
1.39187 0.0123318 -2.8936 95 153 135
0 0 0 50 128 97
1.50306 0.00381781 -3.43091 78 128 94
1.59811 0.00807303 -3.93471 166 210 204
1.45118 -8.0127e-05 -3.18113 120 178 160
5.98585 0.0131115 -26.7061 83 131 137
1.93464 0.00451995 -5.67204 80 142 124
8.08401 0.00851565 -37.7537 174 202 203
1.30472 -0.00686361 -2.45835 69 117 91
1.89854 -0.00624814 -5.50032 88 155 140
7.59575 -0.0401303 -35.0582 103 124 121
1.61109 -0.00858737 -3.97857 62 96 72
5.38472 -0.0905804 -23.5398 167 224 225
-6.58448 0.243385 37.4937 70 120 102
1.63513 -0.0347542 -4.1277 175 234 226
1.31727 -0.0285784 -2.49939 54 108 71
1.30145 -0.0305564 -2.42083 62 105 84
1.94048 -0.0628914 -5.69271 72 128 105
1.29732 -0.0406064 -2.39825 146 227 182
1.64139 -0.0612957 -4.14892 116 167 159
1.33917 -0.0496308 -2.60258 102 151 143
2.49619 -0.162047 -8.58569 92 156 144
5.35132 -0.447659 -23.4563 135 160 156
1.31212 -0.0533371 -2.46505 133 195 165
0.00116021 0.0303279 3.49793 49 121 85
2.2974 -0.150775 -7.54198 103 177 171
4.79155 -0.436711 -20.4768 97 139 138
2.46007 -0.184477 -8.36428 88 148 140
0.0280451 0.0335769 3.33878 77 162 134
1.32587 -0.0626274 -2.52741 78 127 105
1.33499 -0.063409 -2.57653 112 170 152
0.0369431 0.0341146 3.28924 122 215 176
1.30233 -0.0615078 -2.41383 62 143 98
1.37152 -0.0669736 -2.74776 98 161 141
-0.00441885 0.046683 3.50293 38 82 65
0.00532696 0.0437197 3.45591 22 95 63
1.27722 -0.0621652 -2.29075 96 147 143
1.52802 -0.0939069 -3.55458 141 206 180
1.72405 -0.130731 -4.58094 109 172 163
0.0314411 0.0521107 3.31514 39 112 80
1.39564 -0.0864044 -2.87944 92 134 123
1.52023 -0.106463 -3.50164 86 150 115
-0.00665899 0.0648113 3.50961 41 83 60
4.54335 -0.603186 -19.1356 153 199 187
2.80466 -0.322596 -10.1604 92 149 146
-0.0294675 0.0747866 3.62483 68 113 94
1.39892 -0.0960683 -2.88343 85 124 108
1.7928 -0.162471 -4.94291 100 151 137
2.3005 -0.252023 -7.55291 85 154 144
1.56605 -0.131226 -3.74896 74 146 126
1.85025 -0.180459 -5.21453 76 132 109
2.31749 -0.268678 -7.63974 92 155 146
1.27499 -0.086101 -2.2794 121 171 159
2.26504 -0.261427 -7.35035 112 168 169
1.29789 -0.0910564 -2.38392 218 252 246
1.8226 -0.193014 -5.06612 152 242 199
1.7739 -0.192588 -4.81476 103 162 154
3.24801 -0.497802 -12.4602 88 148 140
0.00687632 0.0943572 3.41965 122 149 129
1.39723 -0.119732 -2.87896 171 221 217
1.45123 -0.130719 -3.14392 89 153 134
-0.0516762 0.114881 3.73408 14 76 46
0.132333 0.0597269 2.74973 77 92 78
1.47165 -0.144101 -3.25307 69 118 102
1.42691 -0.134537 -3.02359 79 138 117
1.37852 -0.130714 -2.77168 153 229 198
3.08359 -0.546102 -11.621 157 220 218
1.8004 -0.231144 -4.95176 79 144 119
1.39281 -0.142362 -2.8481 75 135 105
1.44769 -0.155469 -3.13108 99 137 131
1.45284 -0.15673 -3.14854 163 227 215
3.67285 -0.766671 -14.6762 154 204 202
2.35226 -0.417048 -7.82458 96 164 157
2.4126 -0.439276 -8.14807 160 218 213
1.53127 -0.194732 -3.56768 176 238 222
1.46226 -0.177594 -3.19621 87 149 125
2.06161 -0.353359 -6.31277 116 170 170
1.46581 -0.179322 -3.22185 85 156 123
1.33586 -0.144223 -2.54983 105 148 137
1.34829 -0.15057 -2.61265 79 127 109
2.06126 -0.377068 -6.31431 99 159 151
1.45714 -0.192181 -3.16873 106 162 149
3.24983 -0.822818 -12.513 84 138 138
1.69526 -0.300928 -4.41869 78 137 116
1.65204 -0.303192 -4.18794 91 160 140
1.38084 -0.209735 -2.77034 83 132 118
1.30832 -0.183151 -2.39149 158 219 183
1.43505 -0.230949 -3.05429 255 254 255
1.59485 -0.300921 -3.88832 164 230 218
1.50467 -0.267996 -3.41332 100 172 159
1.35682 -0.208921 -2.64614 102 152 134
2.90113 -0.862879 -10.7126 143 207 195
1.30935 -0.193792 -2.40377 87 142 115
1.63173 -0.331943 -4.08258 70 135 119
1.66396 -0.354201 -4.24865 72 136 114
1.60177 -0.330029 -3.92878 66 130 124
1.94264 -0.482441 -5.69123 173 228 225
1.30239 -0.208876 -2.36657 93 160 131
2.5257 -0.784603 -8.76967 72 132 122
3.04076 -1.04444 -11.5063 92 116 116
1.36113 -0.236973 -2.66135 84 146 122
2.27544 -0.712117 -7.4521 148 217 207
2.49106 -0.828765 -8.58944 151 213 207
1.59246 -0.370029 -3.88225 179 232 219
2.46364 -0.834462 -8.43927 96 151 148
2.3215 -0.770021 -7.69894 73 124 116
-0.222997 0.393616 4.38362 169 229 198
2.32796 -0.794094 -7.73091 94 157 147
-0.177707 0.377501 4.10158 157 206 190
1.61286 -0.412374 -3.97336 80 158 127
1.32764 -0.256842 -2.48712 73 125 95
1.32022 -0.254521 -2.4387 79 111 92
-0.0832416 0.331426 3.61297 152 213 193
2.16119 -0.757505 -6.88104 99 161 161
1.34933 -0.279686 -2.59185 136 214 173
3.12286 -1.32467 -11.9146 146 202 167
1.60809 -0.437296 -3.95724 96 150 137
1.31463 -0.264869 -2.41564 135 220 176
1.55253 -0.409509 -3.67552 80 127 118
1.33456 -0.284479 -2.51686 66 117 79
1.31125 -0.277871 -2.39797 253 255 255
2.26994 -0.896334 -7.4678 159 228 217
1.33109 -0.290647 -2.4891 145 239 185
1.584 -0.454316 -3.82793 92 141 125
1.36291 -0.313004 -2.66955 80 141 115
1.39993 -0.337903 -2.85541 102 153 156
1.44316 -0.365385 -3.08451 77 148 128
1.5352 -0.429122 -3.58003 92 151 131
1.3323 -0.299947 -2.50507 69 115 93
2.9586 -1.38385 -11.0584 104 166 142
-0.344098 0.560862 4.87633 16 48 31
2.09009 -0.821738 -6.51961 82 145 136
1.55001 -0.455079 -3.64902 70 119 103
2.95203 -1.41909 -11.0232 76 106 95
1.54597 -0.459122 -3.63633 110 156 144
1.64237 -0.525936 -4.13406 96 150 143
1.3053 -0.302834 -2.36652 102 170 145
2.15399 -0.899551 -6.86414 80 134 129
1.52803 -0.464044 -3.54049 80 116 104
1.53804 -0.47214 -3.59801 94 133 118
1.34391 -0.336894 -2.57191 148 216 185
1.47969 -0.436711 -3.28895 147 221 203
1.51728 -0.47017 -3.50642 148 206 188
1.55281 -0.495419 -3.66763 92 154 136
2.27124 -1.04033 -7.50128 176 201 203
1.51635 -0.478254 -3.49018 86 127 106
2.68753 -1.35126 -9.58543 138 177 161
1.50353 -0.470369 -3.42389 170 231 217
1.53996 -0.500859 -3.59984 136 218 176
-0.325543 0.62409 4.72632 151 221 191
1.55928 -0.523766 -3.70737 89 146 137
-0.302192 0.616207 4.61703 41 87 68
-0.318022 0.631069 4.68876 135 187 150
1.4813 -0.469257 -3.3026 82 147 125
1.52974 -0.506318 -3.54767 84 144 120
2.11093 -0.971271 -6.66165 47 93 87
-0.389122 0.685176 5.0295 132 204 168
-0.334435 0.647143 4.77819 41 63 44
-0.387619 0.682978 5.02222 66 139 101
1.28137 -0.318254 -2.24488 97 162 137
1.62454 -0.585414 -4.04962 85 154 141
-0.314474 0.638218 4.66317 143 221 180
1.46257 -0.466886 -3.21468 76 123 115
1.53894 -0.524567 -3.59721 74 133 118
1.26807 -0.317005 -2.18056 90 148 130
1.37638 -0.401547 -2.73867 92 163 146
1.47688 -0.492538 -3.28837 255 255 255
1.93243 -0.888467 -5.73939 84 151 136
1.30201 -0.355227 -2.35481 66 136 113
1.4844 -0.510527 -3.32108 157 227 210
-0.354918 0.714128 4.86099 5 70 45
1.27775 -0.337778 -2.22776 108 165 156
1.46708 -0.508344 -3.24259 88 143 124
1.47259 -0.51345 -3.26387 161 223 201
1.62712 -0.652195 -4.08484 88 159 149
2.02568 -1.00812 -6.2393 76 128 121
1.79044 -0.804358 -4.98151 88 159 149
1.4652 -0.517662 -3.23446 58 87 78
1.53196 -0.572218 -3.56703 89 139 129
1.33946 -0.407635 -2.55253 89 161 148
2.05519 -1.05626 -6.41421 254 254 254
2.00163 -1.01672 -6.12223 71 102 99
1.96563 -0.992652 -5.92947 162 206 200
2.02345 -1.04376 -6.24827 111 130 133
2.04782 -1.07388 -6.38161 95 114 105
1.48618 -0.552386 -3.34032 147 221 191
1.74861 -0.799669 -4.75509 72 121 113
1.30427 -0.387015 -2.36775 75 156 141
1.92122 -0.963754 -5.69555 151 218 209
2.32707 -1.33404 -7.79304 50 94 77
1.78343 -0.839059 -4.94896 168 227 212
1.98687 -1.03267 -6.06371 72 118 112
-0.614841 1.02847 6.25545 30 67 51
-0.807828 1.22389 7.32313 99 159 135
-0.587786 1.00394 6.08066 35 83 55
1.94951 -1.00567 -5.85176 62 102 91
-0.528097 0.954087 5.78044 110 199 160
-0.76149 1.19389 7.10179 17 56 35
1.44379 -0.532208 -3.13937 75 118 109
2.11555 -1.18508 -6.78839 159 233 205
-0.588304 1.01858 6.09298 156 223 191
1.82964 -0.905322 -5.21105 96 156 146
1.58944 -0.67459 -3.89946 77 131 124
1.54812 -0.631899 -3.653 86 143 128
1.54577 -0.631867 -3.65199 89 148 134
-0.660322 1.10841 6.47513 49 108 77
1.76109 -0.867219 -4.85716 68 139 123
-0.827684 1.2908 7.39613 56 91 65
1.38255 -0.488678 -2.78921 81 143 143
1.53564 -0.63934 -3.60444 158 232 204
2.15269 -1.26607 -6.94133 110 184 154
1.43267 -0.544157 -3.06908 98 126 120
-0.869657 1.36559 7.64883 108 191 153
1.66239 -0.790544 -4.32495 143 212 197
1.5549 -0.685013 -3.72312 88 159 143
1.69293 -0.833983 -4.48949 126 188 172
1.84843 -1.00246 -5.34926 71 111 100
1.70348 -0.852614 -4.55323 156 219 209
1.70136 -0.859135 -4.54952 160 227 218
1.66817 -0.834303 -4.35974 131 173 162
1.43352 -0.581728 -3.07055 90 154 132
1.70118 -0.879328 -4.5515 118 177 162
1.61452 -0.787804 -4.07668 73 126 117
1.86969 -1.07153 -5.40626 126 189 157
1.7753 -0.981148 -4.9711 115 153 141
1.40477 -0.565796 -2.92271 96 149 135
1.4071 -0.568462 -2.94086 58 107 93
1.39453 -0.554789 -2.86431 94 148 131
1.41911 -0.585138 -3.00439 75 149 121
1.73862 -0.952947 -4.76846 111 173 151
1.69478 -0.910037 -4.54187 136 205 185
1.39976 -0.574047 -2.91055 166 225 205
1.44186 -0.620572 -3.12763 90 153 143
1.41212 -0.597884 -2.96683 81 153 131
1.38301 -0.578991 -2.81681 58 104 85
1.38275 -0.579046 -2.81641 58 104 85
1.39182 -0.597167 -2.86433 61 102 81
1.3635 -0.567248 -2.71547 74 145 118
-0.494446 1.26273 5.99669 39 87 61
1.38782 -0.607971 -2.85042 85 137 114
1.45286 -0.689678 -3.20285 68 143 127
1.40099 -0.63009 -2.92023 76 142 123
1.38902 -0.6206 -2.85223 74 123 101
2.15264 -1.67407 -7.3186 143 179 215
1.36336 -0.598917 -2.72582 74 130 107
1.46695 -0.734568 -3.30278 91 132 117
1.36098 -0.601678 -2.71592 147 209 179
1.35298 -0.594074 -2.66659 62 107 80
1.36474 -0.612764 -2.73991 147 215 180
1.36562 -0.617659 -2.74141 135 206 166
1.34754 -0.595278 -2.6477 77 120 107
1.3507 -0.600703 -2.66771 157 220 194
1.36088 -0.616781 -2.71267 75 105 86
1.89363 -1.32631 -5.60018 199 222 194
1.34007 -0.606125 -2.6113 89 156 124
1.8633 -1.31211 -5.41347 136 158 134
1.4496 -0.767115 -3.24003 124 146 128
1.32611 -0.607097 -2.55599 69 133 114
1.31372 -0.611047 -2.47794 88 156 149
1.45394 -0.828577 -3.2841 109 154 145
1.82002 -1.44814 -5.5808 115 136 163
1.79373 -1.42644 -5.43188 191 228 242
1.41897 -0.793969 -3.0986 107 166 135
1.44528 -0.845197 -3.25314 112 166 143
1.43131 -0.830002 -3.18364 128 192 173
1.44626 -0.864672 -3.27697 94 137 124
1.78481 -1.47063 -5.42896 138 152 174
1.57789 -1.0882 -4.06148 110 126 108
3.2688 -3.87094 -14.0274 127 125 144
1.74681 -1.41078 -5.19938 180 192 204
1.50126 -0.969979 -3.61867 111 153 128
1.39021 -0.781935 -2.95198 147 192 175
1.38687 -0.781193 -2.93884 131 182 162
1.4229 -0.845244 -3.16054 120 170 152
3.13957 -3.73442 -13.3049 166 181 197
1.47932 -0.945471 -3.49806 90 128 106
1.48847 -0.959675 -3.54809 103 132 106
1.48975 -0.970413 -3.56411 118 164 135
1.4294 -0.871153 -3.19298 108 152 135
1.7088 -1.40952 -5.016 183 210 230
1.38297 -0.7994 -2.91774 125 152 142
1.29265 -0.649576 -2.39395 84 131 115
1.39512 -0.839219 -3.01752 114 166 148
1.44977 -0.941959 -3.35532 83 131 103
1.36979 -0.80111 -2.86803 77 91 80
1.69733 -1.44582 -4.98634 187 218 239
1.36255 -0.788193 -2.81414 133 208 187
1.36609 -0.804438 -2.84929 120 165 146
1.68175 -1.44465 -4.92638 155 171 200
1.33447 -0.740843 -2.63545 94 162 131
1.36403 -0.804614 -2.84577 127 173 151
1.39928 -0.864597 -3.04446 98 148 136
1.67573 -1.45091 -4.90021 211 240 254
1.39635 -0.873605 -3.03484 132 162 137
1.65009 -1.40952 -4.74613 105 121 144
1.64195 -1.42068 -4.74346 213 237 249
1.61963 -1.37485 -4.57685 126 148 166
1.47134 -1.04795 -3.52843 86 112 88
1.6468 -1.43558 -4.75044 170 181 208
1.65023 -1.44433 -4.78477 130 125 157
1.72808 -1.5969 -5.24942 153 187 223
1.46855 -1.04779 -3.52237 82 108 84
1.60971 -1.38487 -4.53799 183 213 230
1.60268 -1.39263 -4.50897 112 119 138
1.34337 -0.828665 -2.75386 101 160 132
1.67246 -1.57505 -4.97853 177 203 220
1.3579 -0.883895 -2.86364 140 184 171
1.32517 -0.824145 -2.66975 109 173 138
2.35117 -3.06727 -9.30209 93 93 111
1.32535 -0.836129 -2.67569 117 151 127
1.36975 -0.943585 -2.97871 87 108 86
1.34192 -0.876515 -2.78418 89 123 106
1.32491 -0.842834 -2.67693 99 147 119
2.22916 -2.91171 -8.65743 103 125 166
1.3422 -0.898516 -2.80035 105 145 133
1.34178 -0.922375 -2.82423 105 185 156
1.36035 -1.01396 -2.99431 80 119 97
1.95804 -2.57516 -7.17045 187 216 247
1.81153 -2.27002 -6.27686 153 149 154
1.54997 -1.91839 -4.81331 155 147 148
1.64987 -2.26397 -5.61958 141 162 200
1.44011 -1.25247 -3.20537 54 70 52
1.45024 -1.65158 -4.10527 203 201 200
1.48139 -1.79337 -4.40059 156 147 144
1.47034 -1.77726 -4.34405 190 187 182
1.49254 -2.00492 -4.6993 231 245 251
0.50167 -1.01388 1.63654 208 218 218
0.524416 -0.950704 1.56391 124 132 145
0.525467 -0.943169 1.55268 89 93 111
0.591569 -0.723849 1.23007 86 127 82
0.510973 -0.976475 1.61165 165 150 148
0.579648 -0.746153 1.27683 77 112 108
0.0763064 -1.92047 2.96819 96 152 131
0.576722 -0.769833 1.3318 158 202 166
0.554756 -0.808523 1.42904 226 239 241
0.579741 -0.718209 1.28775 85 112 92
-0.199479 -2.50676 4.05068 149 207 179
-0.190401 -2.48231 4.02778 81 111 98
0.549274 -0.795918 1.47063 255 255 255
0.49405 -0.958499 1.74806 129 117 117
-0.229367 -2.51763 4.24893 166 230 194
0.571757 -0.743187 1.39858 225 199 169
-0.364913 -2.83174 4.79895 97 135 117
0.501934 -0.929426 1.7295 110 130 135
0.492817 -0.951333 1.76791 150 146 145
0.501058 -0.928 1.74813 187 211 209
-0.323316 -2.68853 4.85523 95 156 128
-0.636454 -3.39463 6.17459 97 150 141
0.477936 -0.943888 1.8818 193 190 186
-0.453107 -2.95078 5.52383 120 161 146
0.122152 -1.69982 3.27749 124 152 133
0.55715 -0.674105 1.39998 187 142 104
-0.227245 -2.44347 4.63942 88 136 124
-0.173755 -2.32271 4.427 107 159 149
-0.262963 -2.51315 4.79709 106 154 142
0.466653 -0.951613 1.95103 136 115 114
0.331324 -1.21751 2.50521 70 104 94
-0.335607 -2.62699 5.19434 97 154 129
0.456236 -0.952354 2.01348 167 163 168
0.00330133 -1.88801 3.85477 120 174 167
-0.390736 -2.71455 5.5049 85 141 112
0.550489 -0.642762 1.41904 189 156 117
0.549119 -0.642411 1.42059 178 142 104
0.514847 -0.715803 1.59377 224 187 159
0.522929 -0.69704 1.55032 251 237 215
0.503722 -0.736243 1.65045 243 237 214
0.530344 -0.665949 1.51767 203 158 125
0.543956 -0.636287 1.45692 250 248 247
0.448751 -0.922394 2.08621 172 172 172
0.540073 -0.637457 1.4742 196 160 124
0.563508 -0.552919 1.28541 146 227 188
0.540408 -0.625649 1.46856 234 212 194
-0.0985958 -1.98716 4.48358 112 165 156
-0.399249 -2.59909 5.8382 90 149 135
0.55257 -0.578611 1.39242 127 198 158
-0.332434 -2.42403 5.57969 111 163 145
0.552498 -0.569052 1.38996 40 82 59
0.498599 -0.663996 1.64083 146 223 179
0.551667 -0.55553 1.37267 46 68 43
0.496618 -0.665335 1.6481 70 144 110
0.504968 -0.638572 1.58268 122 185 146
0.508474 -0.628346 1.56438 77 158 119
0.501125 -0.639293 1.60218 121 192 149
0.546504 -0.559604 1.40655 40 72 53
0.546159 -0.555925 1.40703 34 55 40
0.431059 -0.877286 2.20761 166 165 161
0.459628 -0.705446 1.79528 129 173 142
0.526502 -0.588429 1.50269 15 77 63
-0.146617 -1.97236 4.84232 109 163 156
0.230712 -1.25707 3.16288 92 101 98
-0.737374 -3.10396 7.62803 116 173 148
0.212657 -1.27567 3.24254 184 213 220
0.49516 -0.629982 1.64954 48 109 71
0.521268 -0.582372 1.52946 132 220 174
0.454174 -0.685977 1.81519 141 207 165
0.494609 -0.626144 1.65572 84 171 135
0.498784 -0.611373 1.62542 79 121 86
0.504378 -0.603528 1.61073 50 65 44
0.517062 -0.58678 1.5587 48 135 101
0.519099 -0.579862 1.54515 73 140 111
0.440138 -0.716809 1.91115 134 162 133
0.444413 -0.696222 1.87445 39 73 49
0.542346 -0.514857 1.38654 67 122 105
0.496526 -0.606674 1.64906 87 115 79
0.492842 -0.611131 1.67882 135 194 156
0.484356 -0.619414 1.71113 128 200 157
0 0 0 99 167 144
-0.796026 -3.02843 8.10003 205 250 247
-0.56354 -2.58646 6.98863 121 168 165
0.43917 -0.679454 1.91366 27 63 39
0.477226 -0.613361 1.74833 98 200 158
0 0 0 80 163 131
0.43738 -0.672441 1.92292 125 207 164
0.479664 -0.600453 1.72944 51 98 82
0.472592 -0.598904 1.78567 143 223 180
0.470583 -0.597122 1.7928 47 83 53
0.484997 -0.538436 1.6176 119 213 158
0.519674 -0.503266 1.50648 126 201 155
0.466256 -0.601111 1.81883 105 200 149
0.484549 -0.540569 1.63143 58 128 87
0.486492 -0.527714 1.59297 134 237 199
0.465352 -0.59816 1.82269 38 60 41
0.519425 -0.496834 1.50331 154 217 185
0.486386 -0.523592 1.59887 35 88 61
0.484173 -0.528152 1.62202 122 202 165
0.517082 -0.495117 1.51507 120 160 125
2.01632 2.04139 -6.1533 101 168 137
0.108778 -1.25692 3.85321 89 121 127
0.482472 -0.519433 1.62458 42 87 54
0.48033 -0.519706 1.63644 117 208 163
0.088796 -1.25841 3.98372 81 121 120
0.457279 -0.570745 1.83531 98 156 121
-0.881387 -2.7841 8.82934 105 145 143
0.476933 -0.50231 1.64256 54 90 66
0.409485 -0.598319 1.97387 97 172 140
0.505114 -0.465375 1.51721 45 87 70
-0.941564 -2.83831 9.16314 120 166 160
0.503326 -0.465759 1.53041 126 189 157
0.46807 -0.506338 1.70083 135 190 151
0.473426 -0.492778 1.66519 116 195 156
0.483267 -0.471437 1.58686 126 193 164
0.440221 -0.551108 1.87387 124 186 156
0.472542 -0.480321 1.644 123 193 157
0.394771 -0.591423 2.05588 22 67 41
0.439386 -0.53931 1.86862 111 178 147
0.408433 -0.568682 1.9789 54 105 68
0.436092 -0.541272 1.88234 40 53 37
0.389903 -0.596173 2.08895 122 192 161
7.59983 10.166 -34.855 100 154 147
0.454919 -0.495551 1.74692 128 215 165
0.467035 -0.471149 1.65622 127 190 158
0.412347 -0.547042 1.94339 120 222 181
0.44118 -0.522363 1.84935 32 77 50
0.455828 -0.494761 1.74961 27 56 33
0.440877 -0.517892 1.84307 107 187 156
0.430159 -0.520779 1.8905 117 184 152
0.384634 -0.577574 2.11445 61 122 96
0.385914 -0.572746 2.11168 131 237 200
0.453496 -0.474782 1.7321 118 178 147
0.462109 -0.459477 1.67663 113 174 140
0.392056 -0.553653 2.07875 143 242 194
-0.917286 -2.45998 9.17333 253 255 255
0.449878 -0.464747 1.74289 78 139 101
-0.0977956 -1.31705 5.01431 82 98 104
0.4363 -0.479066 1.84932 115 152 126
0.387869 -0.53156 2.12359 25 86 50
2.84848 2.58642 -10.5021 85 144 130
-5.58207 -7.59316 33.6481 106 163 155
0.412111 -0.439273 1.94307 98 178 143
0.421359 -0.412485 1.81217 98 122 98
0.324688 -0.535855 2.45342 19 41 12
0.328279 -0.527041 2.41831 120 167 135
0.342375 -0.50152 2.3085 29 49 26
0.322099 -0.526463 2.45348 132 191 153
0.354099 -0.480409 2.23523 131 201 161
-0.2684 -1.23828 5.89888 131 185 162
0.34694 -0.474935 2.26096 39 75 45
0.323654 -0.494333 2.40459 62 91 58
0.337466 -0.475405 2.30209 56 87 58
0.322578 -0.483591 2.38211 57 95 59
0 0 0 122 177 168
-0.592246 -1.50459 7.58016 87 131 124
0.3174 -0.485625 2.43112 156 209 170
0.325846 -0.475343 2.36875 65 108 81
0.373922 -0.410906 2.02282 143 193 159
0.374914 -0.400532 2.01464 140 195 168
0 0 0 105 182 144
0.307502 -0.46663 2.47858 61 109 67
0.307877 -0.455754 2.45882 95 143 115
0.362033 -0.392645 2.07513 156 207 173
2.77353 1.86249 -10.1881 115 177 165
0.402887 -0.350133 1.83992 48 65 52
0.323945 -0.424754 2.30816 146 193 161
0.378129 -0.368059 1.96525 41 53 47
4.34348 3.27958 -18.462 94 124 113
5.89793 4.68738 -26.4514 56 95 69
2.44571 1.49388 -8.46976 86 145 125
4.91931 3.76116 -21.3336 75 115 80
0.378564 -0.362216 1.96953 136 184 158
0 0 0 68 105 97
0.316624 -0.415174 2.33092 50 74 56
4.28305 3.11393 -18.0086 152 230 199
6.16032 4.80843 -27.6699 182 251 214
0.323686 -0.410549 2.31337 168 220 190
0.355255 -0.377003 2.09489 171 214 181
0.312213 -0.417963 2.3692 137 201 171
0.357457 -0.372858 2.0779 49 55 44
4.68856 3.44916 -20.1063 128 209 164
7.67653 6.06151 -35.7715 84 108 106
0.344512 -0.37126 2.13209 64 83 66
2.05527 1.06338 -6.42796 106 168 156
7.42157 5.73832 -34.513 72 114 96
0.279644 -0.448934 2.66864 53 100 74
0.366362 -0.347616 2.00859 66 77 61
3.61601 2.38292 -14.6355 120 166 154
-0.502531 -1.15118 7.12765 152 221 200
0.339734 -0.360638 2.14383 71 93 68
0.333487 -0.366329 2.19826 94 136 101
0.339691 -0.35486 2.13982 163 220 187
5.03907 3.47002 -22.0958 87 146 125
6.46069 4.54168 -29.6706 85 134 120
5.21018 3.45285 -23.0276 88 114 100
1.76259 0.713893 -4.89414 201 252 244
3.61673 2.12746 -14.5337 67 125 100
0.350799 -0.329547 2.09503 57 66 45
4.1404 2.47827 -17.3786 85 146 118
1.31957 0.355388 -2.68437 101 160 139
4.65419 2.79028 -20.0462 144 231 187
2.42624 1.14965 -8.34088 99 145 139
1.33294 0.351073 -2.73238 146 227 202
1.42089 0.390408 -3.14795 99 158 150
1.45427 0.354179 -3.29457 83 113 94
1.4284 0.337693 -3.17213 91 153 123
1.34088 0.283146 -2.74132 108 164 153
2.62238 0.983867 -9.3407 108 172 160
1.95572 0.553038 -5.85184 80 155 139
2.99207 0.927503 -11.2432 79 131 101
1.73122 0.373645 -4.67629 74 121 89
1.90411 0.448996 -5.58369 100 163 137
0.282168 -0.235536 2.61391 85 66 58
1.72769 0.358787 -4.65137 69 117 88
2.03015 0.484552 -6.23124 101 144 131
0.287246 -0.223487 2.57151 132 132 150
1.6538 0.311223 -4.28018 87 119 95
1.6662 0.315724 -4.33587 146 205 177
1.66055 0.295082 -4.30283 72 95 67
1.69288 0.300532 -4.46495 102 139 123
1.6544 0.271698 -4.26614 135 226 171
1.61698 0.256383 -4.06851 74 129 102
2.48215 0.551118 -8.56757 83 134 126
1.61059 0.246266 -4.03455 90 151 125
0.298409 -0.160692 2.47071 66 61 60
1.68545 0.215604 -4.41666 88 142 119
2.18828 0.30776 -7.04362 106 153 145
1.47237 0.131268 -3.31737 77 141 112
1.63404 0.169697 -4.12633 82 128 99
0.30576 -0.136336 2.39242 252 254 254
1.44992 0.117189 -3.19269 86 169 137
2.16065 0.245123 -6.87849 76 122 109
1.71885 0.141648 -4.56538 86 154 129
0 0 0 191 222 225
6.20615 0.766467 -27.8333 102 154 137
1.47099 0.0836567 -3.3011 90 146 125
1.57897 0.086261 -3.84455 95 126 117
1.64225 0.0889516 -4.16473 108 155 129
1.60921 0.0799449 -3.9965 79 131 101
1.40392 0.0406351 -2.94346 100 165 150
1.64198 0.0439679 -4.17762 76 121 94
2.01951 0.0631249 -6.12059 79 131 121
1.33506 0.0111437 -2.59852 161 223 199
1.37992 0.0117076 -2.81881 96 171 150
1.97747 0.0320895 -5.90081 182 240 229
1.39981 0.00372859 -2.92246 81 135 118
1.72121 0.011145 -4.56744 103 164 144
1.93488 0.00456965 -5.67231 80 142 124
8.1543 0.0169509 -38.0711 174 202 203
7.52179 -0.0579968 -34.6695 95 123 117
1.59045 -0.0103325 -3.88492 172 231 210
1.3086 -0.0252029 -2.45409 69 119 87
1.60779 -0.0295979 -3.96785 141 234 183
1.59339 -0.0478888 -3.89309 76 144 109
1.37783 -0.0404237 -2.79699 173 221 209
1.38744 -0.0631507 -2.83232 97 159 135
0.00915225 0.0380256 3.43537 40 100 66
1.27789 -0.0613285 -2.29457 96 148 148
-0.00530107 0.0458476 3.50051 40 79 63
1.32482 -0.0700025 -2.52602 121 196 158
0.0513575 0.0395021 3.22658 124 228 181
1.3942 -0.0963775 -2.86925 93 132 111
2.26407 -0.254701 -7.38043 103 161 156
1.82554 -0.191601 -5.07498 154 246 205
-0.0120857 0.102756 3.53125 34 45 35
2.64739 -0.403426 -9.34605 89 149 143
-0.033261 0.110855 3.63991 155 253 209
1.35938 -0.16158 -2.66522 85 139 104
1.68754 -0.265737 -4.37636 168 224 213
2.00352 -0.382374 -6.00699 86 152 141
1.35494 -0.168862 -2.64339 135 201 160
1.31009 -0.167763 -2.4086 131 194 154
1.39042 -0.194258 -2.82038 93 134 119
-0.752209 0.556142 8.25904 99 135 183
1.70049 -0.326619 -4.44282 56 120 91
1.28686 -0.175424 -2.2955 79 137 126
1.66302 -0.329182 -4.23755 87 126 105
1.30297 -0.193829 -2.36326 88 153 121
2.93606 -1.01747 -10.957 191 232 235
-0.0688249 0.28497 3.56208 135 165 152
-0.182777 0.360325 4.17459 122 180 156
-0.0719062 0.308487 3.56385 117 175 151
1.69227 -0.449703 -4.38755 102 165 156
-0.224751 0.423973 4.36829 122 177 150
-0.197615 0.408114 4.23064 131 195 176
1.31461 -0.265039 -2.41507 126 210 168
1.31786 -0.276052 -2.43623 63 103 78
1.34844 -0.297587 -2.58112 82 136 106
2.89346 -1.32212 -10.6887 52 81 65
1.33074 -0.300951 -2.5014 70 119 99
-0.192343 0.461243 4.12838 39 60 45
1.49793 -0.417399 -3.37868 65 110 94
1.53884 -0.44337 -3.61584 104 138 127
1.57466 -0.466576 -3.77644 164 224 206
1.53344 -0.44866 -3.57464 105 157 140
1.30568 -0.302945 -2.36793 102 170 145
1.52695 -0.46409 -3.53995 73 109 97
1.53944 -0.471768 -3.60064 94 137 122
1.31466 -0.316644 -2.40616 95 150 125
2.80242 -1.38915 -10.1972 151 186 166
2.6719 -1.32084 -9.59046 35 68 61
-0.357591 0.627365 4.88613 15 63 39
2.67325 -1.36221 -9.5203 59 80 77
1.30635 -0.332588 -2.37204 80 133 106
-0.305932 0.617969 4.6246 28 79 52
1.33538 -0.355416 -2.52131 95 161 142
2.13449 -0.997787 -6.79482 108 150 143
2.39475 -1.20359 -8.18989 49 69 70
1.30475 -0.337433 -2.35921 142 234 183
2.60484 -1.38233 -9.21862 58 86 80
1.48737 -0.493905 -3.3422 255 254 255
1.52179 -0.519336 -3.51783 79 143 114
1.47941 -0.499688 -3.30753 131 146 138
1.38533 -0.420256 -2.79463 221 248 239
1.30206 -0.355654 -2.35442 68 140 117
1.48276 -0.510981 -3.3179 158 228 211
2.23026 -1.18183 -7.35078 34 55 52
-0.397404 0.75465 5.03692 135 219 171
1.50163 -0.536694 -3.41514 104 158 145
2.47514 -1.36833 -8.48961 139 184 158
1.56119 -0.60145 -3.73238 70 135 110
1.54493 -0.585748 -3.64284 91 149 131
2.17918 -1.17228 -7.11074 127 183 178
-0.601486 0.97334 6.17924 103 180 136
2.02225 -1.04373 -6.24404 102 123 125
1.74848 -0.799634 -4.7555 72 121 113
-0.529251 0.953103 5.77797 122 209 171
1.98352 -1.0406 -6.0202 68 102 92
2.31382 -1.34337 -7.73146 163 242 209
1.88448 -0.971857 -5.51149 73 126 116
2.27211 -1.34062 -7.54322 43 77 66
1.74581 -0.839648 -4.75639 92 152 134
3.08147 -2.19766 -12.1799 168 200 219
1.41391 -0.520334 -2.96925 98 154 141
1.68125 -0.814483 -4.43043 110 169 155
1.41689 -0.537829 -2.97828 101 171 140
1.96171 -1.11273 -5.93649 56 96 78
1.99686 -1.14517 -6.10075 149 195 176
1.7058 -0.858756 -4.5645 156 224 217
1.78988 -0.98323 -5.04488 84 131 115
1.80615 -1.00341 -5.13301 140 188 182
1.8296 -1.08377 -5.2406 74 93 66
1.37982 -0.567571 -2.78842 87 146 125
1.40107 -0.594304 -2.91747 91 155 133
2.26265 -1.66127 -7.84514 153 186 225
1.38336 -0.57879 -2.81804 68 113 94
1.56041 -0.79927 -3.80117 109 171 153
1.39097 -0.595205 -2.86334 60 92 73
1.97051 -1.30061 -6.03226 145 176 169
1.50386 -0.741515 -3.48864 108 152 139
1.49219 -0.736202 -3.4392 134 196 180
1.64466 -0.962337 -4.30874 99 142 115
1.93903 -1.33927 -5.80851 213 236 228
1.3646 -0.612764 -2.73985 142 210 175
1.5471 -0.869597 -3.78242 94 130 113
1.48112 -0.774265 -3.39821 125 189 170
1.36744 -0.62131 -2.75 87 155 120
1.47907 -0.783733 -3.38935 78 93 79
1.34604 -0.604352 -2.64895 69 116 90
1.88499 -1.3207 -5.517 56 72 55
1.35653 -0.632513 -2.70286 84 142 114
2.11572 -1.77022 -7.18747 128 176 194
1.3372 -0.618413 -2.60586 65 122 97
1.32628 -0.607061 -2.55624 93 156 136
1.40916 -0.748624 -3.01675 91 120 95
1.4878 -0.88351 -3.49477 111 141 116
3.53783 -4.0589 -15.4008 151 157 164
1.4009 -0.756066 -2.98875 143 207 188
1.4681 -0.867843 -3.38097 110 158 146
1.32099 -0.647372 -2.53655 61 112 92
1.40618 -0.782919 -3.0109 87 101 83
1.44281 -0.845607 -3.24581 126 190 161
1.52527 -1.0025 -3.75277 107 148 116
1.41841 -0.82436 -3.12007 115 151 134
1.44722 -0.86876 -3.27303 119 175 162
1.76479 -1.44627 -5.31821 197 228 243
1.43293 -0.85189 -3.19989 110 161 141
1.50121 -0.969984 -3.61847 111 153 128
1.38094 -0.770191 -2.90132 138 204 179
1.71052 -1.37191 -4.99332 169 206 220
1.80658 -1.54417 -5.59268 173 203 228
1.71758 -1.39561 -5.03532 102 106 117
1.75431 -1.47117 -5.28152 218 244 255
1.42898 -0.871206 -3.19183 112 154 137
1.70644 -1.40888 -5.0086 184 213 234
1.7425 -1.47513 -5.2255 153 185 214
1.38467 -0.799222 -2.92119 127 157 146
1.70254 -1.45176 -5.02077 212 240 251
2.88016 -3.53663 -11.9602 139 150 178
1.36231 -0.788264 -2.81338 135 210 189
1.40757 -0.881974 -3.1092 107 149 132
1.66341 -1.39733 -4.78821 198 227 241
1.43455 -0.939245 -3.28055 124 191 159
1.48926 -1.04116 -3.61002 124 151 135
1.35489 -0.789975 -2.76994 116 154 136
1.72233 -1.59115 -5.21588 160 189 226
1.35789 -0.884498 -2.86391 143 189 176
1.34363 -0.876354 -2.78795 92 128 112
1.36498 -0.942201 -2.94896 89 110 85
1.36661 -0.977553 -2.98866 120 171 143
1.32691 -0.882064 -2.71438 106 148 125
1.33216 -0.895722 -2.75365 127 192 166
1.33343 -0.920455 -2.78637 88 141 114
1.34358 -0.973155 -2.8809 91 111 92
1.35746 -1.01383 -2.98872 81 126 100
1.31919 -0.908467 -2.70151 105 147 116
1.96664 -2.58278 -7.20383 194 222 252
1.81658 -2.27364 -6.29371 152 151 153
1.75832 -2.15725 -5.91631 160 158 158
1.69433 -2.30644 -5.84775 114 132 161
1.64356 -2.23942 -5.55148 121 149 184
1.44657 -1.64125 -4.09243 207 212 211
1.45794 -1.6843 -4.17577 208 213 214
1.55878 -2.11967 -5.0708 130 144 167
0.511614 -0.976515 1.61284 157 136 134
0.575779 -0.783962 1.33183 92 68 70
0.574905 -0.777919 1.32343 143 227 173
0.547624 -0.843741 1.443 154 225 175
0.576664 -0.769121 1.32861 150 204 169
0.579964 -0.748233 1.29544 53 54 50
-0.257021 -2.65657 4.03936 100 168 151
0.492105 -1.00706 1.70216 144 119 129
0.512466 -0.955845 1.63243 167 169 169
0.580326 -0.723441 1.28245 80 104 74
0.510587 -0.955611 1.645 150 139 141
0.554497 -0.811143 1.42159 73 63 76
0.0487044 -1.9585 3.11419 112 172 161
0.509681 -0.95048 1.65974 253 255 255
0.579013 -0.724987 1.30174 57 94 68
-0.199137 -2.50499 4.04608 149 207 179
0.56888 -0.760301 1.3865 225 220 222
0.553177 -0.79446 1.46187 153 154 192
0.549216 -0.79738 1.47273 252 250 249
0.570512 -0.757097 1.3994 255 254 255
0.503975 -0.932491 1.71686 201 237 243
0.548728 -0.789231 1.47655 108 87 85
