ply
format ascii 1.0
element vertex 669
property float x
property float y
property float z
property uchar blue
property uchar green
property uchar red
end_header
-1.86955 -1.39878 3.50939 105 173 150
-0.523981 -1.33612 3.38254 133 186 159
-0.46172 -1.3086 3.37087 189 247 212
-0.435921 -1.27307 3.37509 167 255 219
-2.05534 -1.32603 3.54275 142 204 168
-0.305996 -1.22553 3.38019 54 106 88
-0.341296 -1.22246 3.37728 146 241 196
0.0647967 -1.15054 3.37892 139 219 196
-0.271468 -1.12301 3.39226 108 177 134
-0.27046 -1.12307 3.39363 122 201 157
-2.19386 -1.1585 3.51263 102 152 134
-0.0272972 -1.06222 3.39867 75 145 114
-0.178049 -1.06563 3.41115 81 139 115
-0.427788 -1.04977 3.42028 56 109 69
-0.13353 -1.03192 3.41043 103 185 143
0.757436 -0.997855 3.33899 160 216 197
-1.34235 -0.971657 3.5277 89 160 140
0.180447 -0.88137 3.39744 63 121 103
-0.0269639 -0.872955 3.4215 51 116 107
0.0537298 -0.81736 3.42348 79 129 119
0.0914544 -0.785191 3.42224 80 136 125
0.0319429 -0.730256 3.43971 95 138 135
-0.279374 -0.703937 3.47038 68 112 99
-1.97243 -0.640273 3.64878 66 126 108
-0.0904205 -0.558162 3.47075 70 117 108
-0.0851321 -0.556089 3.46696 82 140 135
-2.02916 -0.429088 3.69352 96 132 120
-1.0695 -0.354389 3.59243 81 155 129
-0.0765644 -0.13287 3.53151 62 125 109
-0.959144 0.268375 2.62859 142 231 198
-0.304764 -1.40831 3.3555 73 135 111
-0.442298 -1.40418 3.36434 75 153 112
-0.0795524 -1.38701 3.35156 88 153 128
-0.562457 -1.39731 3.38368 76 124 95
-1.63548 -1.4319 3.48053 97 156 142
-0.400308 -1.37771 3.36341 156 241 189
-0.4012 -1.37852 3.36462 158 242 187
-0.0809579 -1.37305 3.34844 165 232 195
-0.291696 -1.34886 3.36099 81 132 105
-0.798175 -1.36422 3.40639 78 148 117
-0.429718 -1.34104 3.36379 84 140 119
0.0452714 -1.31828 3.34542 86 154 129
-0.495088 -1.3267 3.38296 78 127 105
-1.22609 -1.33118 3.44939 85 114 91
0.797698 -1.24918 3.30601 74 111 103
-1.29051 -1.27425 3.46216 88 143 126
-0.489436 -1.24751 3.39033 129 201 154
0.0541564 -1.22042 3.3739 62 89 79
-0.359045 -1.18019 3.39105 161 238 201
-0.570052 -1.15877 3.41741 156 214 185
-1.29421 -1.1389 3.49105 83 125 114
-0.459379 -1.05777 3.4293 32 114 72
-1.47651 -1.06526 3.50905 60 87 71
-0.13353 -1.03192 3.41043 103 185 143
-1.19375 -1.05206 3.49386 81 127 114
0.0774493 -1.02099 3.39144 66 128 114
-0.632038 -1.00553 3.45154 92 152 118
-0.368885 -0.988737 3.4306 239 255 255
-0.272064 -0.967636 3.43037 61 125 96
-0.405003 -0.944636 3.4459 34 97 65
-1.38091 -0.954309 3.52886 91 144 131
-1.52469 -0.939115 3.54613 81 137 126
-0.794908 -0.880685 3.48743 107 156 140
-0.650955 -0.796977 3.4947 83 126 111
-1.37455 -0.753694 3.55401 104 156 138
-0.145359 -0.697067 3.45687 93 136 125
-1.32177 -0.704963 3.55842 99 143 126
-0.466625 -0.573054 3.5134 109 168 160
-0.398265 -0.550003 3.50349 84 123 107
-2.20566 -0.528674 3.68154 154 205 171
-0.213782 -0.494587 3.49253 41 86 77
-1.99868 -0.454935 3.68285 77 149 119
-0.0691529 -0.251788 3.51587 68 115 106
-0.0469363 -0.0309285 3.54687 58 111 101
-1.30214 0.592217 3.66624 39 81 70
-0.354392 0.735217 3.69562 69 141 119
-1.36385 0.931033 3.68938 40 66 53
-1.25404 -1.44353 3.42989 84 129 120
-1.1957 -1.44297 3.43371 82 131 111
-0.335207 -1.41424 3.36053 104 157 130
-0.490774 -1.41431 3.37648 94 135 120
-0.30471 -1.40843 3.35644 73 135 111
-0.10079 -1.39216 3.34623 155 235 206
-0.0785142 -1.38845 3.34228 82 132 114
0.862859 -1.36456 3.29201 94 147 137
0.86412 -1.36472 3.29343 96 147 139
-1.28262 -1.42038 3.44448 99 132 125
-1.83682 -1.43221 3.49983 102 161 130
-0.00520832 -1.35577 3.35809 78 131 118
-1.83472 -1.40508 3.51395 108 165 150
-1.51053 -1.38357 3.46809 85 124 116
-0.525044 -1.34144 3.37389 79 127 101
-0.379208 -1.33074 3.36126 162 232 191
-0.567515 -1.32146 3.39483 74 142 125
-0.0209817 -1.30391 3.35342 72 115 100
0.228717 -1.28818 3.34554 146 220 194
-0.413125 -1.29387 3.38225 86 143 118
-1.13898 -1.30761 3.42919 111 150 125
-0.411341 -1.29392 3.38272 101 148 126
-1.51755 -1.32639 3.47954 73 108 98
-1.14163 -1.30805 3.43421 90 123 108
-1.16835 -1.29837 3.42641 179 241 189
-1.14922 -1.30153 3.4343 174 242 201
0.0301701 -1.26347 3.35421 42 74 57
-0.360122 -1.26692 3.37144 49 87 69
-0.493987 -1.26555 3.38597 159 239 192
0.811265 -1.2317 3.30834 79 128 114
-0.273999 -1.25479 3.38102 67 115 87
0.830354 -1.22146 3.3032 93 121 115
-1.29054 -1.27425 3.46226 90 147 132
0.290546 -1.22857 3.34582 158 226 215
0.262875 -1.2319 3.35826 71 140 125
0.0560008 -1.23209 3.36547 50 111 91
-2.03827 -1.29333 3.54182 138 224 190
-0.600111 -1.23693 3.40955 87 140 107
-0.308169 -1.22733 3.38267 45 91 72
0.0544639 -1.22009 3.36888 68 92 82
-1.31312 -1.25865 3.47418 59 103 96
-2.03084 -1.2782 3.5462 136 215 182
-0.538677 -1.22094 3.40169 60 93 72
-0.279151 -1.21337 3.37624 145 243 197
-0.217017 -1.20364 3.37562 170 214 183
-0.215634 -1.20456 3.39047 76 108 97
-1.29466 -1.23304 3.47596 77 137 113
-1.63662 -1.24352 3.51201 86 142 123
-0.534149 -1.20366 3.40591 184 249 203
-0.337816 -1.19467 3.3801 51 102 65
-1.41074 -1.22617 3.47554 86 121 111
-1.26192 -1.22032 3.47261 76 98 96
-1.91798 -1.24305 3.54737 117 155 155
-1.60312 -1.22816 3.50924 101 146 137
-0.456336 -1.18714 3.39049 59 121 97
-0.261876 -1.18235 3.37527 82 161 134
-1.65987 -1.22351 3.51322 106 158 134
0.0703959 -1.17399 3.37142 79 125 112
0.072791 -1.15925 3.37665 171 237 202
-0.346374 -1.16294 3.39094 79 117 87
-0.568515 -1.16293 3.41588 72 131 103
-1.92007 -1.20301 3.54508 91 150 142
-0.115535 -1.14637 3.38405 48 95 63
-0.305585 -1.1481 3.39825 161 230 185
-0.243048 -1.14565 3.39512 181 249 214
-0.570456 -1.15391 3.43103 69 105 83
-0.959313 -1.16142 3.46301 95 151 138
-0.492935 -1.14497 3.4137 94 136 111
-0.135709 -1.13791 3.39422 59 86 53
-0.266088 -1.12487 3.38786 48 106 78
-2.05456 -1.17825 3.56295 88 144 125
-0.158628 -1.12531 3.39775 55 87 62
-0.27027 -1.12248 3.39614 125 205 162
-0.330642 -1.12248 3.40258 50 108 80
-0.310582 -1.11833 3.39622 66 139 107
0.121467 -1.1076 3.38208 64 114 96
-1.29413 -1.13896 3.49236 87 129 118
-0.217402 -1.1009 3.3989 78 124 102
-0.215868 -1.10096 3.40058 81 115 104
-0.412493 -1.09352 3.40079 28 90 60
-0.103979 -1.09378 3.39304 94 150 121
-0.268487 -1.09131 3.39841 95 141 122
-0.340898 -1.08646 3.4008 102 177 133
-0.306269 -1.08821 3.41158 159 244 216
-0.131768 -1.08261 3.39402 81 149 102
-2.03849 -1.13127 3.56908 140 215 194
-1.49386 -1.11295 3.50632 172 238 203
-0.702775 -1.08903 3.44661 83 138 119
-0.176701 -1.07168 3.40771 184 247 207
-0.330385 -1.07059 3.40473 57 114 81
-1.77236 -1.11115 3.54265 97 139 132
-0.0254792 -1.06116 3.39888 63 133 102
-0.318378 -1.06203 3.41955 43 97 68
-0.365852 -1.0566 3.40586 135 242 180
-0.328121 -1.05879 3.41658 49 85 63
-1.59426 -1.08927 3.52408 93 119 106
-0.175513 -1.05324 3.41072 37 89 52
-0.0384231 -1.0469 3.39864 62 120 92
-0.474176 -1.05498 3.43567 28 90 44
-0.122189 -1.04515 3.40717 99 173 139
-1.28346 -1.06896 3.49202 108 161 151
-0.150887 -1.04001 3.40024 41 87 65
0.00883755 -1.03268 3.39819 65 129 117
-1.78972 -1.07576 3.56921 93 141 129
0.0777516 -1.021 3.39179 66 128 114
-1.19346 -1.05166 3.49574 80 130 118
-1.47168 -1.05081 3.51052 104 144 132
-0.20925 -1.02243 3.40923 67 119 89
-1.49938 -1.05186 3.52211 87 118 109
-1.55989 -1.05051 3.53295 78 127 113
-0.778646 -1.01556 3.46339 61 118 103
-0.424738 -1.0039 3.43934 44 123 79
-1.40761 -1.02214 3.52403 68 110 99
-1.40946 -1.02213 3.5244 107 142 128
-1.36741 -1.01478 3.51601 75 118 103
-1.82236 -1.02633 3.57663 80 127 124
-1.82119 -1.02634 3.57606 57 110 101
-2.02514 -1.02365 3.58838 84 141 120
0.0312809 -0.942754 3.40646 106 158 148
-0.52464 -0.946205 3.45163 66 129 109
0.186058 -0.921553 3.39829 71 121 111
-0.415225 -0.931959 3.45643 72 146 122
-0.370896 -0.928183 3.44745 42 104 74
-0.786516 -0.931802 3.4836 92 139 123
-0.127473 -0.909871 3.42238 61 105 88
-1.58381 -0.935087 3.55226 104 141 131
-0.276216 -0.903964 3.44102 72 124 106
-1.26289 -0.918515 3.52859 67 108 93
-1.26072 -0.918667 3.52188 101 139 127
-1.61088 -0.921918 3.55663 100 128 139
-0.0528631 -0.887384 3.42465 76 143 122
-1.00029 -0.882284 3.51479 94 154 148
-1.53782 -0.881299 3.56396 101 144 135
0.570133 -0.833296 3.38116 62 120 102
-1.45484 -0.873263 3.54852 100 141 134
-1.27761 -0.851935 3.54258 181 232 224
-0.399857 -0.816066 3.46759 64 113 91
-0.690785 -0.806843 3.48726 75 115 103
-0.0134971 -0.789303 3.43492 81 142 122
-0.633493 -0.794775 3.47749 82 140 112
-0.632333 -0.794277 3.48639 81 136 121
0.0827876 -0.779366 3.42809 65 96 87
-1.28612 -0.796273 3.54541 115 161 148
-1.30452 -0.770516 3.55592 94 134 123
0.133104 -0.740835 3.4212 86 140 127
-1.37566 -0.753504 3.55675 99 156 135
0.331886 -0.721635 3.41229 64 93 98
-0.107261 -0.715566 3.45307 64 122 104
-0.142731 -0.696577 3.45263 84 127 114
-0.141589 -0.696568 3.45285 84 125 110
-0.506735 -0.697954 3.49402 84 132 120
-0.0928719 -0.683092 3.45004 74 142 125
-0.158801 -0.680603 3.45754 89 133 120
-0.513147 -0.683704 3.49016 74 127 118
-1.52433 -0.691009 3.58386 96 146 134
-1.52291 -0.689122 3.5911 82 122 117
-0.138087 -0.637869 3.45658 138 199 179
-0.137463 -0.634937 3.45818 155 212 187
-2.18943 -0.670036 3.66942 100 140 138
-0.140234 -0.610081 3.46129 169 234 213
-1.34648 -0.619153 3.57772 73 135 119
-0.765213 -0.605296 3.53598 61 120 99
-0.466598 -0.573008 3.51378 78 132 127
-0.113181 -0.512932 3.47445 168 227 212
0.107466 -0.511333 3.4594 60 112 102
-0.210019 -0.510838 3.48513 121 177 142
-0.155895 -0.509378 3.48883 169 237 220
-0.219237 -0.505768 3.48772 50 80 67
-1.30517 -0.482811 3.59845 95 137 120
-0.437651 -0.469691 3.52058 64 103 95
-0.0784107 -0.422129 3.49285 107 204 160
-2.02462 -0.428409 3.69266 101 127 121
-1.27548 -0.398685 3.59695 82 123 115
-0.144349 -0.368888 3.50912 94 141 133
-0.203486 -0.315322 3.51429 211 243 232
-1.79619 -0.314056 3.68197 136 180 163
-0.0687145 -0.25288 3.51075 62 108 96
-0.657116 -0.160607 3.57987 76 138 122
0.671609 -0.128522 3.47282 72 128 117
0.534285 -0.106867 3.4849 110 159 151
-2.13054 -0.0797838 3.74003 117 153 147
-0.393988 -0.0497838 3.5745 63 123 105
-0.0468974 -0.0312676 3.54563 61 111 99
-0.347238 -0.00479762 3.58141 76 99 84
-0.0519041 -0.00868141 3.55324 86 149 133
-2.27935 0.00654289 3.75037 72 96 94
-0.458353 0.022501 3.60639 66 105 79
-1.14861 0.11569 3.66259 103 158 133
0.933805 0.11949 3.46927 100 149 129
0.3153 0.123025 3.53609 77 124 108
-0.804405 0.244785 3.65585 62 142 105
-0.86969 0.295312 3.67251 51 96 63
-1.19676 0.321043 3.71256 68 127 112
-0.843625 0.3851 3.68426 42 88 66
1.00101 0.476231 3.52779 61 114 94
0.481536 0.491053 3.57992 62 128 103
-0.368121 0.512111 3.66554 40 112 89
-1.34325 0.558051 3.64855 57 102 85
-1.13906 0.69454 3.76335 72 117 90
-1.09778 0.700197 3.76178 71 137 102
-0.484242 0.712151 3.70359 61 118 93
-1.09271 0.746045 3.75565 64 116 92
-0.63293 0.768411 3.72127 21 78 57
-0.251584 0.761704 3.6903 106 173 146
-0.699129 0.790028 3.73327 73 122 102
-0.797588 0.797579 3.7508 54 113 92
-1.41198 0.817585 3.69246 144 223 204
-0.523455 0.842915 3.72076 66 124 99
-1.40911 0.871538 3.68773 54 88 77
-0.476571 0.91507 3.73577 145 218 186
-0.483578 0.921101 3.73006 94 135 130
-0.537481 0.944854 3.7374 68 135 114
-0.521627 0.966114 3.74178 167 228 200
-0.542607 0.97791 3.7457 55 97 74
-0.451114 0.97108 3.71662 124 187 167
0.0814071 0.960505 3.68446 65 95 82
-0.54957 0.978801 3.74463 117 189 143
-0.56094 0.995253 3.73741 134 214 171
-0.574058 1.00806 3.73667 54 95 67
-1.4372 -1.42329 3.44564 73 130 109
-0.106966 -1.38381 3.35109 93 145 127
-2.11603 -1.44287 3.51886 85 138 125
-0.400194 -1.37749 3.36142 156 241 189
-0.488607 -1.36115 3.37199 87 123 106
-1.43407 -1.39354 3.45985 80 135 116
-0.339806 -1.35502 3.36679 64 114 90
-0.456434 -1.34794 3.36442 88 131 94
-0.436809 -1.34539 3.36489 50 89 68
-1.73403 -1.39532 3.49677 85 149 127
0.149388 -1.33398 3.3394 55 90 70
-0.302098 -1.33914 3.36848 140 235 191
-1.14586 -1.34946 3.44847 92 132 114
0.079176 -1.30904 3.34929 42 104 80
1.04053 -1.27614 3.28413 91 140 118
-1.10962 -1.33222 3.43776 101 128 119
-0.261707 -1.30693 3.36962 79 143 107
-1.80434 -1.35524 3.51004 73 126 116
-0.334252 -1.29049 3.36189 66 151 113
0.206249 -1.28307 3.34565 72 104 87
-1.13903 -1.30821 3.433 106 145 124
-1.3819 -1.31839 3.46542 85 131 119
-0.298342 -1.28179 3.36986 64 120 99
-0.265107 -1.27684 3.37152 79 120 105
-0.393702 -1.27245 3.37609 28 81 48
-0.484981 -1.27243 3.38237 83 111 98
-0.0111968 -1.26181 3.35971 60 87 71
0.035544 -1.25942 3.37353 60 103 90
-1.96553 -1.31139 3.54173 99 147 135
0.830799 -1.22159 3.30513 93 121 115
-1.11192 -1.27011 3.44428 88 122 105
0.293123 -1.2266 3.35079 190 241 233
-2.09526 -1.28703 3.52126 63 106 97
0.199987 -1.22523 3.36681 88 137 121
-1.31244 -1.25831 3.46977 85 127 120
-1.54105 -1.26816 3.49622 87 132 123
0.0542209 -1.22021 3.37074 68 92 82
-2.07022 -1.26942 3.53724 71 107 91
-0.536592 -1.21877 3.39978 61 98 78
-1.56807 -1.25368 3.50281 86 129 120
-0.389633 -1.19249 3.38051 66 130 100
0.107278 -1.18942 3.36932 50 105 86
-0.336957 -1.19312 3.39016 47 98 64
-1.91314 -1.2426 3.54052 114 155 148
-1.60237 -1.22878 3.5144 93 136 127
-1.28573 -1.19778 3.47803 103 142 134
0.318506 -1.15426 3.36363 104 146 135
0.0261815 -1.15459 3.38163 51 84 69
0.0590508 -1.1388 3.38284 86 147 127
-0.958628 -1.161 3.4544 106 161 144
-0.547047 -1.15063 3.4213 160 239 188
-0.500138 -1.13887 3.41604 162 242 189
0.0504531 -1.12519 3.39143 48 90 72
-0.266894 -1.12476 3.38503 41 88 62
-2.05534 -1.17834 3.56468 76 132 113
-2.12446 -1.16214 3.52869 36 82 76
-2.04297 -1.16718 3.56562 67 133 114
0.149029 -1.10525 3.38539 80 133 123
-1.29404 -1.139 3.49314 87 127 125
-2.05839 -1.13098 3.54879 57 99 88
-0.358044 -1.07905 3.40664 81 134 95
-2.03702 -1.13114 3.56583 140 211 195
-0.546879 -1.08701 3.43382 83 115 96
0.033331 -1.0708 3.40356 124 171 155
-1.35389 -1.09921 3.49736 113 156 135
-0.0253247 -1.06119 3.40047 70 142 112
-1.34161 -1.08566 3.49168 58 101 90
-0.373084 -1.05222 3.41376 48 89 57
-1.4277 -1.08096 3.50974 73 115 92
-1.78555 -1.07536 3.5622 83 133 121
-1.5858 -1.05574 3.51848 119 155 141
-1.38688 -1.04666 3.50108 67 100 85
-1.5589 -1.05046 3.52964 62 111 97
-1.51144 -1.03767 3.52294 85 118 104
-0.639866 -0.977929 3.44954 61 105 76
-0.271916 -0.951806 3.42511 72 120 91
-1.95844 -0.996544 3.59539 96 136 131
-0.405838 -0.944594 3.44822 52 114 84
-1.37807 -0.952512 3.52792 105 154 140
-2.05909 -0.962121 3.60378 79 106 102
-0.432861 -0.890241 3.45573 69 133 97
-2.07091 -0.921435 3.62722 88 131 122
-0.35805 -0.832677 3.4529 83 136 103
-0.671702 -0.834397 3.48952 77 135 124
-0.688028 -0.806253 3.48622 65 105 93
0.394996 -0.783081 3.39728 88 131 120
-2.16944 -0.834542 3.63819 44 75 68
-1.28235 -0.795886 3.54401 88 129 114
-1.2886 -0.795045 3.55843 92 152 142
0.331954 -0.721607 3.41263 64 93 98
-1.35019 -0.748561 3.55875 72 92 79
-0.106363 -0.71554 3.45349 72 125 111
-1.9667 -0.744532 3.63695 78 125 109
-1.78574 -0.707025 3.61316 90 120 109
1.11582 -0.6474 3.36856 94 147 133
-0.266777 -0.655875 3.47529 181 250 229
-0.144846 -0.628416 3.47222 116 151 137
-0.140334 -0.610399 3.45845 167 236 215
0.166232 -0.6023 3.43969 93 151 133
-0.782976 -0.613394 3.52434 66 118 95
-0.113728 -0.602318 3.46381 139 239 211
-0.113017 -0.592278 3.46807 77 111 105
-0.782508 -0.599189 3.53072 78 118 106
-0.137841 -0.575448 3.46523 65 105 93
-0.155078 -0.555175 3.47362 56 108 91
-0.149846 -0.545779 3.4767 179 253 235
-0.351978 -0.53942 3.50181 80 132 115
-0.157155 -0.422917 3.51542 86 145 137
0.668224 -0.405786 3.43312 159 227 204
-1.06565 -0.351781 3.59244 52 128 110
-2.08887 -0.331622 3.70519 95 126 123
-0.477628 -0.290204 3.5501 65 106 98
-0.0931959 -0.171643 3.5232 122 181 160
-0.0663812 -0.158631 3.53216 55 98 85
-1.28562 -0.136033 3.65225 99 127 128
-0.0332832 -0.111144 3.52799 229 252 254
0.714939 -0.0977629 3.47526 72 119 97
-0.0650034 -0.0881565 3.53428 64 120 107
-2.2282 -0.0371887 3.76855 102 135 121
0.769218 -0.0151373 3.47899 95 138 117
-0.0522198 -0.00851674 3.55381 53 116 100
-2.2045 0.0169337 3.7645 86 102 101
-0.368134 0.107767 3.60418 135 201 189
-1.14988 0.119618 3.67169 66 112 93
-0.191741 0.121179 3.58612 80 148 125
-1.10602 0.181995 3.67773 107 157 139
-1.22654 0.362035 3.71222 80 139 125
-1.32974 0.416675 3.73894 139 183 176
-1.282 0.442708 3.73433 57 110 96
-0.328765 0.448219 3.64697 41 95 72
-1.58221 0.522035 3.79766 75 104 89
-0.496416 0.554147 3.67056 76 137 117
-0.850036 0.57469 3.72438 239 255 255
-1.60616 0.635843 3.8122 93 116 101
-1.30971 0.609417 3.65993 54 79 65
-1.40381 0.620567 3.60976 60 95 85
-0.601004 0.644416 3.7049 85 151 116
-0.346421 0.645364 3.67125 61 110 82
-1.10246 0.685655 3.75916 60 114 84
-1.62009 0.71191 3.81176 165 227 227
-1.56386 0.729785 3.75223 148 176 170
-0.42359 0.771028 3.69806 41 108 81
-0.928864 0.792429 3.75912 52 131 92
-1.41502 0.819246 3.69578 127 211 193
-0.645718 0.876082 3.74543 55 115 91
-0.621827 0.874206 3.72717 59 104 85
-1.40969 0.873017 3.69066 66 96 83
-1.87054 0.938679 3.89022 76 112 96
-1.37405 0.89255 3.69422 173 240 211
-1.20907 0.866869 3.55208 220 251 252
-0.476969 0.913068 3.73184 156 232 200
-1.6696 0.9534 3.85451 140 196 185
-0.481116 0.921557 3.73101 85 111 95
-1.67604 0.95981 3.86693 166 223 215
-0.507159 0.949838 3.74289 66 101 87
0.392445 0.940185 3.66161 234 255 253
-0.550065 0.978166 3.74341 97 174 130
-0.262241 -1.37851 3.36645 94 140 128
-0.298871 -1.36067 3.36224 171 248 214
-0.295331 -1.36124 3.36731 170 247 209
-1.37471 -1.38512 3.44954 78 127 107
0.0920976 -1.34665 3.34894 69 121 103
-0.315587 -1.3496 3.37759 75 127 104
-0.195139 -1.34385 3.36461 100 146 134
-0.459382 -1.32206 3.37473 56 76 63
-0.306881 -1.32138 3.365 64 125 99
-1.141 -1.3457 3.43903 101 141 123
-0.405997 -1.31398 3.37254 49 99 67
-0.35345 -1.30262 3.35848 56 117 79
0.21549 -1.29987 3.34674 66 106 95
1.04256 -1.27406 3.28147 89 139 115
-1.22287 -1.32976 3.45151 82 116 99
0.0651691 -1.28499 3.35472 48 96 84
-1.38214 -1.31852 3.46689 94 142 130
-1.19035 -1.30719 3.4518 105 139 115
-0.326369 -1.27037 3.36329 53 108 69
1.14315 -1.23794 3.28027 64 128 109
-1.15106 -1.28815 3.44765 63 99 83
-2.10108 -1.30432 3.50678 60 106 93
0.241108 -1.24453 3.35627 68 134 105
-1.17727 -1.27753 3.45567 65 101 87
-1.11308 -1.27081 3.45298 139 174 160
0.293719 -1.22686 3.35465 197 241 235
-2.09298 -1.2867 3.51727 65 108 99
-0.434806 -1.23052 3.37725 157 245 199
-2.04166 -1.28458 3.55693 103 162 147
-2.03359 -1.28401 3.54926 74 131 116
0.0844956 -1.20901 3.36868 67 119 101
-1.91503 -1.24285 3.54427 100 141 136
0.710639 -1.15758 3.32231 178 245 218
-0.940921 -1.19363 3.44175 78 139 113
-0.644239 -1.17511 3.41687 77 121 92
-0.135569 -1.16015 3.39214 70 117 85
-0.282781 -1.15424 3.38725 73 116 83
-0.254168 -1.15324 3.38636 61 101 83
-0.445883 -1.1473 3.38749 43 94 56
-0.510673 -1.14518 3.40547 62 96 72
-0.448718 -1.14811 3.40627 50 89 57
-0.391958 -1.1432 3.40993 66 118 95
-0.152086 -1.13527 3.3932 163 234 191
-2.08468 -1.18584 3.54341 149 211 195
-0.319341 -1.09792 3.40564 87 139 109
-2.06136 -1.1312 3.55441 60 102 91
-1.08715 -1.10698 3.46216 76 112 100
-0.692185 -1.0888 3.43662 88 162 120
-0.690658 -1.08885 3.43817 46 98 75
-0.326667 -1.06188 3.40681 89 123 93
-1.31983 -1.08179 3.50325 86 148 130
-2.02492 -1.1014 3.58217 90 144 131
-1.48248 -1.06732 3.51339 101 120 105
-0.761934 -1.04525 3.45687 68 115 83
-0.417869 -1.0312 3.43195 56 93 67
-0.0370467 -1.02382 3.40154 52 87 73
-2.06638 -1.0721 3.57418 71 129 118
-0.18445 -0.988273 3.41831 36 96 65
-0.61959 -0.988378 3.44691 73 121 93
0.57905 -0.952783 3.36738 80 126 114
-0.0737336 -0.966043 3.42179 82 155 123
-0.701092 -0.96357 3.46632 77 132 107
-0.525991 -0.948987 3.4582 80 140 116
-0.480952 -0.945545 3.46173 78 151 125
-0.00614414 -0.936259 3.41683 60 109 93
-2.0596 -0.982902 3.59774 96 162 137
-1.73792 -0.96985 3.5742 99 139 134
-1.37909 -0.952463 3.53204 77 125 113
-0.706663 -0.925348 3.47381 74 132 108
-0.230448 -0.907765 3.4323 173 225 215
1.38997 -0.861813 3.3173 91 149 138
-2.18355 -0.884609 3.59347 141 192 178
-0.664849 -0.835412 3.46869 97 160 140
-0.0719253 -0.826989 3.42934 87 135 117
0.208726 -0.817316 3.41169 63 111 99
-0.600446 -0.804038 3.48239 66 113 87
-0.453368 -0.803055 3.47322 61 131 95
-0.0987938 -0.774431 3.45392 101 167 142
-2.15105 -0.81911 3.64988 86 127 120
-0.0357535 -0.752017 3.44346 116 163 137
-1.3793 -0.729089 3.55761 91 137 114
0.626946 -0.686438 3.39421 218 240 238
-1.52292 -0.690167 3.58726 85 126 111
-0.147645 -0.658456 3.46261 101 155 132
-0.160863 -0.654296 3.45837 167 237 224
0.0982897 -0.650105 3.43521 84 107 99
-0.207981 -0.63815 3.46945 90 136 113
-0.122041 -0.633392 3.45619 45 85 67
-1.51191 -0.652145 3.58852 125 177 159
-1.39995 -0.637169 3.58306 114 150 128
-1.3997 -0.636793 3.58699 96 124 105
-0.939324 -0.61023 3.53887 72 141 108
-0.11396 -0.591564 3.47408 68 116 110
-0.137635 -0.575925 3.46134 75 115 103
-1.27022 -0.575547 3.58105 95 122 112
-0.0864131 -0.558121 3.46933 78 121 110
-1.06406 -0.517733 3.56909 97 166 145
-0.215702 -0.504604 3.48912 75 111 89
0.0782764 -0.453929 3.47147 226 243 239
-1.99002 -0.451445 3.67861 74 153 120
-1.99077 -0.431064 3.65736 90 115 101
-2.00684 -0.426105 3.68937 71 109 97
-1.37634 -0.420577 3.60835 118 171 151
-1.06682 -0.351231 3.59864 69 149 132
-0.107942 -0.342911 3.50825 72 118 105
-1.7387 -0.33483 3.65984 145 197 187
-1.71357 -0.303973 3.65932 84 109 95
-1.84334 -0.306483 3.69493 88 133 117
-1.79687 -0.306343 3.68032 147 207 196
-1.71947 -0.29243 3.66364 90 134 117
-1.28763 -0.134414 3.65912 92 132 131
0.677598 -0.123284 3.48055 62 122 112
-2.17707 -0.116623 3.71881 109 156 147
-2.1966 -0.108478 3.75315 98 141 132
-0.327111 -0.0781419 3.56244 150 211 197
0.774453 -0.000150901 3.47834 226 253 243
-0.40828 0.114633 3.61159 120 155 145
-2.27079 0.13282 3.78174 86 116 111
-1.10712 0.182691 3.67987 103 153 135
-0.603521 0.225989 3.64233 92 119 103
-0.806424 0.245343 3.66201 62 142 105
-0.629192 0.246346 3.65668 65 137 117
0.444615 0.239776 3.5408 74 114 102
-1.33009 0.41561 3.73607 95 149 136
-1.51515 0.453229 3.75539 98 147 133
-1.21081 0.488811 3.73077 71 105 75
-1.52784 0.492829 3.77145 87 114 105
-1.56985 0.502075 3.76246 86 112 98
-2.01004 0.513884 3.82966 94 117 112
-1.56843 0.51368 3.76872 96 126 113
-1.98197 0.533957 3.82466 94 106 88
0.668856 0.550374 3.58093 111 170 155
-1.60229 0.640386 3.80512 92 102 90
-0.285972 0.633997 3.68103 90 160 124
-1.60889 0.658287 3.80797 176 225 223
-0.345814 0.648206 3.67762 91 143 120
-1.4385 0.644807 3.62356 123 179 166
-1.44986 0.659247 3.65542 62 63 54
-1.43152 0.784732 3.6797 66 98 87
-1.41247 0.875981 3.69649 82 121 106
-1.45617 0.880473 3.67538 51 81 68
-0.536026 0.889426 3.7295 40 87 61
-1.455 0.879298 3.6731 69 99 86
-1.214 0.850446 3.55024 68 94 78
-0.562089 0.90057 3.73758 78 127 107
-0.448631 0.906481 3.71874 130 220 184
-1.20953 0.866413 3.55119 216 250 250
-1.69303 0.956201 3.87751 90 131 123
-0.447767 0.91595 3.7373 137 212 166
-1.67871 0.963124 3.86718 161 226 217
-0.493711 0.935684 3.74395 120 182 170
-0.506558 0.951374 3.74827 45 74 58
-0.470131 0.956363 3.73888 116 175 154
-0.463052 -1.32058 3.36674 77 99 75
-0.410983 -1.31265 3.37683 54 95 68
-0.282182 -1.30526 3.37528 46 89 62
0.853525 -1.26146 3.29736 70 113 100
0.0236294 -1.26532 3.36023 56 95 80
-0.0291833 -1.25986 3.34588 78 117 101
-0.0149279 -1.2645 3.3666 72 101 85
0.0867969 -1.24967 3.35855 93 146 126
0.240538 -1.24353 3.35675 69 136 107
-0.365277 -1.24038 3.36898 168 248 205
-0.35435 -1.20575 3.36552 107 199 150
-1.98691 -1.25244 3.55256 122 174 164
-0.337214 -1.19363 3.39087 58 109 75
-1.29849 -1.1989 3.4751 70 110 98
0.324024 -1.15786 3.35717 211 242 243
-0.289544 -1.15627 3.38643 115 159 120
-2.0714 -1.19586 3.54804 65 107 96
-0.564883 -1.15545 3.42673 68 101 80
-0.322987 -1.14004 3.38381 131 217 177
-0.264829 -1.13427 3.38258 108 207 161
-1.93036 -1.17462 3.54461 81 115 108
-0.366392 -1.08636 3.41764 72 133 89
-0.406156 -1.06274 3.42027 60 95 69
-0.326598 -1.06192 3.40925 86 118 87
-0.410519 -1.0445 3.40387 113 203 160
1.06462 -0.919517 3.33124 119 170 162
-0.465155 -0.903189 3.45529 98 152 129
-0.0851159 -0.870417 3.42955 108 143 129
-0.662374 -0.830209 3.48813 92 144 127
-2.18117 -0.75982 3.65711 162 219 210
-2.13672 -0.701665 3.6537 85 134 126
-0.276066 -0.654908 3.47774 70 108 90
-0.144178 -0.63014 3.46049 62 101 80
-0.703518 -0.609742 3.52748 57 76 55
-0.779743 -0.602653 3.53169 81 114 99
-1.65715 -0.609829 3.61858 81 122 107
-0.141731 -0.573158 3.46419 85 128 115
-2.14684 -0.336962 3.70254 101 141 130
-1.81684 -0.295561 3.68527 120 156 142
-1.72061 -0.297931 3.66889 118 144 131
-0.566499 0.106834 3.62681 74 103 80
-0.380949 0.105175 3.59506 68 94 76
-0.193375 0.154696 3.58729 97 162 141
-0.579566 0.166856 3.63146 85 118 103
-0.287553 0.207801 3.60499 235 255 254
-0.603468 0.216689 3.62858 76 104 84
-0.625829 0.233064 3.62922 101 152 138
-0.559341 0.230976 3.62327 78 105 85
-0.596367 0.240224 3.60755 136 198 184
-2.21244 0.268593 3.81051 151 185 174
-2.07375 0.439098 3.81639 116 148 129
-2.04584 0.49575 3.83704 83 100 86
-2.07691 0.522489 3.8315 102 144 133
-1.986 0.516159 3.81888 162 208 195
-1.93656 0.571374 3.82689 118 150 139
-0.767794 0.628378 3.72653 79 127 103
-0.59231 0.645948 3.70612 90 161 118
-1.63021 0.696557 3.81706 102 123 125
-0.481898 0.729526 3.70817 66 105 84
-0.623814 0.835686 3.72647 127 182 163
-1.82919 0.910105 3.87144 255 255 255
-1.36831 0.871916 3.6893 33 44 34
-1.63138 1.01342 3.87225 86 117 108
