ply
format ascii 1.0
element vertex 612
property float x
property float y
property float z
property uchar blue
property uchar green
property uchar red
end_header
-0.217596 -0.752723 1.95754 159 207 179
-0.239006 -0.634666 1.97923 123 185 163
0.157771 -0.609596 1.96939 160 231 204
0.741295 -0.536726 1.89039 171 224 214
-0.107967 -0.559571 1.98681 136 203 158
0.338049 -0.486197 1.95283 74 126 108
-0.140348 -0.377177 1.68933 87 163 132
0.748856 -2.07183 -19.5653 77 91 80
-0.160548 -0.725516 1.954 61 129 94
-0.633769 -0.736725 2.00614 108 166 155
-0.100402 -0.669725 1.95744 71 143 113
-0.137597 -0.657918 1.96219 136 200 164
0.626105 -0.61617 1.89018 174 219 202
-0.10261 -0.581626 1.97875 130 195 179
-0.0938672 -0.580815 1.97709 135 159 149
-0.183286 -0.54354 1.98901 46 119 87
-0.0894493 -0.521349 2.00759 82 125 128
0.966684 -0.482112 1.86343 142 194 177
0.89408 -0.466895 1.87816 156 209 195
0.71647 -0.401942 1.91004 204 226 214
-0.14188 -0.304656 1.99476 60 130 83
0.839342 -0.265637 1.90778 108 149 141
1.18924 -0.251894 1.86042 118 131 123
1.07643 -0.222831 1.88504 213 233 228
-0.0133043 -0.202765 2.03622 179 200 192
-0.00464757 -0.189385 2.03988 195 232 236
0.97182 -0.154822 1.90723 131 170 168
1.13762 -0.143258 1.88502 83 113 108
-0.930628 -0.107443 2.17503 157 219 197
1.18749 -0.0669043 1.8896 63 125 103
0.949616 0.0555351 1.93099 162 137 151
-0.703388 0.0895651 2.17409 135 188 175
0.204228 0.1355 2.05029 71 132 118
0.0337306 0.138782 2.07391 71 82 72
0.579519 -0.728234 1.88242 100 141 134
-0.225715 -0.753549 1.9551 145 228 176
-0.672021 -0.771648 2.00657 114 182 157
-0.457198 -0.757388 1.98268 172 245 195
-0.213171 -0.740836 1.9616 75 134 103
-0.213521 -0.736327 1.95749 49 111 71
-0.655503 -0.750166 2.00983 109 162 142
-0.205256 -0.731768 1.95903 176 233 202
-0.297816 -0.711438 1.96418 58 102 63
-0.147191 -0.709244 1.96204 64 98 68
-0.228967 -0.708413 1.96891 47 85 57
0.854928 -0.664071 1.85414 99 99 115
-0.422668 -0.702562 1.97432 128 206 159
-0.27074 -0.701797 1.97356 102 131 106
0.841058 -0.658958 1.86069 98 149 142
1.1309 -0.642887 1.81547 138 206 159
1.03566 -0.648025 1.8362 120 152 133
0.708338 -0.659021 1.87493 103 164 138
-0.133699 -0.687737 1.96266 90 126 114
0.708597 -0.658648 1.87697 85 140 121
-0.0714701 -0.679385 1.9573 145 214 193
-0.219277 -0.681367 1.97234 87 130 109
-0.208213 -0.680478 1.9743 134 199 178
-1.23172 -0.737504 2.1438 92 170 153
-0.474192 -0.689098 1.99947 41 79 57
-0.111442 -0.672117 1.95446 94 163 126
-0.100027 -0.670264 1.95426 97 166 129
0.704156 -0.645484 1.8823 96 137 129
0.675516 -0.629116 1.88242 72 101 85
-0.159813 -0.655717 1.96826 119 185 150
0.927942 -0.587236 1.85921 92 121 136
-0.132713 -0.613458 1.97539 132 193 173
0.925532 -0.570974 1.86123 103 158 155
0.606162 -0.573655 1.89613 187 236 220
-0.0936193 -0.58443 1.97573 53 75 51
-0.0972901 -0.573116 1.98107 66 112 76
-0.140405 -0.566619 1.98005 57 126 105
-0.102693 -0.563451 1.98108 151 218 187
-0.0981255 -0.56335 1.97911 123 183 142
0.744435 -0.534252 1.89175 102 152 142
-0.100772 -0.556485 1.98682 104 138 101
0.757839 -0.525021 1.88876 129 166 164
0.795065 -0.5208 1.87921 103 103 117
0.784616 -0.513523 1.88403 107 122 131
0.555377 -0.51381 1.91726 214 255 240
0.947176 -0.492706 1.87055 115 163 151
-0.429647 -0.527962 2.01879 91 125 119
0.656993 -0.495064 1.90654 92 160 143
0.666163 -0.484997 1.90587 110 158 146
0.93295 -0.472231 1.87211 108 120 148
0.951653 -0.471476 1.87206 107 153 147
0.74206 -0.477404 1.89903 103 146 143
0.892686 -0.467651 1.8755 173 232 212
0.320723 -0.486524 1.95896 86 146 122
0.337579 -0.486424 1.9541 77 127 109
-0.370232 -0.480033 2.01005 91 144 111
1.10964 -0.441458 1.85135 104 143 152
0.750181 -0.45208 1.89453 84 121 113
-0.204068 -0.463683 2.00147 36 96 56
-0.195439 -0.461777 2.00546 44 62 39
1.11113 -0.391327 1.85414 92 126 125
0.716904 -0.401656 1.91095 204 226 214
0.909097 -0.35827 1.88975 205 236 229
0.924133 -0.336313 1.88666 82 133 125
-0.132351 -0.314961 1.99826 151 223 180
-0.141966 -0.304123 1.99629 57 125 78
1.06214 -0.263702 1.87586 205 232 229
1.19936 -0.215902 1.86448 212 244 239
1.10163 -0.210971 1.87214 84 110 117
1.10225 -0.211046 1.87196 90 107 120
1.00895 -0.205928 1.88882 148 146 165
1.09444 -0.202852 1.88031 143 155 159
0.921265 -0.192251 1.90658 110 103 106
0.0442928 -0.204272 2.03218 76 154 130
0.0883933 -0.203149 2.02792 64 101 93
-0.0132574 -0.202784 2.03617 179 200 192
-0.00457067 -0.188691 2.04163 192 231 233
0.797657 -0.158548 1.92751 208 229 227
0.895003 -0.156317 1.91691 188 223 213
0.794424 -0.141297 1.93278 164 167 175
-0.911044 -0.149087 2.16325 137 176 151
0.886349 -0.118413 1.92302 252 254 254
1.05489 -0.11378 1.90059 255 255 255
0.892668 -0.11405 1.92064 91 104 96
0.88635 -0.113346 1.92216 228 230 230
1.04744 -0.113072 1.90472 148 151 156
0.932806 -0.100913 1.90807 121 118 120
0.796638 -0.0976483 1.93975 132 134 135
0.82745 -0.0957613 1.93434 98 149 135
-0.933947 -0.101122 2.17604 157 205 187
0.142688 -0.0930702 2.03143 156 164 163
-0.231085 -0.0909775 2.05104 76 142 117
0.821293 -0.085336 1.93572 180 226 214
0.9188 -0.065105 1.92447 166 209 200
-0.260229 -0.0659354 2.04873 73 127 97
-0.951178 -0.0512558 2.18483 134 194 176
0.933638 -0.0383151 1.92842 128 128 134
0.00239556 0.0152591 2.06179 93 109 92
0.196654 0.0382806 2.04135 138 136 125
0.160765 0.0647047 2.04643 102 124 105
-0.776536 0.0715473 2.181 113 162 134
-0.682633 0.0759055 2.16849 143 174 177
-0.784113 0.0844951 2.18382 128 187 167
-0.0230764 0.0795824 2.07508 137 193 172
-0.698839 0.0921458 2.17398 90 130 112
-0.694795 0.0961133 2.177 143 204 194
-0.742993 0.102198 2.18267 124 166 155
-0.0470088 0.100432 2.07979 61 111 81
0.109542 0.103719 2.06135 129 161 150
-0.0347256 0.115755 2.08341 62 90 70
0.112944 0.125359 2.06432 141 173 162
0.014956 0.127695 2.07546 80 105 85
0.0352635 0.132114 2.07515 174 211 203
0.0399036 0.134939 2.07441 126 135 132
0.152851 0.138872 2.05755 120 146 132
-0.0313083 0.141202 2.07989 194 215 206
-0.29571 0.145685 2.12066 93 142 122
0.230772 0.150321 2.04872 181 223 200
0.223562 0.152824 2.0527 140 198 180
0.242525 0.153469 2.0504 132 186 173
0.151768 0.154816 2.05688 157 195 183
0.17858 0.156002 2.05915 67 104 78
0.23611 0.160259 2.05094 146 211 190
-0.246509 0.211227 2.12257 79 136 115
-0.295978 -0.749878 1.96072 67 115 73
-0.188217 -0.746298 1.957 88 125 109
-0.274661 -1.09913 2.87578 171 234 195
0.254112 -0.732811 1.9301 74 113 97
0.247649 -0.727094 1.93485 79 146 131
-0.148545 -0.722763 1.95227 48 103 76
-0.321263 -0.726254 1.96481 173 221 185
0.574006 -0.694899 1.88341 117 180 164
-0.632784 -0.736597 2.00476 92 145 136
-0.337698 -0.719801 1.96877 63 83 60
0.840652 -0.677528 1.856 88 95 104
-0.159967 -0.711129 1.96159 58 97 76
0.58291 -0.68405 1.88684 111 159 135
0.999525 -0.663762 1.83854 137 176 160
-0.270548 -0.701628 1.97473 96 124 104
0.841202 -0.659041 1.86023 93 139 133
1.13909 -0.636699 1.81175 46 77 46
0.847958 -0.648907 1.85941 95 110 119
1.13248 -0.633661 1.81753 58 90 71
1.14269 -0.632498 1.8131 118 168 134
-0.109775 -0.676445 1.95866 151 233 191
-0.242746 -0.676484 1.97291 72 94 70
-0.101418 -0.670642 1.95521 79 127 103
-0.110459 -0.670865 1.95939 88 136 112
0.675832 -0.637893 1.87926 92 150 125
-0.111698 -0.639324 1.95902 88 114 114
-0.144682 -0.634027 1.97176 37 104 83
1.16821 -0.582379 1.82011 94 147 133
0.938163 -0.589186 1.85659 127 147 158
-0.243405 -0.626184 1.98585 39 68 53
0.979399 -0.580008 1.8457 71 74 89
-0.129065 -0.609679 1.96898 45 72 52
-0.998267 -0.645662 2.11605 104 154 136
0.60948 -0.565621 1.89814 160 224 194
-0.124342 -0.576285 1.97957 88 140 133
0.101726 -0.572747 1.97376 120 158 146
0.832437 -0.537625 1.87603 190 226 234
0.954512 -0.525166 1.86478 117 161 154
-0.100727 -0.556579 1.9864 104 138 101
0.588528 -0.520933 1.91332 97 146 130
0.88899 -0.502303 1.86823 150 178 178
0.883693 -0.501403 1.87265 120 148 149
0.914048 -0.492006 1.86052 138 139 167
-0.397498 -0.526719 2.00769 164 229 207
0.96183 -0.48675 1.86486 109 152 141
0.730948 -0.492872 1.89743 94 141 132
0.963257 -0.486371 1.86623 121 160 145
0.35547 -0.5014 1.9527 83 115 98
0.882008 -0.479026 1.87591 92 99 102
0.956716 -0.475503 1.86839 160 215 206
0.854011 -0.477563 1.88283 123 147 167
0.949396 -0.472077 1.87025 113 161 155
-1.10676 -0.53751 2.14227 74 120 98
0.333885 -0.487524 1.95128 78 137 116
0.851231 -0.466231 1.88512 112 141 145
-0.895675 -0.522668 2.11532 163 221 210
0.713948 -0.464277 1.90522 76 143 112
0.350591 -0.455067 1.95824 81 127 104
0.914322 -0.422719 1.88034 183 235 218
-0.156133 -0.437335 2.00097 99 170 144
0.891542 -0.412191 1.88558 118 162 149
0.893465 -0.412135 1.88575 110 148 130
0.88281 -0.399957 1.89026 84 140 129
0.887447 -0.371929 1.89351 154 218 196
1.10949 -0.365184 1.86014 75 102 106
0.909184 -0.357964 1.89065 206 236 231
0.985724 -0.354875 1.87773 115 153 153
0.971188 -0.352834 1.88096 255 255 252
0.865756 -0.325084 1.90024 253 255 255
0.751488 -0.320263 1.91544 94 156 144
0.21059 -0.326681 1.97546 67 110 89
1.01446 -0.30355 1.88076 138 131 146
1.13919 -0.292514 1.86218 118 147 162
1.06136 -0.262965 1.87675 203 233 228
1.06286 -0.253588 1.88008 126 149 145
1.1889 -0.251896 1.86116 119 132 124
0.993738 -0.22283 1.88994 133 133 163
1.09841 -0.220624 1.87 166 232 221
1.19312 -0.214857 1.86496 125 179 180
1.19943 -0.215864 1.86457 212 244 239
0.977424 -0.209926 1.89053 210 227 224
1.02646 -0.209926 1.88334 140 139 173
1.00015 -0.203566 1.89229 169 125 154
0.92875 -0.198365 1.90494 130 144 133
1.10365 -0.195207 1.88186 103 112 126
1.10401 -0.195214 1.87697 120 129 143
-0.857866 -0.210909 2.15079 150 222 199
0.928256 -0.177285 1.90521 253 255 255
0.913492 -0.173228 1.90938 255 255 255
-0.867018 -0.18802 2.15238 96 150 115
-0.897131 -0.165931 2.16273 108 126 109
1.09868 -0.144957 1.8928 239 249 237
0.977488 -0.144499 1.90718 235 245 245
1.00511 -0.143064 1.89731 147 141 158
1.02491 -0.144566 1.90248 152 139 163
-0.92416 -0.126189 2.16779 158 218 194
0.792869 -0.109569 1.93412 164 145 154
-0.932058 -0.106396 2.17647 159 221 199
1.00837 -0.0787126 1.91482 151 140 150
-0.941423 -0.0833014 2.17199 154 210 187
0.81889 -0.0674512 1.93845 255 255 255
0.919727 -0.0643361 1.92605 169 212 203
0.809486 -0.0571925 1.9418 85 124 103
0.961671 -0.0468304 1.92383 210 208 207
-1.01724 -0.0427397 2.19908 100 137 121
0.933915 -0.0380672 1.927 139 135 146
0.945705 -0.028157 1.92353 143 140 136
0.894858 -0.00350118 1.93867 136 138 146
0.00225121 0.0162935 2.06388 102 113 97
0.785798 0.0189473 1.95572 99 133 132
1.1282 0.0191875 1.90833 120 132 168
-0.0140778 0.021324 2.06296 63 81 58
-0.0592935 0.0312737 2.06386 146 215 170
0.794083 0.046789 1.95651 71 136 115
-0.112497 0.0537204 2.07141 163 205 198
-0.0168865 0.0572978 2.06842 174 218 211
-0.699669 0.0708564 2.17108 118 167 145
-0.0266611 0.0727083 2.07801 69 88 61
-0.683985 0.0766932 2.17004 147 180 183
-0.677535 0.0900957 2.16976 136 191 188
0.160261 0.0875196 2.04607 110 125 111
-0.882609 0.0955714 2.19376 118 147 132
-0.671021 0.0996775 2.17184 143 194 166
-0.96505 0.102109 2.20911 117 137 124
-0.742904 0.10222 2.18271 129 171 160
-0.0463276 0.100289 2.07992 55 103 74
0.9036 0.0955791 1.94556 141 127 138
-0.834668 0.117449 2.19324 150 207 204
-0.62117 0.117287 2.15705 75 93 70
-0.0402179 0.113937 2.08233 145 223 199
0.118858 0.115449 2.0623 112 147 133
0.789938 0.119915 1.96586 251 255 254
0.16501 0.126022 2.05968 103 144 129
0.0999446 0.127356 2.06648 125 170 153
-0.025255 0.132762 2.07896 178 208 209
0.104981 0.134638 2.06645 68 84 60
-0.0328736 0.148529 2.08084 131 145 141
0.225827 0.149414 2.05137 69 110 95
0.151734 0.154672 2.05662 157 195 183
0.242373 0.153189 2.0499 132 186 173
0.187354 0.164576 2.05949 118 178 160
0.142058 0.169718 2.06425 158 214 195
-0.246591 0.211217 2.12255 86 139 119
-0.293661 -0.739761 1.96606 109 154 127
-0.294331 -0.739494 1.96802 99 156 125
0.587768 -0.704951 1.8813 94 137 128
0.308382 -0.708477 1.91895 155 229 201
-0.238594 -0.72334 1.96497 136 218 175
1.02091 -0.672465 1.83449 97 131 100
-1.07951 -0.774803 2.11536 106 180 162
0.831711 -0.679085 1.85807 90 108 101
0.999475 -0.671155 1.83556 66 77 51
0.796579 -0.678934 1.86765 106 169 159
-0.122332 -0.699231 1.95382 56 81 61
-0.258841 -0.707693 1.97592 87 110 96
0.872405 -0.662229 1.85346 192 223 226
-0.117853 -0.689892 1.95812 59 105 86
-0.262193 -0.685314 1.96959 76 111 84
-0.0623508 -0.676484 1.95747 92 143 123
1.06266 -0.627995 1.83206 136 171 157
-0.441157 -0.680304 1.99803 155 207 177
0.740484 -0.639095 1.87812 250 255 254
1.12775 -0.61862 1.82179 99 152 119
1.0783 -0.619805 1.83095 61 98 78
0.568942 -0.642958 1.89645 76 153 132
-0.147399 -0.659035 1.9638 156 237 190
-0.132931 -0.657313 1.95878 155 238 193
-0.0528443 -0.650416 1.95579 33 64 35
-0.068376 -0.646209 1.96563 72 110 92
0.616309 -0.6137 1.89123 157 229 207
-0.242522 -0.632223 1.98015 123 196 164
-0.887375 -0.659172 2.07706 103 165 147
-0.984789 -0.666473 2.10746 77 137 113
-0.114775 -0.616403 1.96715 56 78 60
0.893878 -0.580205 1.86782 98 139 131
0.777528 -0.573962 1.87834 176 204 211
0.600612 -0.574286 1.9008 65 110 93
0.951777 -0.554523 1.8608 86 86 98
0.833377 -0.554587 1.87694 126 142 159
-0.366512 -0.564416 2.01537 62 109 93
0.894788 -0.507671 1.87182 78 82 100
-0.405547 -0.529669 2.01163 67 103 87
-0.917885 -0.546904 2.11602 91 141 123
0.896659 -0.477897 1.87592 87 88 92
0.781249 -0.470412 1.89139 245 249 250
0.903895 -0.462694 1.8748 89 127 115
0.339103 -0.471799 1.95363 111 155 138
0.725809 -0.457362 1.9006 105 156 136
0.730406 -0.454241 1.90145 89 125 109
1.13871 -0.44252 1.84134 118 145 159
1.14329 -0.441628 1.83947 163 199 207
-0.885503 -0.498723 2.11598 94 142 118
0.708965 -0.449323 1.90759 113 157 144
0.856472 -0.436203 1.89129 104 146 139
0.333106 -0.448495 1.95821 97 148 114
-0.968133 -0.48407 2.13291 110 169 154
0.915191 -0.422413 1.88133 164 216 199
0.905745 -0.406119 1.88289 71 90 73
0.720145 -0.39877 1.91 98 133 113
1.01931 -0.388038 1.87039 97 111 109
0.818443 -0.39094 1.90413 92 138 126
0.873571 -0.386242 1.8958 75 146 120
0.871936 -0.375125 1.89576 87 149 125
1.10823 -0.365922 1.85798 83 109 115
1.15569 -0.362817 1.84988 210 243 239
0.972625 -0.364136 1.87825 106 164 153
1.03132 -0.353078 1.87879 255 255 255
0.971795 -0.352744 1.88122 251 255 254
0.827767 -0.349204 1.90499 93 144 140
0.807371 -0.329085 1.9086 82 106 98
0.768875 -0.327438 1.91678 115 166 158
0.868068 -0.309738 1.90338 239 246 243
1.06567 -0.301211 1.86984 115 123 140
1.12276 -0.280699 1.86468 119 170 172
0.772111 -0.287633 1.91967 127 163 157
-0.20755 -0.277965 2.03102 42 82 64
1.07663 -0.227403 1.88703 201 222 220
1.08116 -0.225364 1.87913 81 74 79
1.14715 -0.214058 1.86602 103 117 136
0.974487 -0.214207 1.89621 107 99 106
0.896981 -0.211997 1.90492 77 100 96
1.18041 -0.210733 1.86934 90 140 138
1.08627 -0.206134 1.88447 68 82 80
1.10764 -0.204769 1.8782 185 205 216
-0.914572 -0.230804 2.15487 112 171 157
0.812673 -0.204931 1.92634 84 124 106
0.959743 -0.204777 1.89951 253 255 255
0.928505 -0.198626 1.90432 130 144 133
0.972286 -0.196714 1.90539 188 198 208
1.00802 -0.193346 1.89958 163 139 157
-1.02211 -0.216539 2.1744 94 142 114
-0.0257999 -0.202792 2.03746 193 220 224
-0.857378 -0.211126 2.15022 156 233 212
-0.0105756 -0.201118 2.03776 103 105 106
-0.998638 -0.209597 2.16887 98 132 121
-0.997472 -0.19331 2.16865 88 137 117
0.0847328 -0.183574 2.03022 96 145 129
0.132281 -0.180873 2.0265 110 160 148
-0.867754 -0.187394 2.15404 88 140 103
0.928671 -0.166522 1.90645 96 141 124
0.793043 -0.155499 1.92999 120 115 117
1.0292 -0.153177 1.89571 153 151 171
-0.894162 -0.169237 2.16132 103 137 107
0.894866 -0.147694 1.92085 105 120 112
0.955461 -0.148304 1.90789 117 138 135
0.982004 -0.142724 1.90886 255 255 255
1.03323 -0.136285 1.89785 143 130 156
1.00519 -0.129205 1.9042 96 92 97
0.145436 -0.136212 2.01693 69 86 73
1.05809 -0.125592 1.89819 253 255 255
1.02285 -0.113264 1.90634 156 156 162
0.889407 -0.107528 1.92216 92 113 98
0.925759 -0.095691 1.90746 169 176 179
1.01549 -0.0986158 1.9166 123 119 125
-0.935481 -0.105145 2.17866 168 229 215
-0.925562 -0.100896 2.17641 93 100 79
1.01778 -0.0869141 1.90855 255 255 255
-0.927964 -0.0916098 2.17669 134 189 170
-0.94297 -0.08643 2.17342 161 221 203
-0.935311 -0.0876036 2.17461 104 111 96
1.19265 -0.0695873 1.88711 50 58 48
0.954748 -0.0544977 1.92098 120 106 108
-0.965608 -0.0593919 2.18621 86 127 106
0.975582 -0.0503368 1.92373 135 119 143
-0.945046 -0.0483296 2.18467 69 95 71
0.915708 -0.0425062 1.92961 106 139 132
-0.967422 -0.0466917 2.18626 92 121 98
0.933331 -0.0323137 1.92632 120 119 115
-1.02389 -0.03104 2.20423 142 195 175
0.925635 -0.0267608 1.93274 255 255 255
-1.00555 -0.00938947 2.19906 95 107 79
-0.993553 -0.0100833 2.19755 130 150 131
-0.948244 0.00715752 2.18827 107 126 109
0.849771 0.00833447 1.94121 101 148 145
-0.0392023 0.0215546 2.05995 113 159 147
1.16041 0.0264279 1.90078 141 165 165
0.129817 0.0353626 2.04945 122 145 137
-0.0392446 0.0442644 2.07549 190 220 215
-0.0687505 0.0478126 2.07658 179 202 197
0.996964 0.0491404 1.92833 175 161 172
-0.976943 0.0632667 2.20131 146 187 180
-0.00966228 0.0708876 2.07472 58 77 56
-0.747329 0.0763978 2.17745 148 195 179
-0.0265271 0.0716402 2.07594 70 88 65
-0.998084 0.0856042 2.20525 81 93 75
-0.012596 0.0922087 2.07381 107 153 124
0.160956 0.0904845 2.0469 100 117 104
-0.992106 0.102109 2.20693 93 117 99
-0.964406 0.0997104 2.20735 85 100 86
-0.784187 0.101046 2.192 85 113 93
-0.774458 0.104635 2.18748 149 218 198
-1.01339 0.109514 2.21028 89 128 107
-0.922417 0.110075 2.18453 117 165 153
0.869411 0.0958062 1.95456 81 93 95
-0.863768 0.112695 2.1977 175 229 222
-1.01688 0.131037 2.20926 139 209 196
0.0147788 0.127602 2.07581 80 105 85
0.1001 0.126694 2.06527 135 181 168
0.10978 0.127066 2.06539 127 175 157
0.0789538 0.13013 2.06856 131 176 160
-0.590861 0.138477 2.16699 144 223 209
0.200077 0.13528 2.05195 120 195 181
0.182698 0.138902 2.05302 116 178 164
0.0747928 0.14706 2.07187 123 179 160
0.188007 0.165015 2.06028 117 179 161
0.196072 0.167302 2.05642 123 178 161
-0.240502 -0.72409 1.96781 136 218 176
-1.02454 -0.768034 2.10494 117 173 152
1.04469 -0.662585 1.8243 134 187 154
-0.130992 -0.707007 1.95505 98 150 113
1.04498 -0.662133 1.82676 141 198 160
-0.123 -0.698811 1.9565 62 90 67
0.607356 -0.66589 1.8842 166 222 201
1.10443 -0.636564 1.82204 70 96 72
0.696015 -0.65249 1.88174 99 135 119
-0.181552 -0.677347 1.97485 48 63 49
1.04085 -0.625796 1.83512 63 88 68
0.736809 -0.637623 1.87881 252 254 254
1.07876 -0.619475 1.83255 65 108 87
-0.980534 -0.712055 2.1064 107 147 135
-0.16276 -0.662518 1.96621 78 115 95
-0.138426 -0.664252 1.96187 136 195 164
-0.97227 -0.704983 2.10618 102 124 105
-0.163065 -0.66203 1.96904 73 109 85
1.09333 -0.603649 1.83825 105 150 124
-0.139243 -0.639627 1.96347 49 86 60
-0.473918 -0.647262 2.00516 99 130 129
-0.135265 -0.635705 1.96658 41 70 47
-0.0672997 -0.631885 1.96045 126 226 196
-0.992924 -0.666451 2.11099 100 161 135
0.563425 -0.595331 1.89852 143 226 188
0.99157 -0.581405 1.84291 109 109 123
-1.0531 -0.662966 2.12681 109 168 153
-0.952537 -0.659124 2.10467 92 142 118
0.151177 -0.612275 1.96449 65 106 85
-0.351291 -0.62067 2.02543 173 245 198
0.878076 -0.569882 1.86671 89 122 107
0.47163 -0.583084 1.91987 85 137 114
0.608186 -0.574365 1.89965 184 238 221
0.950545 -0.554754 1.85984 81 83 93
-0.145733 -0.587486 1.97931 61 122 84
0.627067 -0.558705 1.89662 155 210 195
-0.910835 -0.611474 2.10223 95 113 106
0.697362 -0.543056 1.89518 88 140 123
-0.964286 -0.600511 2.11181 102 151 129
0.872015 -0.529561 1.87448 115 134 147
-1.04852 -0.600582 2.1306 95 144 128
-0.350671 -0.548828 2.0212 35 66 51
0.892229 -0.507524 1.86926 92 104 116
-0.922152 -0.569085 2.11539 81 121 109
0.962604 -0.483449 1.86862 129 188 168
0.979233 -0.486645 1.86525 77 99 75
0.896073 -0.478307 1.87445 77 82 85
0.997989 -0.469224 1.86328 105 131 118
1.13868 -0.442549 1.84124 114 143 157
-0.232004 -0.476792 2.00064 47 66 49
0.725779 -0.456292 1.89429 140 196 175
-0.799454 -0.493852 2.0994 79 107 87
0.853321 -0.439403 1.89103 109 150 142
-0.239881 -0.442712 2.0283 49 68 53
0.89198 -0.411285 1.88431 109 151 133
0.738707 -0.408382 1.9031 73 99 76
0.896159 -0.402848 1.88834 73 100 80
0.887366 -0.391329 1.88896 126 192 167
1.01803 -0.388741 1.8714 108 131 127
-0.901924 -0.41754 2.13472 92 134 117
0.86403 -0.365437 1.89688 131 217 199
0.967413 -0.365372 1.87649 104 156 146
1.0299 -0.354111 1.87579 255 254 255
1.10491 -0.346606 1.8666 235 240 239
1.12597 -0.336702 1.8617 98 132 145
0.804352 -0.328615 1.91056 134 170 148
1.06002 -0.308078 1.86828 254 254 254
1.13585 -0.293415 1.86074 135 164 179
-0.316018 -0.289301 2.01458 69 113 77
1.13203 -0.264064 1.86033 100 116 129
0.750637 -0.245327 1.91951 123 148 134
0.811244 -0.244975 1.9174 132 169 161
1.05926 -0.22995 1.88209 111 144 140
0.898425 -0.228095 1.90311 142 185 174
1.08102 -0.225571 1.87863 75 66 69
0.808329 -0.209624 1.92095 111 152 137
0.877444 -0.206554 1.91201 108 131 126
0.108291 -0.211997 2.02257 90 134 121
1.09799 -0.19761 1.87913 103 112 125
0.913303 -0.196274 1.90803 91 95 96
0.830715 -0.192565 1.91704 177 220 209
0.142682 -0.181741 2.01354 106 104 86
0.838704 -0.179109 1.92864 114 149 139
1.00858 -0.165182 1.89727 216 225 228
0.141481 -0.169713 2.01636 165 227 211
0.795601 -0.164062 1.93144 216 227 231
1.0122 -0.161992 1.90452 231 236 235
0.794764 -0.151916 1.9369 127 132 130
-0.0154728 -0.1544 2.0446 76 102 84
0.892994 -0.148332 1.92172 154 188 178
0.145835 -0.134317 2.02136 78 92 81
-0.918378 -0.142534 2.16324 76 88 68
-0.902147 -0.143417 2.1634 133 167 156
0.992182 -0.127327 1.90109 81 79 79
1.12856 -0.125932 1.88869 131 149 150
1.14623 -0.124232 1.88251 154 183 174
0.0902346 -0.131001 2.02942 87 98 78
0.138083 -0.12352 2.02335 168 206 208
0.999337 -0.116133 1.90629 253 253 253
1.01958 -0.113517 1.90592 153 163 163
0.885749 -0.109702 1.9164 132 150 137
0.990201 -0.109753 1.91214 131 137 142
0.82097 -0.1021 1.9393 255 255 254
0.126765 -0.0947365 2.0299 115 135 123
0.0280968 -0.0780924 2.04626 213 245 240
1.01126 -0.074707 1.91307 142 135 142
1.01989 -0.0438091 1.91786 99 117 110
-0.986895 -0.0423463 2.19268 160 226 207
0.964204 -0.0344631 1.92087 159 148 158
-0.938928 -0.0374681 2.18733 131 193 177
0.933852 -0.0317742 1.92739 106 107 103
-1.02476 -0.0182608 2.20268 110 133 111
0.913326 -0.0176041 1.93774 171 184 182
-1.00425 -0.0100223 2.20299 87 101 73
0.832525 -0.00130585 1.94207 117 176 161
-1.01572 0.0264878 2.20451 91 115 91
-1.00393 0.0507712 2.20315 133 205 183
0.996114 0.048371 1.92692 162 148 160
-0.089013 0.064411 2.07694 123 162 154
-0.971495 0.0844958 2.19988 87 94 67
-0.102046 0.0806109 2.0836 62 76 65
-0.0157855 0.0822317 2.07208 139 201 183
-0.833269 0.0874198 2.19152 122 152 141
-1.02626 0.0959415 2.21228 99 135 118
-0.791957 0.0884387 2.18482 136 208 186
-0.813923 0.0928143 2.18576 139 198 183
-0.78267 0.0993054 2.18855 90 112 93
-0.726526 0.0969159 2.1777 81 118 98
-0.991039 0.101233 2.20519 91 113 95
-0.875745 0.102871 2.19648 140 189 173
0.0201331 0.0962207 2.08117 113 159 147
-0.954337 0.105951 2.2037 179 218 216
-0.696169 0.105009 2.17914 174 234 223
-0.925492 0.113556 2.19137 145 203 192
-0.850495 0.114511 2.20564 115 147 136
-0.679456 0.115116 2.17521 81 105 87
-0.768996 0.119099 2.1958 97 133 116
-0.0441441 0.114114 2.07501 138 207 187
0.219972 0.11256 2.04299 136 189 176
-1.02832 0.123307 2.21627 114 163 147
-0.207725 0.122616 2.10412 50 92 61
-0.0343978 0.126025 2.08528 72 99 79
-0.0572451 0.130582 2.08995 73 117 100
0.217447 0.126824 2.04772 58 74 63
0.10882 0.137301 2.06584 73 82 56
0.162765 0.138053 2.05837 76 82 65
0.200175 0.136316 2.05382 140 212 199
-5.0828e-05 0.145883 2.08252 163 200 196
