ply
format ascii 1.0
element vertex 318
property float x
property float y
property float z
property uchar blue
property uchar green
property uchar red
end_header
1.72463 -0.964838 4.345 60 82 93
0.484093 -1.44031 4.55968 105 147 129
0.745079 -1.21514 4.12055 128 182 175
1.60865 -2.05466 4.56579 100 155 138
0.874547 -2.01438 4.63055 94 129 115
1.90032 -1.87005 4.46658 138 170 169
0.586274 -1.59305 4.59381 90 115 117
0.774952 -1.28299 4.11135 73 126 123
0.594048 -1.28809 4.23981 151 218 186
0.745184 -1.21521 4.12175 125 178 169
0.386127 -1.29385 4.53917 113 169 146
-0.206273 -1.2895 4.61311 80 159 145
0.18409 -0.619467 4.45556 142 192 168
1.41938 -0.122161 4.3253 87 148 134
0.505895 0.392486 4.45055 80 121 106
1.52691 0.640121 4.35985 70 97 88
2.006 -2.45804 4.62222 110 164 157
1.15009 -2.40567 4.67796 98 145 136
1.29099 -2.29824 4.6388 96 127 120
0.774352 -2.21639 4.69081 113 133 128
1.8594 -2.10708 4.55113 88 111 96
-0.950061 -2.10293 4.82613 108 138 127
-1.0762 -2.13531 4.90527 165 216 218
1.66578 -1.93066 4.50886 55 94 79
0.651089 -1.97475 4.65452 88 144 121
2.15932 -1.8836 4.44939 196 230 224
0.536585 -1.91564 4.64711 79 123 106
1.82863 -1.62494 4.41618 80 100 88
1.82028 -1.60923 4.4277 153 187 180
0.508075 -1.4955 4.57135 52 76 52
1.81778 -1.41308 4.39639 124 155 158
0.705494 -1.31894 4.14226 156 214 209
0.483 -1.43947 4.56304 112 155 134
0.715628 -1.29837 4.12349 89 123 112
0.718975 -1.2716 4.14712 57 85 66
0.411419 -1.38299 4.53081 173 221 222
0.77922 -1.23674 4.10569 88 131 116
1.3312 -1.137 3.83377 161 195 164
1.32873 -1.13194 3.84218 117 156 124
2.07074 -1.09888 4.32292 107 159 152
0.355512 -1.13432 4.51225 91 144 124
0.670494 -0.94075 4.44343 63 97 67
1.66941 -0.898216 4.30948 147 180 166
0.400766 -0.899502 4.47339 91 136 120
1.86765 -0.835561 4.31188 133 154 155
1.31932 -0.795483 4.38076 93 147 134
2.1406 -0.776199 4.27521 117 162 159
0.235273 -0.574749 4.47405 86 139 125
-0.0317379 -0.535474 4.52996 109 170 156
1.56658 -0.512914 4.31647 112 139 149
1.43935 -0.492556 4.34562 87 135 123
1.38486 -0.329437 4.31463 69 84 70
0.385527 -0.19012 4.44145 75 118 85
0.445769 -0.0848749 4.44079 62 116 81
-0.0200793 0.265148 4.51114 99 157 133
-0.412729 0.34355 4.56282 70 111 84
0.516392 0.379948 4.46101 154 202 190
2.36329 0.371436 4.22165 110 141 138
2.31933 0.544036 4.2574 84 121 117
1.52477 0.671554 4.37897 87 138 130
1.59822 -2.29301 4.61078 101 134 120
2.67506 -2.25079 4.5191 98 124 106
2.2377 -2.24129 4.53833 136 192 179
2.67419 -2.17419 4.46472 92 118 102
2.35846 -2.16671 4.50695 89 129 117
1.68124 -2.21663 4.6097 78 114 102
1.91504 -2.13836 4.51751 145 189 172
1.97646 -2.09716 4.494 188 225 215
2.79231 -2.04038 4.40626 116 161 142
2.35576 -2.03457 4.46054 101 135 129
1.63765 -2.07164 4.55232 62 86 78
1.5887 -2.06375 4.55419 106 141 131
0.848195 -2.09318 4.63947 91 131 119
1.07617 -2.00324 4.59204 99 125 119
2.2627 -1.92988 4.445 97 123 117
-0.930461 -2.10627 4.85655 159 224 202
2.18095 -1.90419 4.45153 112 132 127
-1.18707 -2.01346 4.86793 115 146 139
0.538173 -1.91713 4.6547 84 128 111
-0.468579 -1.96873 4.79179 113 181 170
0.763973 -1.83329 4.59147 140 201 175
1.40401 -1.79385 4.51593 138 194 159
0.753385 -1.8286 4.62605 92 121 98
1.6597 -1.74789 4.49335 102 152 134
1.86783 -1.72411 4.44866 116 170 165
0.997841 -1.6118 4.23254 84 134 122
0.654741 -1.75578 4.63894 73 114 93
1.77774 -1.67462 4.46841 101 143 136
0.985656 -1.52533 4.20763 83 135 125
0.822671 -1.50603 4.18244 87 146 115
0.849845 -1.48131 4.1593 76 125 117
1.00387 -1.49434 4.20485 109 165 146
1.75155 -1.56787 4.42829 93 138 135
0.765421 -1.39926 4.13291 92 126 116
2.40539 -1.46369 4.35384 129 169 167
0.776804 -1.37095 4.12711 187 237 233
1.8594 -1.44233 4.40388 120 160 158
0.629349 -1.34662 4.19083 93 146 113
0.480714 -1.45404 4.54508 64 98 74
0.70803 -1.24641 4.14846 105 162 153
0.605013 -1.27052 4.22899 122 168 139
0.65095 -1.27061 4.22582 91 125 95
0.799511 -1.23031 4.11688 145 215 202
0.278125 -1.22165 4.54258 92 140 122
0.225137 -1.19682 4.53655 88 151 125
1.87778 -1.12265 4.34801 98 147 139
0.380865 -1.09591 4.51538 93 161 144
0.39046 -1.09589 4.50347 90 148 130
1.9722 -1.02517 4.32829 94 155 145
0.396455 -1.03855 4.50531 130 192 178
0.100218 -0.977449 4.53207 94 151 130
1.64529 -0.898661 4.32786 84 95 92
1.5872 -0.880537 4.34966 116 151 154
0.402841 -0.899209 4.48616 90 128 116
1.69519 -0.864511 4.33664 101 144 141
1.72866 -0.824788 4.31837 75 96 94
1.68451 -0.813638 4.31357 102 131 138
0.299617 -0.832811 4.52278 145 203 192
1.62985 -0.787389 4.31744 80 114 107
1.58164 -0.776145 4.34545 135 186 178
0.537286 -0.777564 4.46822 126 177 173
1.50586 -0.750578 4.36872 97 141 140
2.34555 -0.724703 4.24159 111 152 147
0.568459 -0.725882 4.46434 126 174 162
0.561634 -0.663617 4.47384 69 86 73
0.119787 -0.660835 4.51109 65 104 83
1.85583 -0.620759 4.29433 99 140 135
0.187115 -0.618569 4.45865 129 179 155
0.209082 -0.590293 4.47173 58 108 90
0.235816 -0.574435 4.47733 100 153 139
0.713423 -0.43621 4.4341 87 152 127
1.33583 -0.37991 4.32538 136 179 166
2.13194 -0.305491 4.22125 72 122 118
1.41038 -0.297537 4.32366 74 94 82
1.3248 -0.286492 4.33462 83 118 108
0.37965 -0.269194 4.46046 102 162 138
1.34804 -0.25879 4.34421 56 118 106
-0.23192 -0.220454 4.53301 124 196 166
-0.382695 -0.207752 4.55327 84 127 112
1.97039 -0.19137 4.26744 101 144 141
2.12406 -0.170997 4.22635 80 127 119
2.12115 -0.152079 4.21955 151 215 203
2.03391 -0.144059 4.24086 99 130 131
0.348926 -0.146671 4.4707 99 140 113
-0.345313 -0.132391 4.53091 122 182 152
0.496583 -0.103958 4.42368 87 140 107
-0.510107 0.226479 4.59236 130 190 172
1.68388 0.244689 4.32045 102 164 148
1.88155 0.331492 4.304 100 136 124
0.506606 0.493684 4.47291 100 151 137
2.32691 0.480688 4.25584 98 124 124
2.3687 0.516614 4.27363 94 117 125
2.37097 0.516344 4.2728 95 117 128
2.32131 0.545119 4.26038 84 120 120
2.71901 -2.30523 4.46323 118 176 151
2.66246 -2.30436 4.48015 80 102 90
1.6731 -2.35833 4.605 103 130 120
1.62675 -2.34129 4.62413 95 122 112
2.76481 -2.23983 4.49231 65 85 73
2.6539 -2.24217 4.48907 118 152 128
1.29567 -2.28125 4.60449 106 135 126
2.27287 -2.24512 4.55708 92 128 116
2.65083 -2.19863 4.46951 122 175 162
1.5224 -2.26976 4.62047 127 177 167
2.6736 -2.17324 4.46108 85 105 92
1.88274 -2.22605 4.59166 148 185 177
2.34516 -2.19821 4.53581 162 215 201
1.90026 -2.1548 4.5404 102 140 128
1.00925 -2.22544 4.68923 88 118 107
1.25011 -2.16858 4.59005 126 161 151
1.68861 -2.13574 4.53383 96 132 115
1.91282 -2.11159 4.50362 74 108 91
2.70914 -2.06218 4.44534 92 124 105
0.755673 -2.17032 4.69128 103 140 124
1.17509 -2.13001 4.60906 117 144 140
1.86396 -2.10207 4.54666 92 120 101
1.99432 -2.06518 4.50154 106 131 121
1.62383 -2.06699 4.54462 54 84 71
1.13393 -2.07716 4.59132 103 117 115
1.19496 -2.04371 4.57158 97 121 113
1.59022 -2.04314 4.57199 170 211 204
1.86686 -2.01676 4.52956 84 119 105
1.78378 -1.9701 4.51281 103 154 134
1.75598 -1.95374 4.51424 152 216 194
1.10937 -1.95437 4.57569 75 114 98
1.53239 -1.93807 4.53846 175 225 213
-1.15138 -2.05811 4.90917 115 155 144
1.88197 -1.83821 4.47537 107 141 131
2.27623 -1.76287 4.43762 125 181 176
2.03515 -1.73296 4.45277 95 119 111
1.67526 -1.72012 4.46512 95 109 97
2.52164 -1.66874 4.3778 74 138 119
2.12962 -1.68045 4.4335 89 116 112
1.01916 -1.57662 4.23857 83 126 111
0.878122 -1.55478 4.21685 79 102 88
0.830725 -1.53738 4.21276 39 57 40
1.37387 -1.61617 4.42147 67 111 94
-1.66113 -1.70171 4.86661 73 88 74
2.37291 -1.51083 4.36429 112 142 137
-1.82823 -1.68454 4.90248 113 125 119
-1.69884 -1.66732 4.8439 117 176 172
2.29753 -1.50544 4.37273 90 140 136
0.505848 -1.49055 4.55339 56 82 58
1.85668 -1.44189 4.39948 107 148 143
0.666601 -1.35819 4.16452 63 80 59
2.54923 -1.38826 4.31454 125 170 167
0.728433 -1.32511 4.14112 59 87 81
0.765462 -1.29815 4.13144 64 93 84
0.706708 -1.28478 4.13807 46 57 41
0.850382 -1.2712 4.12049 81 134 125
0.716657 -1.28765 4.18001 68 94 71
0.706174 -1.24594 4.14043 132 185 176
1.3283 -1.15466 3.86163 92 112 83
0.13352 -1.27496 4.58054 88 159 139
2.49194 -1.18225 4.28958 106 138 137
2.00125 -1.1936 4.35087 88 136 130
-0.51618 -1.222 4.63837 110 147 131
2.19406 -1.08681 4.29762 124 165 167
2.13918 -1.07122 4.30886 99 130 127
0.345013 -1.10093 4.48188 57 94 78
0.344154 -1.10155 4.50878 92 150 132
0.37954 -1.09282 4.53148 113 186 170
1.96944 -1.02517 4.32733 97 157 147
0.345482 -1.01809 4.5287 74 135 121
0.398857 -1.01135 4.49361 90 123 109
0.636573 -1.00173 4.46613 49 56 41
1.725 -0.968518 4.33148 80 101 103
0.466627 -0.977883 4.46388 61 74 58
1.56741 -0.941082 4.34211 88 137 129
1.7862 -0.926921 4.34243 81 91 98
0.381418 -0.953933 4.52246 68 137 117
1.64031 -0.899193 4.30417 89 106 97
0.398824 -0.896596 4.47316 85 125 114
1.65205 -0.865485 4.32072 45 76 69
1.68351 -0.865127 4.34232 70 110 108
2.51639 -0.834605 4.23243 85 136 128
1.40217 -0.824949 4.33082 104 145 130
1.73368 -0.824419 4.32727 78 91 89
0.296278 -0.833441 4.50613 164 224 213
0.449196 -0.822259 4.4981 106 150 137
1.61993 -0.785793 4.30165 73 101 95
1.64232 -0.780982 4.31117 124 186 170
1.7422 -0.778495 4.31753 108 129 127
0.693146 -0.793806 4.42786 126 179 159
2.59465 -0.743924 4.20353 83 97 86
0.277233 -0.788893 4.49818 84 120 103
0.361891 -0.786137 4.50366 115 172 164
0.106266 -0.784857 4.50418 75 121 109
1.6042 -0.746592 4.30807 61 77 66
0.61195 -0.756952 4.45396 109 137 131
1.61271 -0.751622 4.36958 58 71 69
1.30018 -0.740615 4.37776 92 157 142
1.51822 -0.734355 4.34963 77 138 128
1.73085 -0.698053 4.28772 111 145 138
2.41353 -0.684888 4.23809 130 161 162
0.0967466 -0.689222 4.49218 75 128 101
0.402203 -0.683779 4.46789 64 95 80
0.537791 -0.676634 4.46198 128 185 176
0.560931 -0.66459 4.4608 73 85 73
0.120304 -0.663535 4.49703 67 105 83
-0.210253 -0.641705 4.54673 120 173 163
2.33344 -0.593062 4.20927 137 207 190
1.65978 -0.594362 4.30763 104 148 131
0.19369 -0.595367 4.45729 80 117 101
1.77033 -0.561725 4.29297 116 150 149
0.564628 -0.564146 4.43994 97 137 125
-0.0500322 -0.565584 4.50122 105 138 117
1.4764 -0.525603 4.33382 81 100 91
1.7324 -0.524952 4.29708 89 123 123
1.47414 -0.526407 4.32646 65 86 77
1.4456 -0.497484 4.33293 84 114 101
0.371407 -0.500351 4.46841 97 136 120
1.38719 -0.34231 4.29085 77 82 67
2.03884 -0.321462 4.24268 89 103 102
1.37859 -0.325893 4.36997 116 158 147
2.1195 -0.305411 4.21382 87 131 132
0.378895 -0.268711 4.46345 105 161 140
1.33921 -0.236737 4.34155 108 159 151
2.09462 -0.225266 4.30924 98 133 136
0.655848 -0.181534 4.41565 97 156 128
2.14896 -0.15572 4.21259 91 145 132
0.344544 -0.149472 4.4527 108 150 132
0.429184 -0.127953 4.45723 133 205 175
2.44729 -0.101163 4.21008 79 114 104
2.10453 -0.0989276 4.26008 99 124 120
2.03095 -0.0867394 4.24107 94 144 140
1.52694 -0.0452523 4.31759 110 147 143
2.56438 -0.0358736 4.21203 127 173 167
1.62626 0.039085 4.30427 94 154 136
1.93929 0.0394279 4.27729 108 163 146
1.49198 0.0484929 4.34961 112 153 148
1.79674 0.0392942 4.27291 108 161 152
2.51978 0.0568887 4.21312 100 137 129
1.81427 0.0668086 4.27988 67 109 98
1.78864 0.086997 4.28842 80 119 111
-0.261928 0.112906 4.52377 75 139 104
0.555884 0.135005 4.45302 83 147 118
2.17434 0.167441 4.27481 120 154 147
1.52904 0.177304 4.31466 106 166 155
1.54209 0.219264 4.33183 128 190 178
2.55662 0.288226 4.2374 99 151 141
1.87239 0.330936 4.29146 99 133 123
2.27351 0.345553 4.249 102 142 141
2.37391 0.377041 4.25727 99 131 130
2.2356 0.430399 4.27354 110 142 137
2.44202 0.426078 4.23266 90 110 111
2.51118 0.443515 4.23123 106 151 154
2.423 0.477344 4.26549 95 114 117
2.54347 0.501443 4.22667 79 109 110
2.3573 0.51283 4.25708 102 130 137
2.30623 0.524436 4.28419 115 144 149
2.46907 0.553097 4.24967 77 89 93
1.08416 0.632243 4.44718 84 121 117
1.52635 0.618257 4.3512 85 120 110
1.55095 0.633192 4.35117 83 104 89
2.33419 0.617749 4.26532 96 133 131
1.69212 0.647688 4.31833 84 110 104
1.5184 0.659459 4.3563 126 176 166
