ply
format ascii 1.0
element vertex 719
property float x
property float y
property float z
property uchar blue
property uchar green
property uchar red
end_header
-0.0312397 -1.45917 3.67611 93 151 140
-0.761419 -1.28061 3.77383 103 144 112
-0.175658 -1.2439 3.7129 90 131 134
-0.812326 -1.14812 3.81778 65 122 107
0.0940028 -1.04674 3.72788 125 158 173
-0.173644 -0.676814 3.78672 109 136 157
-0.224981 -0.412555 3.81169 83 162 149
1.17871 -0.35197 3.69423 99 145 122
-1.75669 0.210928 3.95814 175 203 250
-1.72299 0.367218 3.89803 190 206 243
0.513349 0.926595 3.91858 54 100 88
-0.799559 -1.31267 3.78526 152 206 177
-0.774173 -1.1904 3.80328 38 73 46
0.166497 -1.15846 3.72123 190 243 240
-0.778088 -1.17058 3.81111 115 181 156
0.128872 -1.13863 3.7224 157 215 204
-0.759572 -1.08266 3.80823 36 49 33
0.0941486 -1.04674 3.72859 114 149 163
-0.668774 -1.18289 4.21649 85 85 91
-0.762585 -1.00005 3.82061 98 161 145
-0.325532 -0.926365 3.59483 127 130 145
-1.24129 -0.984999 3.8818 236 255 255
0.210275 -0.952193 3.74794 176 227 229
0.310494 -0.924869 3.7436 157 207 213
-0.750685 -0.910715 3.8202 84 127 112
0.169105 -0.826734 3.75962 144 211 196
1.16626 -0.658538 3.66217 156 209 206
-0.72278 -0.49016 3.85639 63 106 97
-0.723526 -0.490027 3.85738 65 115 105
-0.334969 -0.462216 3.81659 115 151 159
-0.329415 -0.40993 3.82128 96 153 145
1.17862 -0.352181 3.69302 99 145 122
1.0189 -0.323839 3.71587 99 147 189
-1.81438 -0.190473 3.94859 130 174 168
-1.90974 -0.169806 3.74215 177 198 206
0.461038 -0.0243174 3.81202 54 146 105
-1.60009 0.167494 3.80461 73 129 224
-1.76742 0.218412 3.9826 125 146 201
0.566205 0.236216 3.81349 66 122 99
0.652384 0.34926 3.8286 124 195 162
0.655874 0.353177 3.82355 76 148 118
-1.72265 0.367013 3.89744 190 206 243
-1.59876 0.709639 4.04947 138 157 218
-2.19956 0.88993 4.123 105 121 150
0.494288 0.902846 3.91357 158 211 201
0.408405 0.927773 3.93433 156 230 212
0.529105 0.918324 3.90087 50 81 50
0.361224 1.08964 3.95697 202 223 214
-1.4994 1.21781 4.12233 221 254 250
-0.811654 -1.48459 3.76737 95 135 153
-1.20178 -1.49263 3.82624 181 232 198
-1.3124 -1.45356 3.8398 173 239 234
-0.838722 -1.43613 3.78983 107 150 153
-1.32861 -1.44973 3.83393 98 158 140
-0.771961 -1.42747 3.77723 83 106 108
-0.868184 -1.43186 3.79725 214 244 225
0.238764 -1.38633 3.69105 249 246 241
-0.926352 -1.40845 3.80367 103 161 160
-0.898651 -1.38872 3.80373 235 255 254
-0.729114 -1.35262 3.72506 76 91 70
-1.23364 -1.38789 3.83762 173 233 223
-0.185064 -1.2991 3.70453 123 123 135
-0.110882 -1.2866 3.69713 166 235 225
-0.918402 -1.32548 3.81087 80 125 116
-0.135039 -1.28828 3.7047 217 247 242
-0.800975 -1.31316 3.79124 153 207 177
-0.095616 -1.27426 3.70545 176 236 212
-0.779331 -1.28107 3.79062 69 97 78
-0.958122 -1.28172 3.82286 80 135 118
0.164616 -1.24512 3.70736 76 129 115
-0.84671 -1.2618 3.80986 57 131 107
0.104555 -1.21595 3.71071 122 201 157
0.474236 -1.2101 3.68993 68 138 115
0.0128742 -1.20643 3.70026 144 217 185
-0.069517 -1.20879 3.7144 83 157 139
-0.770796 -1.22863 3.79574 82 135 121
-0.909906 -1.22226 3.82178 78 144 133
-0.763655 -1.2123 3.78461 76 107 78
-0.793169 -1.19907 3.80216 63 117 100
0.164106 -1.15866 3.72617 198 241 238
0.0307758 -1.15102 3.71406 161 211 229
-0.131233 -1.15092 3.72194 102 148 156
-0.603401 -1.16275 3.78108 59 63 68
-0.751735 -1.15043 3.79256 67 79 57
0.652656 -1.1076 3.65884 88 160 130
-0.123193 -1.12068 3.72438 118 178 178
-0.771275 -1.13548 3.81112 95 141 122
-1.28722 -1.14532 3.87396 95 165 159
-0.768291 -1.11781 3.8135 102 158 137
1.11395 -1.05898 3.62779 70 95 115
1.70394 -0.872722 2.99516 121 125 154
0.0217192 -1.08044 3.71838 85 135 135
1.11238 -1.03479 3.62751 71 91 122
-0.759654 -1.08269 3.80943 41 57 39
-0.182992 -1.05335 3.73603 93 90 106
0.0853187 -1.04775 3.73098 255 255 254
-0.760443 -1.02978 3.81796 99 155 132
-0.192098 -1.0563 3.94181 95 85 102
0.357608 -1.00119 3.72795 163 225 211
-0.977678 -1.02555 3.85248 82 147 125
-1.40975 -1.01967 3.88763 81 157 133
-0.0521886 -0.977809 3.72821 99 175 157
0.213347 -0.952665 3.75191 172 225 228
0.211705 -0.952676 3.7509 175 226 228
-0.0898055 -0.942851 3.73768 62 127 105
-0.754487 -0.954816 3.81613 118 149 128
-0.755294 -0.934652 3.82102 119 171 147
-0.146215 -0.907206 3.74998 187 228 251
-0.125854 -0.905827 3.74762 164 215 225
-0.879446 -0.929469 3.84894 163 217 200
-0.117157 -0.901639 3.7444 103 165 159
-0.97758 -0.918839 3.86896 160 230 213
-0.596585 -0.898824 3.80485 203 225 220
-0.125009 -0.886954 3.75087 74 121 118
-0.765795 -0.905032 3.83704 141 197 178
-0.39101 -0.842931 3.60668 177 213 223
-0.75091 -0.891457 3.82101 98 141 114
-0.179213 -0.876996 3.76455 114 131 144
-0.752049 -0.862745 3.82975 83 153 123
0.0408238 -0.839454 3.73797 255 254 254
-0.116398 -0.835774 3.75381 62 120 109
-1.00845 -0.839 3.86966 82 146 127
-0.744128 -0.800471 3.8217 77 106 81
-0.598166 -0.785438 3.81201 57 55 54
-0.116614 -0.752519 3.76152 75 127 120
1.75249 -0.696718 3.61449 61 102 81
-0.173134 -0.716528 3.78605 202 221 226
1.67393 -0.686142 3.63217 81 147 128
1.16684 -0.658442 3.66319 152 209 200
-0.75099 -0.669972 3.8417 90 144 127
-0.747883 -0.626924 3.85178 88 139 112
-0.742006 -0.609179 3.84338 88 125 99
-0.739044 -0.565263 3.8489 84 125 117
-0.911604 -0.567044 3.89012 69 128 113
-0.903169 -0.562351 3.88338 81 142 128
-0.0686382 -0.54554 3.7803 72 129 108
-0.558187 -0.518387 3.68322 198 232 232
-0.739827 -0.536453 3.85807 108 165 162
-0.738678 -0.536942 3.85401 105 155 153
-2.0124 -0.547086 3.97676 84 141 120
-1.59074 -0.532103 3.93527 171 240 237
-1.59431 -0.531645 3.93904 154 235 232
0.732864 -0.488409 3.72777 48 116 99
-0.736362 -0.498398 3.85547 46 77 70
-0.721392 -0.490297 3.85538 52 83 74
1.18564 -0.46425 3.677 86 131 115
-0.718678 -0.452534 3.86646 107 156 158
-0.202807 -0.447983 3.81003 83 151 140
-0.333588 -0.445863 3.82903 83 135 112
-1.56697 -0.457353 3.93295 223 237 231
-0.332399 -0.43605 3.81997 49 91 80
2.00741 -0.405327 3.57631 35 55 43
-0.336173 -0.421307 3.82724 96 144 132
2.01548 -0.393026 3.6159 54 90 78
-0.328015 -0.410199 3.81956 111 178 169
-0.703755 -0.396979 3.85937 109 148 150
1.14338 -0.378403 3.68601 92 116 104
-0.335701 -0.392849 3.83163 87 110 102
-1.57634 -0.39341 3.9402 222 255 255
1.14673 -0.363484 3.69623 100 133 119
1.17791 -0.352791 3.68865 96 153 128
1.0317 -0.327184 3.7144 71 100 114
1.01928 -0.323791 3.71613 94 137 180
2.0538 -0.300917 3.60515 139 174 217
2.02195 -0.272672 3.6304 100 144 127
0.762525 -0.250494 3.75329 122 202 167
1.19583 -0.249058 3.7051 171 214 203
1.1246 -0.200146 3.71869 84 121 113
-1.81315 -0.191427 3.9439 150 195 192
-1.91136 -0.168599 3.74403 180 206 212
1.19166 -0.143154 3.71151 59 123 93
-2.53962 -0.15002 4.04188 96 147 133
-2.43376 -0.137049 4.03959 81 147 128
2.01949 -0.113865 3.64931 73 120 88
0.571208 -0.0939068 3.77189 180 217 215
-1.54581 -0.0871262 3.94709 121 114 187
-1.71385 -0.0571987 3.96558 115 122 149
-1.57336 -0.0409875 3.94279 181 212 255
-1.70594 -0.0362358 3.95628 206 236 255
1.94182 -0.0261404 3.67091 50 93 78
-1.59938 -0.0237566 3.93441 112 163 213
-1.82231 -0.0208378 3.77224 169 204 237
1.44656 -0.0208484 3.71226 58 114 93
-1.90293 0.0962355 3.79383 129 143 172
0.342946 0.127672 3.84644 196 227 220
0.574125 0.12588 3.80578 164 217 203
-1.57213 0.195336 3.79151 69 105 199
-1.76688 0.217899 3.98092 139 159 214
-1.72423 0.222059 4.00385 94 126 202
-1.77263 0.217769 3.80032 104 110 147
-1.77303 0.227384 3.79064 220 239 255
-1.7337 0.246857 4.00982 135 188 255
1.86923 0.249763 3.71511 121 167 148
-1.50596 0.268368 3.7745 94 132 220
2.04902 0.26748 3.69704 88 121 106
0.5742 0.300223 3.82919 193 228 224
0.674797 0.327274 3.82307 70 96 82
-1.65992 0.336332 3.85008 124 198 255
0.671488 0.336878 3.82469 169 214 211
0.654961 0.348498 3.82722 135 210 172
0.568147 0.368642 3.83364 58 106 77
0.585757 0.378158 3.83357 78 127 105
0.116638 0.404606 3.8943 248 254 253
0.11824 0.403146 3.89027 244 255 252
-1.62974 0.431955 3.8559 146 160 226
0.575457 0.454367 3.84169 144 193 177
0.631387 0.467125 3.84534 59 119 95
0.575322 0.47482 3.84948 164 209 206
1.7812 0.423094 3.18742 53 70 57
-1.62233 0.519754 3.8585 130 168 240
-2.03281 0.532807 3.84681 195 197 215
0.574295 0.548844 3.85384 180 220 219
-0.966143 0.573609 4.02397 243 251 250
-1.83038 0.57082 3.8206 142 181 243
-2.12154 0.671358 3.97789 85 108 146
-2.00813 0.660178 3.89959 97 98 158
-1.57433 0.718865 4.06221 159 191 250
-1.67483 0.707357 3.9332 125 165 240
1.59264 0.741937 3.8046 62 134 92
1.80018 0.75867 3.78896 75 142 110
-2.21901 0.858119 4.14164 83 110 147
0.207785 0.818705 3.93117 86 149 139
-1.67932 0.878565 3.96044 151 180 241
-2.18975 0.928097 4.12019 133 161 138
1.25072 0.869595 3.86462 101 162 136
0.488915 0.890518 3.91617 78 153 107
-0.188048 0.919209 4.01242 205 240 250
0.391278 0.916914 3.93277 171 230 215
0.530011 0.919449 3.90316 55 89 58
-1.70872 1.06934 4.04609 150 181 244
-1.66509 1.0555 3.94095 128 168 233
-0.531495 1.07874 4.03202 100 167 136
-1.66618 1.08554 3.95005 136 167 230
-0.359179 1.12082 4.02381 84 158 128
-0.672936 1.14569 4.0482 87 163 139
0.0929976 -1.42419 3.68279 90 142 148
1.78139 -1.35576 3.50793 95 155 125
1.78788 -1.35719 3.51657 95 146 118
-1.31898 -1.47173 3.83437 167 235 224
-0.769523 -1.44371 3.7659 66 109 100
-0.898967 -1.38246 3.81507 189 228 220
-1.23325 -1.38557 3.83276 176 232 219
-0.867219 -1.36791 3.79975 191 232 224
0.649949 -1.30012 3.63927 58 114 103
-0.981524 -1.3569 3.82189 65 126 106
-0.602542 -1.31321 3.76188 68 64 63
-0.112652 -1.28704 3.70284 186 238 228
-0.834785 -1.31165 3.79899 245 254 251
-0.75963 -1.27785 3.77511 76 117 85
-0.545863 -1.16574 3.44428 137 159 164
-0.779493 -1.2812 3.79244 69 97 78
-0.958089 -1.28164 3.82185 80 135 118
-0.777862 -1.27066 3.79185 140 197 172
0.151433 -1.23507 3.68734 88 145 124
0.162394 -1.24775 3.71965 73 124 110
0.196601 -1.21773 3.71936 145 199 210
-0.775247 -1.23429 3.79071 47 74 58
-0.0808591 -1.19684 3.71189 168 227 223
-0.823475 -1.21883 3.80774 83 126 111
-0.768804 -1.17898 3.7998 80 130 100
-0.703149 -1.1702 3.7807 97 84 58
-0.78001 -1.16972 3.8053 110 178 155
-0.602869 -1.1627 3.77982 76 82 89
-0.16911 -1.14228 3.72729 219 242 255
-0.781862 -1.16288 3.81737 74 118 101
-0.601912 -1.13667 3.77796 54 43 35
-0.121314 -1.12069 3.72475 86 165 152
-1.28727 -1.14531 3.87387 95 165 159
-0.759392 -1.08982 3.79893 102 137 111
0.0812988 -1.04633 3.73298 255 255 254
1.10019 -1.02029 3.6309 144 191 223
-1.02237 -1.06949 3.85105 67 137 114
-0.768029 -1.05639 3.81874 41 81 53
-0.129446 -1.0258 3.72559 180 225 236
-0.181209 -1.02672 3.74776 130 141 161
-0.709479 -1.19244 4.47054 54 67 69
-0.767198 -1.00769 3.81741 57 86 71
-0.763968 -0.964135 3.82821 44 66 54
-0.755665 -0.954776 3.8194 119 159 134
-0.261651 -0.894487 3.58776 175 206 221
1.70082 -0.875648 3.58922 154 213 198
-0.752503 -0.910413 3.82233 83 126 115
-1.67426 -0.927322 3.91425 84 141 126
-0.125492 -0.885898 3.75129 78 125 122
-0.751318 -0.891424 3.82213 98 141 114
-0.542807 -0.805404 3.45725 67 60 57
-0.179435 -0.876919 3.76689 114 131 144
-0.757502 -0.869185 3.82503 52 88 64
-0.59455 -0.848556 3.80439 193 226 222
-0.116108 -0.835532 3.75936 91 151 140
-0.0549681 -0.805656 3.75906 90 157 148
-0.181058 -0.799304 3.76128 84 77 90
-0.598728 -0.814227 3.81794 66 80 78
-0.0604429 -0.773754 3.75953 97 164 149
-0.752525 -0.766607 3.84067 108 175 146
1.57365 -0.701548 3.62252 181 223 222
1.61402 -0.701337 3.62206 153 202 194
1.4479 -0.698361 3.62725 153 207 207
1.52112 -0.697756 3.6518 51 54 58
1.25997 -0.685694 3.65381 39 76 68
-0.967449 -0.673653 3.88145 86 148 130
-0.752818 -0.669779 3.8439 95 162 147
2.00028 -0.613201 3.58601 99 142 127
2.00145 -0.612835 3.58943 100 149 133
-0.585398 -0.592927 3.84558 182 222 234
-0.743577 -0.544497 3.84939 55 87 76
-0.739491 -0.536665 3.8563 114 171 170
0.946004 -0.51223 3.71 164 209 247
2.03824 -0.493831 3.57611 138 168 209
-0.774469 -0.498387 3.86647 84 144 136
0.52218 -0.473013 3.7517 195 226 235
1.18134 -0.463827 3.67356 85 128 113
0.721165 -0.464541 3.73294 64 117 107
-1.58025 -0.460859 3.94443 233 250 239
-1.57656 -0.4601 3.95117 220 236 229
1.26868 -0.423762 3.6694 167 221 214
1.19889 -0.417455 3.68142 114 176 152
1.19675 -0.407131 3.69184 71 107 93
-0.334734 -0.4222 3.82136 102 160 149
-2.12407 -0.433931 3.99009 182 237 210
-1.33752 -0.4223 3.9274 97 175 158
-0.709167 -0.410966 3.86816 119 171 164
1.14921 -0.343142 3.69773 109 158 138
1.02032 -0.333842 3.71868 111 149 191
1.14859 -0.32757 3.69708 67 109 98
2.05045 -0.301761 3.60082 137 171 214
0.776085 -0.25447 3.75887 42 107 91
2.06275 -0.195832 3.61556 145 168 200
1.1557 -0.153164 3.71531 55 123 92
1.19297 -0.141801 3.71738 57 121 91
-1.82262 -0.115062 3.94399 185 219 235
-1.71777 -0.0816142 3.94207 241 250 253
1.94233 -0.0259129 3.67177 50 93 78
-1.86211 -0.0142919 3.77775 201 230 255
2.02019 -0.00814873 3.66647 67 108 77
-1.7731 0.0105774 3.77254 212 233 255
-1.76426 0.0210973 3.76581 104 116 150
-1.94395 0.123504 3.80205 196 220 250
0.342319 0.127142 3.84103 191 225 218
2.07947 0.122048 3.65311 117 161 208
2.16005 0.147426 3.68593 88 127 111
-0.914783 0.201877 3.97148 253 255 255
0.66682 0.22406 3.81418 155 208 195
-1.76694 0.23655 3.78908 87 80 113
1.87218 0.248962 3.715 122 184 160
-1.50631 0.268241 3.77411 94 132 220
2.05293 0.275934 3.71105 97 153 130
0.702974 0.319862 3.82618 106 175 142
0.667158 0.34384 3.82149 166 214 208
0.57472 0.355757 3.83143 183 223 212
-2.14481 0.394127 3.82391 139 159 224
0.668137 0.411004 3.82808 180 219 217
0.575957 0.453938 3.84056 146 198 181
2.28174 0.444438 3.7069 213 224 222
-1.67621 0.490755 3.97264 116 134 205
0.669718 0.612364 3.86499 197 230 223
-1.53267 0.700099 4.05672 118 119 140
-2.14371 0.696296 4.0088 163 204 243
-1.57466 0.719406 4.06349 159 191 250
-2.21499 0.8559 4.13671 74 92 123
-1.65054 0.81884 3.95696 84 94 164
2.09397 0.811029 3.77491 86 127 100
1.26306 0.833757 3.84354 110 178 153
-2.21039 0.901001 4.13808 141 171 212
0.50403 0.911484 3.92084 76 115 107
1.25393 0.898443 3.86016 111 173 151
0.505415 0.932804 3.91029 185 230 233
0.428187 0.944086 3.92081 213 244 243
0.536355 0.949346 3.94034 48 57 44
0.365059 1.08608 3.95217 199 221 219
-1.09005 1.13824 4.08681 208 248 243
0.221128 1.10599 3.9717 240 254 252
0.207183 1.11357 3.96807 110 149 134
-1.49808 1.2176 4.12524 234 255 255
-0.967422 1.2619 4.0955 230 254 254
-2.03893 1.24875 4.00682 115 121 174
-1.176 1.28851 4.11477 214 248 248
0 0 0 89 113 155
-1.42271 -1.47972 3.82562 51 110 96
-0.940176 -1.46514 3.81244 243 255 253
1.33229 -1.3694 3.55988 115 169 194
-0.835036 -1.42783 3.78849 180 214 214
1.95406 -1.28671 3.50456 75 122 100
-0.768178 -1.38473 3.78043 66 75 72
-0.903099 -1.38631 3.80585 243 255 254
-0.0880308 -1.34643 3.69418 168 226 208
-1.56599 -1.38379 3.86298 84 115 112
0.650968 -1.30067 3.64589 75 131 118
-1.73496 -1.37157 3.87584 107 164 143
-0.761112 -1.31122 3.76818 86 126 101
-0.904048 -1.32331 3.81833 199 224 210
0.0990144 -1.27232 3.69012 94 146 153
-0.18857 -1.27327 3.7231 130 143 169
-0.77976 -1.28765 3.80477 48 84 54
-0.759794 -1.27802 3.77748 80 121 89
-1.21827 -1.29247 3.85155 180 235 242
-0.186911 -1.24662 3.72381 79 70 83
-0.5659 -1.19114 3.58431 179 210 213
-1.2507 -1.27671 3.84831 239 249 243
-0.737727 -1.23899 3.75069 66 110 73
0.119799 -1.22487 3.70686 68 131 111
-0.186007 -1.22511 3.72841 120 127 144
-1.18538 -1.25955 3.84931 163 230 227
-1.01836 -1.24675 3.82745 93 147 118
-1.68033 -1.25254 3.8802 90 158 135
-0.566801 -1.14198 3.59004 192 224 223
-0.0454873 -1.18523 3.72206 157 222 220
-0.703833 -1.17043 3.7857 93 80 54
-0.167292 -1.14554 3.72038 240 255 255
-0.874591 -1.16473 3.8198 156 224 223
-0.601787 -1.13669 3.77856 54 43 35
0.0703766 -1.11831 3.72437 169 203 226
-0.919753 -1.73744 5.8303 156 185 194
-0.771783 -1.12399 3.81441 103 166 146
0.0700778 -1.10044 3.72786 78 74 85
0.0824357 -1.0868 3.72803 177 220 247
-0.0526787 -1.08403 3.72942 250 255 254
0.0154829 -1.08784 3.7408 103 160 157
-0.760617 -1.08999 3.80625 91 112 90
1.11158 -1.02924 3.62533 78 102 132
-0.565735 -1.02325 3.60892 157 187 188
1.11319 -1.02928 3.63004 73 99 129
-1.0081 -1.05424 3.85634 188 251 179
-0.763276 -1.03667 3.82137 87 142 127
-0.949982 -1.02396 3.84502 67 120 100
-0.18614 -0.999432 3.74965 93 82 90
-0.762088 -0.991608 3.81449 94 152 124
-1.21712 -0.997426 3.87422 125 182 184
-1.88736 -1.01639 3.97123 80 123 114
-1.1242 -0.958235 3.87753 103 173 160
-2.09001 -0.972799 3.96142 94 144 126
-0.761485 -0.929754 3.81949 105 161 138
-0.0171721 -0.915583 3.74761 112 172 166
-0.764 -0.915576 3.83168 54 91 83
0.574167 -0.872593 3.69434 192 224 223
-0.183177 -0.849377 3.76549 93 80 88
-0.755557 -0.855304 3.83993 86 157 124
0.0879474 -0.821422 3.75273 143 169 183
-1.46233 -0.845447 3.89836 98 161 152
0.110476 -0.809674 3.76045 244 252 252
-0.182027 -0.798763 3.77141 82 79 88
-1.24544 -0.813447 3.89992 94 162 155
-0.0604944 -0.77751 3.75243 86 148 134
-0.755347 -0.776906 3.83934 46 62 45
-0.45463 -0.730716 3.62339 136 135 144
1.49523 -0.721158 3.61747 150 216 197
-0.749968 -0.763723 3.83533 79 130 103
-0.563884 -0.716163 3.64498 192 215 223
2.11213 -0.695694 3.56657 75 86 100
-0.753922 -0.74503 3.83971 86 144 115
1.57277 -0.700818 3.6174 155 195 200
1.61743 -0.701821 3.62134 147 196 188
1.45835 -0.699398 3.63305 175 223 229
1.39354 -0.689942 3.64643 43 58 54
-0.757672 -0.729005 3.84347 53 70 56
1.92918 -0.682092 3.61912 74 132 114
-1.51294 -0.734721 3.91797 203 241 245
1.19204 -0.685027 3.65887 86 113 123
-0.758938 -0.70717 3.85512 109 181 169
1.12558 -0.677695 3.67098 44 106 84
1.14973 -0.678484 3.66825 64 119 104
1.35973 -0.662983 3.64365 164 234 217
-0.755395 -0.682783 3.84389 43 70 50
-2.26027 -0.694412 3.98838 85 154 134
2.00125 -0.624833 3.58413 49 51 45
-0.752355 -0.637439 3.84956 55 76 54
2.02013 -0.572739 3.56815 51 54 68
-1.07023 -0.611727 3.8995 113 178 169
-0.742718 -0.568916 3.83897 74 145 129
-0.908145 -0.565217 3.88828 85 144 130
-0.072285 -0.54386 3.78444 66 123 102
-0.555588 -0.519202 3.67704 198 231 234
-0.325298 -0.516667 3.67036 77 72 73
6.50256 -1.56336 11.2522 103 112 121
-0.738018 -0.526151 3.8482 101 149 143
-0.73548 -0.502236 3.86004 58 78 66
1.18215 -0.462946 3.67961 63 109 96
1.16779 -0.442079 3.67979 113 173 155
-0.728038 -0.461105 3.86753 68 87 84
2.04847 -0.426362 3.58619 189 217 251
-1.5742 -0.461354 3.94194 221 239 232
1.16528 -0.426853 3.67444 97 135 117
-0.717315 -0.442341 3.86446 109 162 165
1.13497 -0.400478 3.68665 111 170 155
1.17618 -0.390657 3.6936 90 135 116
1.73392 -0.376949 3.64717 47 76 60
-0.336764 -0.381255 3.82931 62 84 79
-0.70829 -0.3758 3.87628 47 69 75
1.15056 -0.342539 3.70112 109 158 138
2.0544 -0.32939 3.60196 147 180 225
1.6312 -0.302537 3.65759 54 105 91
1.61077 -0.292494 3.64844 57 93 76
-1.85154 -0.302186 3.95438 179 244 245
1.19627 -0.253218 3.70101 178 219 212
2.03224 -0.22429 3.62303 97 126 100
-1.84074 -0.229497 3.9431 78 77 116
1.93111 -0.207909 3.64855 73 127 110
2.0292 -0.191078 3.63493 86 132 109
2.06428 -0.195352 3.61771 142 167 199
-1.8222 -0.203188 3.94914 39 60 82
-1.74354 -0.17622 3.94483 110 187 183
0.606936 -0.123041 3.76508 77 125 101
-1.7246 -0.102384 3.95012 58 84 90
2.03189 -0.0193605 3.66624 71 121 79
-1.75882 -0.0112396 3.74451 79 69 105
2.02871 0.00301146 3.67725 39 59 36
2.02401 0.021571 3.68216 104 143 117
1.96112 0.0611542 3.67724 60 110 76
1.96969 0.0604085 3.66468 91 146 113
1.9731 0.0693098 3.70553 49 90 59
1.98239 0.0671322 3.68792 78 125 87
1.94668 0.0819829 3.6947 50 94 58
-0.695938 0.145312 3.94803 163 215 222
2.04436 0.135533 3.66577 56 90 60
1.95362 0.145025 3.69054 49 93 62
1.95052 0.179841 3.70654 55 80 60
-0.894974 0.203136 3.97082 242 246 247
2.16447 0.183855 3.68565 69 98 83
0.666147 0.194491 3.7964 187 221 215
0.685593 0.213853 3.80675 58 121 95
0.563489 0.236545 3.81641 67 132 100
-1.7678 0.23724 3.7912 87 80 113
0.667776 0.262775 3.82038 181 227 215
0.72533 0.26398 3.82326 105 164 143
0.573372 0.298405 3.82293 202 234 233
1.38626 0.314825 3.76386 178 236 241
0.681655 0.324782 3.82714 47 83 67
0.667617 0.347944 3.83316 162 222 212
0.5747 0.354245 3.82716 189 223 216
-1.71587 0.373997 3.89237 99 98 170
0.567526 0.369616 3.83782 58 106 77
0.589222 0.377328 3.8391 77 127 103
2.28569 0.381817 3.70349 174 174 174
1.79229 0.330979 3.18325 56 61 62
0.656127 0.411583 3.83728 66 120 103
0.585948 0.440148 3.84139 77 103 89
0.575165 0.478123 3.84809 177 222 219
-1.15444 0.533529 4.03792 253 255 255
-1.93108 0.537243 3.84241 168 168 168
-1.65181 0.541222 3.85581 132 165 234
2.33748 0.535961 3.72785 156 162 169
1.70489 0.68037 3.77659 74 124 90
2.26827 0.696653 3.74477 177 197 202
1.12478 0.74402 3.85185 139 202 223
2.12398 0.751482 3.74459 153 182 219
2.14309 0.798889 3.77772 142 180 228
1.24678 0.813205 3.84546 111 173 155
2.0975 0.814878 3.78294 88 133 107
1.26308 0.846133 3.85 60 114 97
1.24924 0.859631 3.84721 101 181 150
2.36204 0.844753 3.76623 170 199 204
1.2641 0.886389 3.87533 66 125 97
1.20771 0.901039 3.84896 90 156 131
0.531984 0.929287 3.91245 32 50 33
1.22451 0.918448 3.86628 76 126 108
0.535441 0.946306 3.9342 49 57 46
0.311968 0.960399 3.94461 205 246 241
2.11351 0.980994 3.80757 40 59 40
2.10544 0.998538 3.80526 107 169 139
-0.523467 1.07718 4.02608 99 171 141
0.65205 1.05012 3.92479 229 248 245
0.211458 1.11361 3.96626 103 145 128
3.30483 1.72839 5.83321 125 164 209
-0.857525 -1.43512 3.80258 214 237 232
-0.770429 -1.40902 3.78224 108 157 155
-1.34201 -1.39232 3.84908 179 239 233
-0.77065 -1.36421 3.78533 104 168 138
-0.762624 -1.332 3.76552 30 51 26
-0.874945 -1.33248 3.79265 72 117 101
0.100141 -1.2863 3.68806 89 129 124
-0.567632 -1.20833 3.58094 138 157 164
-1.70645 -1.31975 3.90729 115 182 167
-0.191632 -1.24664 3.72474 84 76 86
-1.87956 -1.28794 3.90733 110 166 143
0.194031 -1.21617 3.71247 153 207 218
-0.161613 -1.20649 3.71676 223 243 254
-1.64263 -1.19693 3.88493 116 176 165
0.0829764 -1.14426 3.72362 52 65 67
1.72738 -0.912025 2.99944 199 220 222
0.0138091 -1.09706 3.7293 127 169 158
0.0619498 -1.09844 3.74478 88 79 92
0.0807215 -1.07793 3.7309 176 210 239
-0.772922 -1.07925 3.85097 76 102 88
-2.01397 -1.10249 3.93752 92 133 118
-0.765976 -1.03342 3.81872 98 156 138
-0.765515 -1.01137 3.82044 58 83 57
-2.02323 -1.01839 3.93556 59 65 48
-1.99804 -1.01589 3.94214 93 133 108
-1.92917 -1.01827 3.94426 101 168 153
-0.763575 -0.986563 3.81446 90 140 116
0.102259 -0.94367 3.73958 138 184 185
-0.762822 -0.939304 3.82831 97 157 139
-2.09751 -0.972726 3.97044 96 151 134
-2.04094 -0.952169 3.90475 97 129 118
-0.760259 -0.894172 3.83229 113 179 154
-0.0594154 -0.86665 3.75481 87 152 136
-2.15401 -0.869833 3.93968 92 159 128
-0.482463 -0.786631 3.62826 250 255 255
-0.754572 -0.827612 3.83585 53 69 51
-0.753785 -0.803219 3.8325 87 143 114
1.92482 -0.71659 3.5989 109 166 135
1.74163 -0.690977 3.62175 46 61 57
2.02601 -0.678143 3.55065 167 197 238
1.39428 -0.689796 3.64813 43 58 54
-0.759555 -0.705913 3.84679 110 180 167
1.45983 -0.662384 3.62974 149 205 194
2.05689 -0.631347 3.60408 159 195 231
-0.755076 -0.659367 3.84908 91 165 135
0.121129 -0.643063 3.76964 194 224 243
-0.588296 -0.65203 3.85198 178 204 210
-0.74684 -0.567439 3.85207 94 165 149
1.95491 -0.530461 3.60307 58 84 68
-0.741499 -0.5246 3.86077 111 171 161
1.85393 -0.4845 3.5868 59 103 67
2.03938 -0.481757 3.5927 36 47 61
2.00109 -0.47408 3.5999 98 159 123
-0.734801 -0.503329 3.85575 42 59 45
-0.726904 -0.483128 3.85747 128 182 182
1.17542 -0.462773 3.67979 68 108 96
1.16567 -0.435735 3.67636 102 157 138
1.71163 -0.408007 3.64711 76 138 108
1.19853 -0.407229 3.70391 69 105 89
2.14385 -0.395845 3.59425 116 134 127
1.92751 -0.384076 3.63116 87 151 122
1.09832 -0.389219 3.69386 84 140 121
-0.710985 -0.397798 3.8629 129 183 190
1.174 -0.383357 3.68049 98 149 129
1.72141 -0.370539 3.63965 49 88 67
-0.70584 -0.377387 3.86644 58 72 71
1.20294 -0.352732 3.6842 50 96 74
-0.358049 -0.362947 3.8405 65 81 94
2.05175 -0.338503 3.59658 161 197 237
2.1166 -0.337474 3.59828 72 89 78
1.13722 -0.344493 3.69082 122 187 171
1.16654 -0.344099 3.6912 36 55 38
2.09322 -0.321661 3.57749 171 202 203
2.04519 -0.309554 3.60253 43 47 66
1.61553 -0.296707 3.64549 75 114 98
2.01604 -0.281817 3.62969 72 103 82
-2.12764 -0.28904 4.00432 217 248 249
1.99892 -0.264803 3.6423 57 101 78
2.21316 -0.251787 3.60347 107 109 117
2.05616 -0.231716 3.60667 132 163 202
-1.87857 -0.246032 3.9526 215 247 246
-1.8448 -0.228594 3.94766 87 85 115
1.91859 -0.211114 3.62826 89 136 120
2.05553 -0.196059 3.69529 105 152 136
-2.35152 -0.172639 4.02663 214 236 231
2.01004 -0.129028 3.64059 37 85 49
-1.75333 -0.135109 3.94161 41 81 99
0.601274 -0.12168 3.77321 88 130 107
2.00347 -0.103605 3.63472 59 119 88
-1.40254 -0.0855856 3.92324 112 110 170
-1.55054 -0.0750375 3.94001 112 104 174
-1.71834 -0.0654507 3.95194 187 214 234
-1.68852 -0.0625549 3.94689 45 65 76
2.00832 -0.0545851 3.68117 45 64 39
-1.72109 -0.0325502 3.94546 140 164 200
1.94672 -0.0244235 3.68264 50 99 77
0.372142 -0.0266567 3.81715 53 114 78
2.02953 -0.017521 3.67402 70 132 92
1.46211 -0.00570736 3.71819 68 129 101
-1.79016 0.00446438 3.76677 200 225 255
-1.76283 0.0297376 3.76183 124 127 165
1.99485 0.0615857 3.71162 87 142 109
1.95317 0.0856763 3.70731 50 94 63
2.01775 0.0995188 3.54876 99 116 149
2.23875 0.105207 3.66282 157 155 144
2.07826 0.131637 3.65241 136 171 214
1.97038 0.168736 3.67343 104 184 137
-0.905159 0.203707 3.96722 241 246 245
0.573162 0.19592 3.8207 178 216 210
-1.76486 0.215647 3.98858 89 102 178
0.493952 0.208541 3.83449 78 127 107
1.89552 0.218081 3.70885 50 103 89
-1.79568 0.227289 3.80512 221 242 255
2.2508 0.249831 3.68398 177 179 173
1.84924 0.264097 3.72104 46 59 51
0.664666 0.307259 3.82022 177 217 206
1.78555 0.268211 3.17876 38 42 36
-2.13993 0.390299 3.82089 150 153 191
0.54241 0.391719 3.83928 78 120 95
1.81868 0.377664 3.73274 41 47 28
-0.8564 0.439818 3.99408 248 251 255
0.504105 0.470867 3.85051 86 135 113
-2.02622 0.531869 3.85032 225 235 235
-0.957639 0.564012 4.01372 255 253 253
-2.05219 0.557637 3.86747 104 110 177
0.635065 0.574342 3.85849 60 128 97
1.82768 0.570553 3.74981 63 128 89
2.34842 0.661432 3.73884 164 183 191
2.32356 0.682441 3.74368 93 89 88
2.26367 0.69748 3.74456 172 194 199
1.21475 0.786304 3.84418 68 112 95
2.11745 0.77086 3.74927 55 55 67
2.23062 0.780644 3.76665 152 203 206
1.24497 0.805374 3.84363 112 179 164
2.08698 0.79745 3.76855 61 90 64
2.14223 0.798944 3.77785 125 163 211
2.23596 0.786205 3.74335 112 125 141
0.574689 0.834121 3.90763 188 226 220
1.20381 0.848159 3.8572 129 194 173
2.19894 0.826918 3.76531 62 70 69
2.17768 0.850405 3.7769 95 118 114
0.515323 0.917498 3.91002 98 142 111
1.09875 0.912385 3.88392 75 128 108
1.20216 0.906454 3.86461 108 173 152
1.22543 0.919724 3.86885 72 118 105
0.497464 0.935606 3.91313 202 243 246
0.526236 0.941417 3.91693 43 53 40
2.13043 0.946466 3.77189 75 80 101
2.10629 0.977517 3.79877 52 78 55
2.21618 0.982374 3.79207 77 78 69
2.18664 1.0046 3.79703 105 127 125
0.364165 1.07765 3.97429 67 79 61
0.509385 1.06767 3.94053 242 250 249
2.01249 1.05066 3.81496 95 129 118
0.31706 1.10118 3.94671 58 70 48
3.29237 1.75451 5.83188 45 53 76
