ply
format ascii 1.0
element vertex 1272
property float x
property float y
property float z
property uchar blue
property uchar green
property uchar red
end_header
-0.716757 -0.678469 7.25353 100 144 107
-2.6433 -1.85364 19.7142 91 134 123
0.0910769 -0.255361 1.66275 146 213 184
-0.0425451 -0.294075 2.75004 64 125 105
-0.658389 -0.628967 6.86917 88 125 99
-1.61942 -1.18737 13.061 53 105 87
-0.0196542 -0.280123 2.56988 69 126 95
-1.68257 -1.21825 13.5094 79 142 126
0.0103433 -0.263672 2.33242 82 143 109
0.030594 -0.258137 2.16292 59 128 95
0.0354489 -0.25657 2.12687 154 241 197
0.0653286 -0.251071 1.87936 153 213 179
-2.40265 -1.5769 18.1324 83 152 141
-1.64904 -1.15248 13.278 62 104 97
-1.3134 -0.965123 11.1176 108 160 142
0.0955066 -0.248498 1.59458 111 170 150
0.0764827 -0.245845 1.76684 84 149 123
0.0728571 -0.245359 1.78621 95 162 133
0.0166062 -0.253843 2.26687 56 101 74
0.0169572 -0.25176 2.25966 135 199 169
-1.08433 -0.778995 9.61742 86 134 105
-0.61406 -0.535285 6.57599 114 180 145
-0.0438676 -0.266632 2.72339 84 160 126
3.75882 1.74335 -21.6694 186 235 227
-0.0365677 -0.26253 2.662 86 163 125
0.10111 -0.244538 1.50358 101 150 134
0.0558589 -0.241406 1.92894 141 211 181
4.30665 1.94098 -25.1909 123 178 159
-0.0232761 -0.251147 2.55744 67 126 82
-0.0167664 -0.246318 2.49993 89 120 93
-0.436148 -0.409992 5.39807 92 163 143
-0.0207238 -0.244613 2.52422 91 136 109
-0.442973 -0.40763 5.44756 99 161 137
0.0506285 -0.231449 1.93891 104 180 146
3.66256 1.50278 -21.065 88 143 128
-1.12761 -0.704199 9.90412 85 107 89
-0.498616 -0.407024 5.81046 111 141 130
0.0776367 -0.230023 1.68074 88 152 116
0.0239415 -0.227252 2.15449 57 119 83
-2.27769 -1.15972 17.3121 114 184 171
1.8122 0.596986 -9.14691 155 176 177
1.76493 0.569347 -8.84226 101 117 116
-0.0297944 -0.228721 2.56343 134 223 179
0.0800032 -0.225411 1.62852 84 133 113
-0.72261 -0.457355 7.25084 100 133 119
-0.188993 -0.264113 3.70869 86 148 132
-0.0499181 -0.226955 2.71017 89 169 138
-0.97289 -0.544112 8.88165 98 132 115
-0.0474937 -0.222579 2.6846 86 162 130
-0.569229 -0.38646 6.25332 133 186 176
-0.530366 -0.372616 6.00126 133 189 168
-0.0413446 -0.220595 2.63514 49 136 98
0.0392654 -0.215716 1.98634 93 147 124
-0.48113 -0.34914 5.67489 83 134 114
-0.00493072 -0.214832 2.35541 75 142 110
0.0447257 -0.214342 1.93228 104 176 146
-3.81016 -1.59313 27.1531 85 158 136
-3.38652 -1.43586 24.4048 84 151 130
-0.253601 -0.271288 4.15391 93 142 128
-3.83155 -1.59779 27.3656 63 135 112
-0.841585 -0.470156 8.00913 107 140 119
-0.168426 -0.243619 3.54812 89 155 136
2.63218 0.827746 -14.4392 82 127 118
0.0872678 -0.223603 1.53519 95 135 153
1.43833 0.371136 -6.7837 106 143 141
0.0755696 -0.218152 1.6447 89 137 111
-0.76549 -0.419482 7.51208 108 154 142
-0.197184 -0.240275 3.74094 98 169 143
-3.07347 -1.22281 22.4461 127 185 174
-0.290399 -0.257104 4.37458 72 130 106
0.0534257 -0.208618 1.83103 74 124 94
-0.0240289 -0.2031 2.46883 89 157 132
-0.954559 -0.452641 8.72044 121 173 156
0.0492648 -0.20658 1.86625 114 173 135
0 0 0 169 239 226
0.0294153 -0.202457 2.03219 77 142 120
-0.839471 -0.406504 7.98048 123 178 163
-0.0882799 -0.204465 2.94235 83 148 127
0.0496466 -0.204966 1.84087 157 231 189
0.11671 -0.240975 1.15988 88 151 125
0.104877 -0.230242 1.29064 91 154 138
-0.641299 -0.328368 6.68607 103 125 101
0.0310341 -0.197447 2.00046 55 103 77
-0.225783 -0.21507 3.90515 73 144 118
-0.87568 -0.38392 8.21142 117 157 139
-0.0388203 -0.191047 2.56157 99 176 148
-4.38484 -1.38784 30.929 155 223 212
0.0378045 -0.195976 1.93316 71 133 103
0.0599031 -0.201536 1.739 89 146 137
-0.488714 -0.255405 5.66792 72 150 119
0.0198408 -0.188873 2.07632 62 130 107
0.0302688 -0.189915 1.97477 129 199 152
-0.74364 -0.298263 7.33749 110 140 115
-2.22574 -0.645309 16.8938 135 197 183
-2.03542 -0.597587 15.6749 135 184 168
-0.566932 -0.25005 6.17004 128 210 188
0.0781367 -0.206762 1.52417 98 159 149
-0.65141 -0.262437 6.74322 96 127 112
-0.0703365 -0.173393 2.76622 154 230 189
0.020865 -0.182615 2.04152 74 137 98
0.0378285 -0.187803 1.89271 160 230 190
0.0163322 -0.179333 2.06842 69 121 97
0.0153189 -0.177455 2.07833 100 158 134
-0.0645148 -0.165074 2.70324 78 152 128
-0.248619 -0.171261 4.01784 81 148 121
0.0192938 -0.175214 2.03005 49 82 48
-0.459909 -0.19081 5.44097 79 150 130
0.0597933 -0.190223 1.66212 66 92 108
-1.00285 -0.266551 8.97637 105 155 143
-1.81763 -0.377768 14.2281 122 145 130
-0.0147799 -0.157571 2.29252 82 154 132
0.0444058 -0.17906 1.78759 84 128 121
0.0147417 -0.165292 2.0447 155 217 187
0.0393008 -0.174281 1.8321 96 148 148
-3.02417 -0.494811 21.9705 97 150 136
-1.01732 -0.217795 9.05516 125 189 170
-0.10149 -0.139087 2.9357 82 150 125
0.00912323 -0.159991 2.07244 85 135 105
-2.86096 -0.44053 20.9056 125 179 166
-1.51077 -0.250831 12.2133 121 149 136
-1.05514 -0.193156 9.29422 79 109 98
-0.933018 -0.184632 8.49832 129 196 181
-2.18053 -0.311637 16.5077 96 139 130
0.0471416 -0.175494 1.7335 55 108 88
0.0715849 -0.19357 1.49399 101 164 148
-2.34987 -0.32402 17.626 122 203 184
-0.976889 -0.17681 8.7802 67 117 107
-0.206633 -0.122463 3.6748 104 164 140
-1.33067 -0.207251 11.0487 104 153 139
0.0185226 -0.159746 1.97566 122 202 165
0.0281672 -0.161545 1.89433 255 255 254
0.0300044 -0.163823 1.86845 254 255 253
0.0477278 -0.173566 1.69992 90 149 135
0.0310453 -0.163054 1.84744 98 162 132
-1.62383 -0.169688 12.9228 81 128 120
0.01544 -0.152386 1.98089 83 146 126
0.0287745 -0.157559 1.84714 77 129 111
-0.0531177 -0.120547 2.51809 137 210 172
-0.04002 -0.124114 2.41152 72 123 96
-0.00509874 -0.136958 2.13385 61 98 78
0.0174575 -0.149238 1.94338 93 154 134
-0.0863998 -0.109003 2.765 143 208 162
0.078089 -0.198937 1.32954 87 143 130
0.0628336 -0.182251 1.48519 214 243 248
0 0 0 93 162 142
-0.0408794 -0.111528 2.39541 75 150 122
-0.0512581 -0.106587 2.47096 74 133 105
-0.00590401 -0.12688 2.09861 89 169 134
0.0507104 -0.167662 1.57614 100 156 143
-0.0126455 -0.120059 2.14622 62 102 77
0.00997557 -0.133147 1.94513 93 151 133
0 0 0 109 171 147
-0.228304 -0.0420255 3.75197 92 158 139
1.41846 -0.0519624 -6.59301 102 162 154
0.0661003 -0.184804 1.37472 98 149 135
-0.0457589 -0.0939684 2.3816 96 158 144
0.0480523 -0.163861 1.54934 90 153 144
-0.390644 0.00560758 4.82687 104 168 146
-0.287128 -0.0137102 4.13371 102 169 138
-0.269151 -0.0158228 4.00443 189 233 226
0.0547202 -0.170366 1.46561 99 159 148
5.68112 -0.442345 -33.6607 76 148 126
-0.196473 -0.0259091 3.47631 72 140 129
0.0326331 -0.146585 1.65399 79 136 121
-0.189998 -0.0241516 3.43073 85 151 140
-0.399242 0.0341954 4.859 76 122 100
0.0714322 -0.194891 1.24856 63 114 110
0.0684685 -0.192515 1.25 102 154 160
-0.849159 0.145371 7.81072 103 167 137
-0.911577 0.162011 8.20212 87 142 109
0.0196263 -0.129294 1.74665 64 143 122
-0.0060844 -0.105562 1.97056 63 131 108
0.0404657 -0.152815 1.53745 198 241 230
0.0512001 -0.1663 1.42345 67 123 100
-0.694242 0.138225 6.80657 84 153 133
0.0825094 -0.220724 1.04978 75 132 107
0 0 0 96 163 142
-0.562121 0.126205 5.89289 80 149 128
-1.46113 0.381065 11.7123 90 139 123
-1.24407 0.340623 10.3137 168 235 214
0 0 0 81 135 98
-1.38897 0.383494 11.2601 155 219 197
-0.529571 0.152511 5.65036 77 132 117
0 0 0 67 129 83
-0.561246 0.19067 5.85132 84 155 138
-2.34844 0.737298 17.34 59 111 94
2.34229 -0.583378 -12.3695 77 133 112
2.79077 -0.713514 -15.2083 88 147 119
6.16576 -1.81615 -36.7046 149 209 191
0 0 0 65 118 91
2.26068 -0.615164 -11.8669 91 153 131
0.0479332 -0.170787 1.27637 150 213 193
2.64442 -0.791174 -14.2896 255 255 255
4.35735 -1.39791 -25.1627 77 141 99
0.0484827 -0.173208 1.25711 128 190 172
2.20105 -0.642703 -11.4998 89 129 111
1.43365 -0.371186 -6.58992 81 146 125
-0.243081 0.109615 3.62538 71 138 117
1.55255 -0.426283 -7.35324 78 145 118
0.00926516 -0.110478 1.62971 79 152 126
1.99457 -0.59449 -10.1776 93 136 123
-0.250885 0.118591 3.65217 122 206 164
-0.244503 0.116899 3.61565 78 131 92
-0.224722 0.104221 3.4636 83 154 104
-0.0808901 -0.00613903 2.39677 104 165 151
1.36304 -0.363366 -6.13015 60 146 104
-0.261167 0.133466 3.70487 70 138 103
1.28996 -0.355791 -5.68342 95 159 129
-0.0281282 -0.0586402 1.94809 94 152 141
1.543 -0.464779 -7.27099 106 153 137
-0.420578 0.243288 4.79102 114 188 162
1.32081 -0.39415 -5.87941 85 135 117
0.0505644 -0.193749 1.10647 76 126 116
-0.388734 0.251525 4.5217 89 165 147
1.17227 -0.362389 -4.92926 108 164 153
-0.0618481 -0.0140667 2.15136 107 174 147
1.93179 -0.745567 -9.75889 93 155 139
-0.47382 0.310763 5.09352 98 145 113
-0.0620992 -0.0117622 2.15728 94 167 141
1.2646 -0.419174 -5.50561 86 138 128
-0.456898 0.307822 4.98288 79 134 117
1.03024 -0.305365 -4.01838 113 167 150
-0.375494 0.262707 4.42201 101 160 145
-0.537428 0.372368 5.50003 100 167 135
-0.0214946 -0.0658346 1.77398 55 110 77
-0.437075 0.310016 4.82635 71 114 129
0.870223 -0.253383 -3.03559 98 178 143
-0.0320993 -0.0519931 1.8282 70 131 97
1.05482 -0.351682 -4.16577 87 152 136
0.891706 -0.275758 -3.16216 89 144 127
-0.620638 0.464726 5.9971 164 246 203
-0.643817 0.483418 6.15962 97 158 132
-0.0390859 -0.0389409 1.87538 62 133 107
-0.0309359 -0.0514504 1.78715 75 117 92
-0.00958568 -0.0869234 1.58954 70 134 105
-0.604357 0.481786 5.8596 53 119 94
0.0216131 -0.152527 1.25316 104 179 158
-0.683462 0.5699 6.36943 58 119 85
-0.810471 0.680195 7.18511 75 149 119
-0.291703 0.265829 3.73858 242 255 251
2.04163 -1.08419 -10.3832 84 167 152
-0.622737 0.555792 5.94751 97 154 129
-0.0540561 -0.0136504 1.89738 87 156 135
1.01448 -0.409945 -3.89464 107 168 154
1.8695 -1.02204 -9.25473 238 254 253
-0.041718 -0.0353243 1.76942 156 227 200
-0.191527 0.180999 2.96452 81 131 113
-0.174981 0.160753 2.82666 89 158 131
-1.00839 0.932133 8.40628 114 182 165
-0.178486 0.169347 2.83789 101 159 141
-0.0723295 0.016634 1.9906 101 174 152
-0.063768 0.00250034 1.91655 89 142 128
-0.176857 0.16938 2.80819 108 165 144
-0.247321 0.26251 3.35064 81 153 130
1.04349 -0.477678 -4.06458 104 169 147
-0.22864 0.240327 3.19696 164 232 209
-0.0525233 -0.0168571 1.80224 83 150 121
-0.23088 0.244687 3.19107 75 133 109
-0.0486501 -0.030768 1.68984 66 109 100
-0.0311071 -0.0682132 1.52782 93 152 137
-0.0732613 0.0157618 1.88864 168 238 202
-0.214081 0.244629 3.01154 86 137 117
0 0 0 91 159 142
1.02259 -0.540964 -3.9314 99 176 155
0.83932 -0.379882 -2.78904 83 135 117
1.28483 -0.811024 -5.58817 100 173 147
-0.28941 0.364262 3.50088 91 154 128
-0.110847 0.0866062 2.13965 96 136 125
0.881344 -0.425899 -3.03689 112 169 138
0.949249 -0.489792 -3.4518 80 127 94
-0.298868 0.380653 3.55365 152 240 200
0.928388 -0.472809 -3.32522 85 151 126
-0.19171 0.226632 2.76949 89 133 120
-0.148156 0.154422 2.42668 97 159 143
-0.171559 0.193616 2.60335 81 155 127
-0.160005 0.175482 2.51603 103 157 134
0.938878 -0.487739 -3.3891 68 127 113
-1.27082 1.51978 9.96912 101 173 153
-0.366604 0.491673 4.00712 47 100 61
-0.201846 0.249505 2.80678 91 142 128
0.932446 -0.498069 -3.34245 70 144 118
1.51824 -1.12805 -7.09515 76 141 125
-0.265084 0.347944 3.26909 70 116 94
0.936086 -0.509432 -3.37601 88 134 115
-0.195624 0.240816 2.74724 74 125 98
0.917503 -0.491388 -3.2448 106 166 135
0.932224 -0.507211 -3.34995 87 141 124
1.0078 -0.587957 -3.8247 87 129 104
-0.1854 0.226432 2.65468 154 219 193
-0.0863079 0.0348005 1.84848 90 160 147
-0.227945 0.300034 2.96998 74 123 103
0 0 0 245 251 250
0.942933 -0.540514 -3.41392 105 153 155
1.3903 -1.04835 -6.28759 94 164 134
-0.159168 0.181662 2.42078 88 155 124
-0.492293 0.697171 4.82435 49 97 71
1.02686 -0.649687 -3.94517 84 134 122
0 0 0 90 165 143
-0.217266 0.292901 2.85854 69 101 84
0.887381 -0.494828 -3.05831 86 146 122
1.23232 -0.907274 -5.27454 93 158 132
-1.68568 2.20444 12.5661 73 155 126
-0.143014 0.154409 2.26455 94 158 136
-0.179129 0.224493 2.53905 204 252 194
-0.329593 0.485424 3.66586 85 133 107
1.19788 -0.883324 -5.04476 54 110 89
0.898857 -0.520485 -3.12261 79 145 116
1.20716 -0.899151 -5.11636 88 166 125
0.909656 -0.537348 -3.19463 78 128 94
1.36088 -1.09917 -6.11604 63 136 120
0.905427 -0.535969 -3.17484 73 126 87
0 0 0 73 155 126
-0.287366 0.426004 3.31816 253 255 247
0 0 0 98 154 131
-0.126576 0.118918 2.07585 92 154 138
-0.215024 0.29797 2.76622 139 211 175
-0.163496 0.197332 2.35898 156 232 200
1.08409 -0.78645 -4.32129 107 159 136
1.2023 -0.937784 -5.07895 80 135 108
-0.345792 0.536075 3.73873 91 152 126
1.06335 -0.770168 -4.19139 99 160 134
2.14603 -2.22855 -11.2555 84 159 143
-0.952431 1.45211 7.82975 57 113 90
-0.629197 0.994447 5.68896 83 133 115
-0.415131 0.659703 4.22148 252 255 253
-0.326372 0.511237 3.58544 66 102 85
0.90818 -0.570222 -3.18825 93 151 126
-0.174737 0.222369 2.42406 167 236 215
-1.46019 2.18455 11.1302 84 158 140
-0.517935 0.842944 4.93089 89 154 139
1.11229 -0.86446 -4.49824 170 252 203
0.810431 -0.463888 -2.56467 98 165 128
-0.205023 0.292403 2.64495 94 155 135
1.13348 -0.904189 -4.6376 69 157 117
0.808437 -0.464939 -2.55956 106 167 141
-1.2395 1.9263 9.68949 92 137 118
1.07265 -0.829207 -4.25895 84 133 111
1.11558 -0.886339 -4.52611 82 139 94
1.13155 -0.919215 -4.63733 134 235 184
1.67625 -1.71847 -8.24852 102 173 157
0.821512 -0.4889 -2.63801 97 139 121
1.11891 -0.909008 -4.55692 85 157 111
-0.295355 0.477631 3.29639 86 131 114
1.01239 -0.76133 -3.87335 166 231 210
-0.493976 0.837532 4.71891 237 249 249
0.819499 -0.490924 -2.62201 157 222 200
3.63513 -4.53433 -20.8691 78 138 120
0 0 0 75 114 98
-0.205182 0.295789 2.60661 84 151 142
0.894162 -0.592121 -3.09585 89 140 120
-0.499556 0.853823 4.76714 237 255 254
0.898806 -0.601557 -3.12102 93 160 123
1.06158 -0.844984 -4.18926 158 242 208
-0.280828 0.458246 3.18512 100 151 137
-1.43758 2.3583 10.9701 62 133 107
1.18525 -1.06436 -5.02639 88 162 136
0 0 0 97 168 151
1.0468 -0.845916 -4.11054 111 160 128
1.14201 -1.00494 -4.75406 106 170 135
-0.00939194 -0.253761 0.800001 109 160 152
1.06815 -0.902838 -4.25803 53 94 63
-1.85638 3.08245 13.7198 72 122 110
1.17076 -1.0824 -4.96706 83 162 141
-0.343871 0.598595 3.59467 147 208 188
0.821023 -0.52303 -2.62204 70 130 99
0.947113 -0.713912 -3.4416 202 242 237
1.15586 -1.05739 -4.85632 104 175 142
0.919757 -0.676557 -3.27546 66 111 92
1.02964 -0.861521 -4.01302 92 152 121
1.07065 -0.931867 -4.29146 83 138 113
1.00546 -0.822814 -3.83708 97 161 132
1.08801 -0.965408 -4.41117 81 142 106
0.905848 -0.666883 -3.19025 87 142 125
-0.541991 0.997816 5.01484 253 255 255
-0.600167 1.12429 5.41483 120 136 143
0.803711 -0.514961 -2.5157 92 146 123
0.957893 -0.764154 -3.53684 92 168 136
0.807128 -0.52436 -2.54278 79 128 106
1.07641 -0.976283 -4.34848 73 138 99
1.1222 -1.06407 -4.67391 89 150 122
1.10168 -1.03168 -4.52963 72 133 99
2.83416 -3.97508 -16.0394 251 255 255
0.974833 -0.80838 -3.65909 64 131 102
1.01161 -0.877296 -3.88925 75 154 111
0.761186 -0.468251 -2.25111 204 243 235
0.951796 -0.776052 -3.49709 94 159 137
0 0 0 208 238 227
1.02696 -0.932881 -4.03845 213 243 238
0.837753 -0.605778 -2.74386 79 143 121
-0.0610565 -0.139637 1.11962 129 187 176
0.795292 -0.538031 -2.46224 66 128 98
0.900608 -0.728436 -3.16847 100 134 123
-0.815103 1.67477 6.89601 116 136 161
0.87694 -0.693312 -3.00608 113 177 155
0.949496 -0.832548 -3.4963 91 136 117
0.868035 -0.695132 -2.95784 80 135 116
-3.77012 7.78735 27.0642 93 99 118
0.839079 -0.671877 -2.76286 91 151 133
1.53345 -2.29693 -7.87902 125 184 176
-1.38576 3.13364 11.0113 197 188 198
0.899317 -0.82235 -3.20147 155 217 195
0.860601 -0.738301 -2.92885 97 141 124
0.961199 -0.978496 -3.67065 93 168 146
0.912373 -0.864215 -3.30503 85 146 120
1.03318 -1.18187 -4.2465 118 168 180
0.899362 -0.847716 -3.22314 92 145 131
0 0 0 159 187 198
-1.99529 4.65545 15.3686 149 141 151
0.796113 -0.61903 -2.48176 81 142 122
-1.51242 3.66576 12.045 253 255 254
-0.194944 0.25633 2.12281 219 249 244
-0.155973 0.12256 1.77372 86 121 117
2.86546 -5.82492 -17.8487 255 255 255
2.83245 -5.77274 -17.6651 255 255 255
0.93767 -0.97992 -3.53739 99 167 136
0 0 0 85 92 107
2.78963 -5.75533 -17.4086 157 162 177
2.46384 -5.06644 -15.1468 166 164 176
-1.45384 3.65299 11.7222 108 136 160
0.780818 -0.608097 -2.39066 112 175 159
1.05071 -1.35282 -4.50307 85 162 148
2.42529 -4.99998 -14.9121 174 180 193
0.961486 -1.10004 -3.79131 98 164 145
0 0 0 183 204 205
2.56155 -5.7069 -16.4077 126 152 166
2.82904 -6.39666 -18.3592 131 163 169
1.43057 -2.65542 -7.78131 147 165 166
1.73832 -3.60143 -10.2533 240 251 249
0 0 0 118 132 150
1.50853 -3.14781 -8.7304 111 116 131
1.4702 -3.07072 -8.43526 180 190 200
1.75214 -4.02243 -10.8468 251 253 254
1.3032 -2.58454 -7.13997 241 250 253
1.63882 -3.80463 -10.0854 119 115 120
1.99315 -4.95653 -13.0116 161 198 190
0.825125 -0.791897 -2.74799 237 255 254
2.36358 -6.57275 -16.5891 111 112 126
1.32246 -2.90752 -7.59021 124 131 148
0.72738 -0.547029 -2.02849 100 161 133
1.11762 -2.12846 -5.75633 254 255 225
0.818439 -0.794837 -2.71102 87 159 123
1.074 -1.94693 -5.32007 100 154 149
1.34357 -3.44155 -8.43823 118 123 122
1.28544 -3.32617 -8.0487 158 206 180
1.13869 -2.54808 -6.38709 122 122 134
0.783878 -0.72128 -2.4568 63 124 98
1.13091 -2.99918 -7.02951 94 115 113
1.11194 -3.10313 -7.10919 73 80 95
1.09308 -3.07504 -7.00425 169 182 190
0.804858 -0.808878 -2.6358 89 145 124
0.909146 -1.31241 -3.74501 64 108 109
0.979447 -1.94588 -4.92569 125 166 159
0.787525 -0.757254 -2.49919 148 236 183
0.961081 -1.85162 -4.71139 67 119 112
0.997314 -2.79517 -6.25116 90 86 105
0.973837 -2.23622 -5.30885 211 218 221
0.97203 -2.68278 -5.98607 198 213 216
0.781047 -0.752555 -2.45892 88 147 119
0.872501 -1.21438 -3.45397 110 145 159
0.932093 -1.77269 -4.47678 87 144 135
0.940801 -2.52078 -5.63673 149 160 168
0.923664 -1.82446 -4.52729 106 157 137
0.924626 -1.80636 -4.48155 71 105 104
0.697985 -2.62856 -5.07632 92 99 142
0.901158 -1.76942 -4.35145 180 216 216
0.834723 -2.41056 -5.12014 88 82 93
0.886557 -1.58099 -3.99466 144 211 166
0.879688 -1.72972 -4.20372 91 150 129
0.85462 -2.01724 -4.54704 218 229 227
0.748858 -2.28262 -4.63319 59 45 56
0.56914 -2.19459 -3.99229 206 240 246
0.864166 -1.5054 -3.79227 122 171 143
0.677883 -2.07954 -4.08595 151 160 170
0.78623 -1.90938 -4.12737 82 87 90
0.5339 -2.00399 -3.56513 125 137 165
0.781202 -1.85999 -4.04873 227 241 237
0.740046 -1.8783 -3.92584 65 64 60
0.818101 -1.5812 -3.69968 101 146 127
0.80419 -1.58549 -3.66739 59 128 91
0.691774 -1.82799 -3.67704 160 214 179
0.718337 -1.73875 -3.62182 147 177 166
0.648288 -1.80625 -3.51824 78 125 103
0.76828 -1.57193 -3.52025 171 248 190
0.785531 -1.09978 -2.87466 64 130 119
0.681042 -1.68192 -3.40623 62 99 89
0.663804 -1.70418 -3.38473 81 142 108
0.330652 -1.47538 -2.12991 138 154 177
0.416456 -1.59954 -2.54003 96 96 112
0.634785 -1.6492 -3.19572 162 238 196
0.719223 -0.678127 -2.03966 127 186 171
0.478107 -1.62393 -2.73099 149 204 187
0.500702 -1.63363 -2.80279 110 157 148
0.749923 -0.850692 -2.36951 100 179 146
0.375209 -1.51437 -2.29215 253 254 255
0.574894 -1.62426 -2.97762 80 97 94
0.561153 -1.61567 -2.92298 104 110 117
0.550323 -1.58578 -2.83897 84 101 92
0.734434 -0.798088 -2.22856 85 147 125
0.738034 -0.843498 -2.30027 94 163 126
0.739489 -0.867389 -2.32823 67 131 96
0.485144 -1.5209 -2.54234 189 203 202
0.733563 -0.873503 -2.30996 66 153 115
0.732321 -0.881853 -2.31894 95 157 127
0.734251 -0.948774 -2.41507 87 160 134
0.708927 -0.704692 -1.99609 113 178 163
0.579089 -1.46134 -2.69114 85 146 126
0.385331 -1.40912 -2.1023 63 57 74
0.725204 -0.898251 -2.29444 177 243 214
0.552816 -1.44057 -2.57338 71 136 110
0.706363 -0.732998 -2.00644 110 173 157
0.354084 -1.35845 -1.93616 125 136 150
0.305663 -1.30103 -1.72726 111 119 142
0.550222 -1.41004 -2.50621 116 201 173
0.707794 -0.777467 -2.06257 107 154 145
0.281427 -1.25678 -1.59502 72 94 142
0.19368 -1.12235 -1.1876 250 255 255
0.711608 -0.892746 -2.22276 81 152 112
0.509102 -1.36941 -2.31697 237 255 248
0.480323 -1.37004 -2.23655 86 158 115
0.69949 -0.770967 -2.00461 109 173 154
0.39868 -1.33763 -1.9791 191 197 202
0.68348 -1.05911 -2.34259 101 147 135
0.273785 -1.21802 -1.4962 112 123 131
0.243759 -1.17734 -1.36632 143 209 184
0.680508 -0.669589 -1.79729 135 207 185
0.676276 -1.05341 -2.30582 172 237 212
0.305168 -1.23958 -1.59629 125 131 142
0.679029 -0.670216 -1.79363 114 176 160
0.447131 -1.30562 -2.02275 158 233 195
0.688849 -0.832524 -2.02253 102 169 138
0.687364 -0.856785 -2.05312 92 155 116
0.687574 -0.820506 -2.00096 94 172 135
0.676017 -0.683417 -1.78262 127 179 169
0.685871 -0.857918 -2.04146 154 240 186
0.685477 -0.855728 -2.03363 82 144 108
0.680984 -0.82359 -1.97151 90 155 116
0.613601 -1.14225 -2.20843 105 173 138
0.676698 -0.831781 -1.95981 80 129 101
0.668908 -0.683166 -1.73885 157 236 192
0.676858 -0.79552 -1.90799 118 152 142
0.401809 -1.23687 -1.77496 154 153 157
0.670595 -0.842475 -1.94112 61 110 78
0.498775 -1.22477 -1.99866 225 255 250
0.639746 -1.01603 -2.07663 120 159 134
0.663462 -0.701433 -1.72973 85 156 130
0.425445 -1.22444 -1.80506 255 254 254
0.414793 -1.21931 -1.77255 246 255 255
0.495463 -1.20689 -1.95047 72 144 114
0.357665 -1.19268 -1.58791 220 237 233
0.47432 -1.20079 -1.87796 63 104 83
0.348799 -1.18341 -1.55015 233 239 238
0.375503 -1.18883 -1.61463 77 127 103
0.654117 -0.833965 -1.8432 104 172 141
0.344135 -1.16609 -1.49961 156 225 205
0.651425 -0.789285 -1.76464 101 158 127
0.629674 -0.920405 -1.86954 250 255 254
0.436127 -1.16101 -1.69264 97 152 135
0.411406 -1.16238 -1.63341 139 207 176
0.424774 -1.15502 -1.64953 87 143 132
0.563248 -1.05718 -1.85736 77 143 124
0.544848 -1.07462 -1.83045 96 155 127
0.614869 -0.930471 -1.81837 102 174 138
0.561403 -1.04759 -1.82808 65 141 109
0.55972 -1.05092 -1.83084 177 241 222
0.627911 -0.737336 -1.5716 243 255 255
0.614362 -0.752838 -1.52226 222 255 255
0.124855 -0.69141 1.74192 114 157 196
0.107474 -0.717938 1.83491 114 110 135
0.110941 -0.707925 1.8131 88 111 156
0.0968309 -0.725393 1.89819 150 191 216
0.0946283 -0.723223 1.91759 159 194 234
0.0981764 -0.712287 1.90797 129 175 223
0.0863239 -0.738134 1.96406 142 181 226
0.0817051 -0.731594 1.99865 88 130 189
0.05782 -0.762177 2.13348 94 122 163
0.0556108 -0.760664 2.15244 176 219 246
0.0788232 -0.716858 2.04935 142 145 159
0.0450697 -0.771737 2.20975 127 145 168
0.0307663 -0.798192 2.27522 177 219 255
0.0559797 -0.749972 2.16724 125 125 139
0.0525621 -0.748788 2.19188 221 246 248
0.0593966 -0.73402 2.15796 148 157 167
-0.0202912 -0.88042 2.52908 107 154 205
-0.0240499 -0.886159 2.54606 143 185 227
-0.0035232 -0.842892 2.44372 132 150 191
-0.0289292 -0.893563 2.57242 110 147 181
0.0321962 -0.759139 2.32582 137 131 132
0.207692 -0.369005 1.09533 34 43 40
-0.376089 -1.33993 4.55673 112 94 83
-0.397968 -1.36624 4.69682 182 187 190
0.193474 -0.378541 1.23632 32 48 47
-0.357264 -1.28767 4.5419 118 106 106
0.206546 -0.356418 1.0655 55 78 63
0.190841 -0.369054 1.22509 64 88 70
0.196728 -0.362051 1.1683 54 74 62
0.174402 -0.385239 1.36869 127 187 156
0.192783 -0.362003 1.19385 68 125 94
0.193165 -0.359112 1.19005 46 95 79
0.195675 -0.356512 1.15802 80 104 102
0.190564 -0.360427 1.20922 60 98 80
0.186739 -0.363363 1.2404 57 87 74
0.185895 -0.362561 1.25212 129 196 164
0.177305 -0.36609 1.32281 179 242 210
0.178237 -0.360854 1.30527 85 137 107
-1.20872 -2.3998 9.53412 202 205 210
0.179842 -0.356858 1.28243 78 131 98
-1.48338 -2.78343 11.1944 147 135 135
0.0933902 -0.448256 1.96782 84 135 115
0.177376 -0.353806 1.2931 102 149 123
0.153199 -0.377182 1.52395 67 92 82
0.164805 -0.364129 1.41323 73 115 97
0.173909 -0.351946 1.31561 226 255 245
0.147824 -0.378684 1.56921 63 96 75
0.153955 -0.369861 1.50572 47 91 62
0.151745 -0.369878 1.52003 53 75 56
0.147207 -0.371611 1.5473 146 216 186
0.138724 -0.381045 1.63075 47 81 57
0.131471 -0.385699 1.69401 182 240 216
0.136388 -0.378472 1.63757 141 211 174
0.152295 -0.361985 1.49509 152 225 193
0.124765 -0.392175 1.75675 130 178 152
0.124513 -0.388125 1.73876 66 94 74
0.131892 -0.379004 1.67563 45 100 73
0.151348 -0.357998 1.4991 75 132 107
0.13843 -0.362225 1.59419 147 215 192
0.104176 -0.397199 1.8878 90 133 122
0.14978 -0.34884 1.48484 84 149 117
0.167488 -0.330771 1.29393 103 165 149
-0.675941 -1.35767 6.82681 169 199 226
0.075669 -0.417142 2.09467 141 199 174
0.0914427 -0.400824 1.97572 73 119 100
0.146407 -0.344192 1.49741 82 125 110
0.0899595 -0.393022 1.97031 71 112 81
0.0981091 -0.387125 1.91869 50 101 73
0.0818785 -0.399342 2.03564 149 219 179
0.0937634 -0.38403 1.94247 51 101 77
0.115616 -0.362967 1.76412 92 146 129
0.137013 -0.344296 1.57526 108 158 148
0.138914 -0.340509 1.54696 97 145 127
-0.327784 -0.868476 4.75397 193 209 225
-0.36069 -0.89787 4.95927 130 147 166
0.104132 -0.366832 1.84505 82 149 120
0.0948926 -0.372248 1.91522 102 172 135
0.0984003 -0.358327 1.87621 87 141 128
0.130047 -0.325542 1.57519 97 152 133
0.117255 -0.330569 1.68484 101 177 146
0.139361 -0.314984 1.46056 214 239 219
0.121494 -0.324817 1.63343 108 164 141
0.128486 -0.317556 1.55687 98 153 138
0.12187 -0.317412 1.60177 87 121 90
0.123534 -0.315672 1.59133 139 209 179
0.0545355 -0.358525 2.16571 68 126 97
0.124734 -0.311576 1.58047 77 126 106
-0.00116433 -0.388292 2.58019 75 124 102
0.111243 -0.30681 1.66889 88 140 116
0.121511 -0.299797 1.55963 96 158 136
0.100736 -0.308831 1.75186 81 136 109
0.0849548 -0.314373 1.88009 82 142 102
0.0964889 -0.305494 1.7741 157 224 195
0.10153 -0.303286 1.72942 150 215 189
0.112581 -0.296606 1.62448 125 190 165
-1.14696 -1.3271 9.93726 130 194 172
0.1106 -0.294215 1.62719 230 251 243
0.0675546 -0.313394 2.01223 74 149 121
0.093995 -0.299768 1.78231 75 131 102
0.107418 -0.2936 1.65084 100 154 124
-1.83298 -1.85604 14.1955 50 79 54
-1.64634 -1.70289 13.0885 51 67 56
0.074873 -0.306786 1.94341 142 223 184
-1.49613 -1.55112 12.13 38 75 55
-2.54405 -2.40203 18.6615 75 98 90
-2.92034 -2.61585 21.1606 138 191 181
0.0348611 -0.316334 2.24644 60 113 93
-4.9193 -4.15585 34.0859 49 69 56
-4.0578 -3.49181 28.6518 100 135 108
0.114666 -0.27776 1.53429 82 138 117
-2.79736 -2.40659 20.5009 77 101 91
-0.581077 -0.726267 6.37152 95 121 97
0.075803 -0.283011 1.86872 154 214 183
0.00976177 -0.303246 2.40196 103 167 138
-1.1961 -1.11686 10.2441 50 70 57
0.105194 -0.269728 1.58745 255 254 255
0 0 0 59 98 90
-0.00473745 -0.300364 2.50663 108 190 161
0.0382801 -0.28381 2.16114 155 251 204
0 0 0 152 211 197
-1.26362 -1.09899 10.71 229 237 206
0 0 0 68 99 102
-2.45624 -1.8531 18.4904 255 255 254
0.0630079 -0.270079 1.94461 107 168 124
0.103434 -0.260622 1.56338 76 154 107
-1.61021 -1.27011 12.9987 142 204 182
0.0944112 -0.260843 1.64838 61 76 55
-0.856151 -0.777429 8.1478 90 106 88
0.0911087 -0.255697 1.66189 146 213 184
0.0981841 -0.254446 1.58753 70 135 103
-0.00591304 -0.269655 2.45949 56 111 84
-1.32098 -0.965039 11.1365 116 171 152
0.0157157 -0.248198 2.26788 144 218 190
1.64292 0.619316 -8.03288 149 240 207
-0.651782 -0.536155 6.81097 80 129 97
3.75537 1.67669 -21.7147 94 141 132
-0.119086 -0.283917 3.25571 82 138 119
-0.0232019 -0.251868 2.55483 87 149 103
0.0563352 -0.232186 1.8835 83 142 111
0.00975065 -0.226118 2.26133 100 159 131
2.1171 0.727461 -11.1105 105 148 139
-2.34619 -1.16348 17.7301 140 211 195
-0.0347552 -0.229313 2.59151 68 128 87
0.0529437 -0.220367 1.8803 54 114 90
0.0801691 -0.225254 1.6287 84 133 113
1.76285 0.535802 -8.83688 108 137 134
-0.970219 -0.54519 8.86047 91 127 110
1.34004 0.349149 -6.15236 163 234 208
1.7159 0.501992 -8.5243 206 237 234
0.0392507 -0.214496 1.98971 73 132 117
0.0633308 -0.215408 1.75887 76 151 107
0.0873139 -0.223493 1.53538 95 135 153
-0.0527729 -0.211373 2.69948 82 160 123
0.0450459 -0.206187 1.89859 54 94 69
0.0506038 -0.205438 1.84275 146 225 182
1.09879 0.197715 -4.64498 79 105 99
-3.51018 -1.23444 25.2002 124 176 166
-2.255 -0.836943 17.1045 57 76 59
-3.94522 -1.34162 28.0759 96 146 134
0.0310192 -0.197433 2.00051 55 103 77
1.41149 0.288553 -6.57579 196 240 233
-2.21543 -0.769452 16.8622 68 95 75
-1.15304 -0.436973 10.0121 116 164 146
0.0460248 -0.198009 1.85979 159 222 183
-0.629579 -0.284576 6.58462 126 154 135
-2.22574 -0.645309 16.8938 135 197 183
-2.03577 -0.597074 15.6944 121 170 154
-0.0759617 -0.170867 2.79864 73 127 98
-0.689051 -0.255646 6.93333 85 140 113
0.00884523 -0.176221 2.12255 54 115 87
0.0206759 -0.179707 2.02986 129 196 157
0.0621289 -0.195369 1.66248 89 121 150
0.0330182 -0.18011 1.92747 99 123 99
-2.02339 -0.47869 15.5784 139 210 184
0.0248774 -0.174702 1.97949 51 106 79
0.0247389 -0.173878 1.9654 157 222 196
0.0552417 -0.187696 1.69351 165 205 230
-3.01437 -0.495967 21.9192 97 146 132
-3.06438 -0.45415 22.2019 147 202 193
0.00897698 -0.158358 2.07299 72 117 100
0.0716451 -0.19363 1.49378 101 164 148
0.0375207 -0.169495 1.80584 82 124 101
-1.58524 -0.223385 12.7135 143 196 186
-0.0574326 -0.113864 2.5331 99 161 131
2.16212 -0.0181661 -11.3277 100 165 156
0.057059 -0.174958 1.49861 85 146 132
-0.0791105 -0.0868275 2.65822 252 254 254
0.0753229 -0.196842 1.28371 98 150 132
0.0661091 -0.184975 1.37437 98 149 135
0.0569123 -0.173316 1.47033 76 139 123
0.0745333 -0.195877 1.26851 80 148 117
5.74973 -0.431662 -34.0999 98 177 150
3.2421 -0.252404 -18.177 89 148 134
0.06915 -0.192075 1.28498 91 151 117
-0.484022 0.0382947 5.44152 86 146 128
-0.440623 0.0289382 5.14852 82 145 113
4.03471 -0.407719 -23.2425 81 147 135
-1.248 0.241811 10.3838 60 126 97
0 0 0 81 135 98
-1.00493 0.287744 8.72769 99 167 144
-0.207913 0.0445484 3.45051 75 134 119
0 0 0 57 96 75
0 0 0 164 226 208
-0.0780836 -0.0240935 2.43789 82 140 159
0 0 0 74 143 130
0 0 0 152 220 203
2.09339 -0.534205 -10.7847 85 139 126
0.0475241 -0.170429 1.27773 152 211 190
2.19789 -0.64608 -11.4788 85 125 107
0.00625897 -0.105192 1.66031 84 153 138
1.47472 -0.398262 -6.85229 61 135 107
0 0 0 70 138 115
1.36406 -0.363281 -6.13103 62 148 106
1.76084 -0.518632 -8.66228 99 147 129
1.89037 -0.567367 -9.531 93 146 132
-0.263337 0.132106 3.74283 104 174 144
-0.228003 0.108905 3.47793 62 128 87
0.0433151 -0.170059 1.2501 83 140 131
1.31832 -0.393273 -5.86157 86 135 119
1.51273 -0.476316 -7.08969 177 231 226
2.30441 -0.836643 -12.1062 94 158 146
-0.537428 0.372368 5.50003 100 167 135
-0.0217024 -0.066573 1.77266 79 142 102
-0.0326006 -0.0512188 1.83061 74 136 106
-0.0182292 -0.0738287 1.67684 141 227 187
-0.381628 0.308977 4.41835 83 138 121
-0.363159 0.304284 4.27111 105 176 150
-0.633504 0.543534 6.01918 74 116 99
-0.750177 0.644108 6.79711 81 152 119
-0.623704 0.556615 5.95128 91 149 125
-0.0526419 -0.016693 1.82999 72 118 99
0.985951 -0.462349 -3.69693 125 187 169
-0.0182426 -0.11105 1.3238 112 169 171
-0.310941 0.393652 3.65614 91 152 124
0.0122609 -0.204588 0.973847 74 119 110
-0.289521 0.376056 3.46328 88 139 105
0.00908787 -0.201983 0.979093 72 134 122
1.25097 -0.866017 -5.37488 92 163 130
-0.172897 0.207483 2.52709 84 142 107
-0.328171 0.479714 3.64949 81 134 107
1.19902 -0.883259 -5.04902 69 127 109
0.00990728 -0.245573 0.82541 216 247 244
0.905918 -0.535996 -3.17486 79 135 94
-0.146776 0.160956 2.21604 247 255 253
0.975055 -0.647058 -3.61707 125 178 164
-0.17821 0.228075 2.45589 75 143 112
1.22706 -0.999098 -5.24869 92 152 121
-0.626279 0.988207 5.66866 76 123 101
-0.140306 0.144594 2.11551 64 131 100
0.833079 -0.490034 -2.7009 115 154 129
1.11622 -0.896381 -4.54402 155 247 204
0.823176 -0.49515 -2.64394 63 81 58
0 0 0 79 149 126
-0.00576984 -0.263843 0.769766 94 147 134
1.51393 -1.59819 -7.24135 220 253 239
0.809192 -0.506627 -2.54816 85 122 96
-0.0508082 -0.147957 1.10524 81 147 122
-0.746052 1.4228 6.41956 210 231 232
0.963689 -0.793408 -3.57936 84 140 111
-0.237539 0.387106 2.68993 244 255 252
-0.721201 1.4416 6.2314 105 121 134
-0.84269 1.71215 7.09086 237 249 249
-0.0516568 -0.191682 0.973861 114 164 182
0.974882 -0.914077 -3.70498 90 161 121
-0.907624 1.93748 7.54922 160 159 179
4.02516 -7.13771 -24.7106 98 127 118
1.53338 -2.29666 -7.87732 125 184 176
-0.0236208 -0.334192 0.597606 115 159 158
0 0 0 74 76 84
3.02223 -5.97819 -18.8659 137 168 177
0.953337 -0.993759 -3.6456 84 154 131
-1.49158 3.60878 11.8878 250 255 255
1.7982 -3.29911 -10.1983 77 115 103
2.82843 -5.76009 -17.6194 255 255 255
0 0 0 109 115 126
0 0 0 102 102 114
0 0 0 157 181 181
1.43179 -2.65715 -7.78877 147 165 166
5.03364 -12.1591 -34.4403 119 136 132
0.856782 -0.827816 -2.95784 107 162 143
0.888675 -0.923799 -3.2147 82 149 120
1.71074 -3.61159 -10.1595 140 150 167
1.4134 -2.88169 -7.97479 134 141 161
0.826477 -0.774421 -2.73681 81 141 107
1.4764 -3.15092 -8.56014 86 92 105
0.824341 -0.774907 -2.72998 86 153 114
1.22239 -2.45429 -6.61308 111 103 113
1.68985 -4.2546 -10.9101 92 97 98
2.28905 -6.4986 -16.2286 255 254 254
1.24296 -2.71246 -7.0354 169 181 183
2.1007 -5.96182 -14.7515 254 253 255
1.11192 -2.12048 -5.73129 254 255 225
0.841153 -0.884248 -2.90847 94 170 129
1.25863 -3.48627 -8.19921 197 226 230
0.785697 -0.722824 -2.46543 71 126 101
1.37737 -4.0515 -9.40786 248 255 255
1.02306 -2.02558 -5.20182 128 138 156
0.908783 -1.31225 -3.74353 64 108 109
0.791877 -0.768708 -2.53007 71 122 88
0.972287 -3.19558 -6.78344 121 123 147
0.774287 -0.729682 -2.4031 107 163 140
0.980741 -2.68492 -6.03757 125 128 142
0.965065 -2.66928 -5.94476 215 228 230
0.921414 -2.22458 -5.07985 189 205 204
0.887979 -1.53014 -3.93002 104 144 126
0.864354 -1.66803 -4.03647 133 179 167
0.826776 -1.98827 -4.39749 198 212 210
0.758031 -2.11284 -4.36588 114 133 141
0.546582 -2.05601 -3.68864 229 248 255
0.715086 -0.59557 -1.95955 87 145 116
0.816235 -1.17112 -3.11968 219 240 242
0.799859 -1.61291 -3.70002 59 126 87
0.468557 -1.80753 -3.04827 135 149 172
0.411647 -1.73157 -2.78938 104 118 146
0.758291 -1.60844 -3.54713 53 74 66
0.777757 -1.53637 -3.47091 85 125 97
0.755957 -0.799346 -2.35296 89 154 133
0.738794 -1.59751 -3.4422 206 230 228
0.638657 -1.75243 -3.38058 93 135 110
0.743725 -0.764857 -2.25024 118 183 161
0.633994 -1.68325 -3.26628 82 98 104
0.451513 -1.64226 -2.70607 181 206 216
0.62377 -1.68755 -3.22272 199 234 224
0.705321 -1.55723 -3.25757 65 107 90
0.349655 -1.50735 -2.22608 235 246 250
0.332679 -1.47961 -2.14084 138 154 177
0.627482 -1.6325 -3.14976 129 192 166
0.479613 -1.62649 -2.73868 148 203 184
0.748048 -0.946399 -2.47735 97 173 141
0.734133 -0.849761 -2.28974 98 170 124
0.319618 -1.38343 -1.9215 153 121 138
0.741711 -0.984374 -2.49448 101 161 137
0.732692 -0.857936 -2.28917 93 161 130
0.559485 -1.5116 -2.72956 154 175 177
0.728471 -0.823366 -2.22344 101 170 149
0.729763 -0.845898 -2.25673 88 149 113
0.736031 -0.949098 -2.41782 86 158 128
0.561228 -1.49454 -2.70781 90 119 116
0.375145 -1.41995 -2.10078 212 232 237
0.244185 -1.2452 -1.51789 99 102 116
0.455882 -1.46548 -2.36701 101 108 117
0.575144 -1.43356 -2.62228 71 99 93
0.553151 -1.44094 -2.57493 71 136 110
0.310264 -1.32105 -1.77578 213 231 248
0.717761 -0.8554 -2.20416 92 143 123
0.283224 -1.27126 -1.62699 201 216 235
0.70836 -1.08759 -2.50149 110 176 141
0.234047 -1.18634 -1.37294 219 242 255
0.707641 -0.77741 -2.06201 107 159 149
0.284695 -1.25575 -1.59966 136 169 195
0.502322 -1.37349 -2.29903 89 94 67
0.343346 -1.31361 -1.82369 94 90 102
0.297598 -1.26166 -1.6284 153 172 185
0.699131 -0.770985 -2.00399 114 173 158
0.67526 -0.624976 -1.73094 110 168 143
0.468955 -1.34906 -2.16015 172 248 207
0.235952 -1.16337 -1.32567 89 132 117
0.45096 -1.32805 -2.07403 160 240 197
0.441379 -1.32389 -2.04853 77 122 96
0.486456 -1.32195 -2.155 194 255 231
0.302162 -1.23416 -1.57889 125 132 141
0.283945 -1.20317 -1.47968 255 255 255
0.650129 -1.086 -2.24614 114 153 108
0.670982 -0.68065 -1.7466 70 124 94
0.676505 -0.795357 -1.90812 98 136 124
0.438136 -1.24322 -1.87835 168 211 202
0.41028 -1.24389 -1.81194 219 240 231
0.318372 -1.19469 -1.51789 216 223 218
0.507232 -1.21156 -1.99604 90 151 137
0.425129 -1.22413 -1.80422 255 254 254
0.631378 -1.02219 -2.05483 90 133 96
0.392463 -1.21461 -1.70785 254 254 254
0.37981 -1.2088 -1.66903 247 255 253
0.59481 -1.08529 -2.02818 148 231 186
0.406432 -1.20847 -1.72323 136 153 156
0.595434 -1.07776 -2.0138 83 118 92
0.376454 -1.18979 -1.61751 83 131 107
0.630397 -0.970002 -1.95679 102 168 143
0.542292 -1.13326 -1.93919 88 156 125
0.344301 -1.16619 -1.50024 156 225 205
0.575624 -1.07523 -1.93708 97 155 126
0.618936 -0.958025 -1.88839 91 155 133
0.587016 -1.03241 -1.89535 48 60 40
0.592889 -0.994015 -1.8513 65 88 60
0.545248 -1.05247 -1.78169 113 159 140
0.125686 -0.698247 1.73071 149 190 229
-0.127393 -1.15235 2.69118 81 93 133
0.110391 -0.675291 1.86894 155 186 209
0.0618834 -0.750795 2.11314 108 130 166
0.0634834 -0.735307 2.12713 154 160 173
0.0723349 -0.71858 2.08211 240 253 255
0.0330139 -0.795382 2.26777 104 125 170
0.0736477 -0.715572 2.09007 166 175 179
0.0313435 -0.786901 2.29233 159 168 178
-0.00296169 -0.849605 2.44381 183 217 253
0.0592404 -0.726268 2.173 146 143 145
0.0261873 -0.777096 2.31952 137 133 132
0.0360338 -0.757984 2.29913 131 119 119
-0.0954012 -0.973825 2.96018 125 136 168
-0.0100903 -0.812036 2.56534 143 141 141
-0.00225878 -0.794337 2.53421 140 134 135
-0.40814 -1.52656 4.33927 88 95 114
-0.125394 -1.00823 3.14423 152 162 172
-0.0525112 -0.858539 2.82386 130 123 114
-0.664127 -1.87566 5.8372 147 176 213
0.206528 -0.365783 1.08712 60 75 54
0.179974 -0.398293 1.33688 74 106 89
-0.310186 -1.23243 4.27164 158 163 166
-0.398075 -1.36689 4.70362 190 195 198
0.181991 -0.390884 1.32116 78 118 107
-0.514064 -1.53623 5.29956 123 98 82
0.179067 -0.39003 1.33168 167 235 212
0.206544 -0.359218 1.07762 102 148 125
-0.545904 -1.57567 5.53759 184 191 194
-0.493917 -1.4849 5.27312 182 191 195
0.204182 -0.354895 1.08216 68 98 87
0.197032 -0.362639 1.1658 53 72 57
-0.647446 -1.71134 6.11953 182 184 185
0.199938 -0.357075 1.12752 196 232 216
-0.670841 -1.73557 6.32038 136 130 125
-0.591422 -1.59768 5.84752 134 126 127
-0.722617 -1.8039 6.65117 133 126 117
0.189062 -0.362246 1.22994 114 186 144
0.185387 -0.364234 1.25642 109 152 131
0.189413 -0.362493 1.2291 144 217 177
0.186268 -0.363937 1.25635 93 151 122
-0.810051 -1.88471 7.17315 193 202 205
0.185975 -0.362503 1.25218 129 196 164
0.173886 -0.37579 1.37856 51 76 66
0.176713 -0.36382 1.32124 72 106 89
0.147866 -0.396183 1.57898 92 135 124
-1.21463 -2.40983 9.5984 200 203 208
0.164815 -0.374282 1.43208 68 105 71
0.168413 -0.371336 1.40783 72 108 92
-1.48517 -2.78809 11.2219 147 135 135
0.115749 -0.425882 1.81776 146 183 151
0.155347 -0.380743 1.51712 144 213 193
0.162987 -0.371441 1.44368 74 107 86
-2.8586 -4.7945 19.1629 134 127 132
0.154693 -0.375464 1.50611 141 218 191
0.146341 -0.382681 1.56975 129 200 174
0.146848 -0.376968 1.56828 42 78 56
0.151755 -0.369782 1.52027 53 75 56
0.148444 -0.37627 1.56904 60 89 66
0.147644 -0.369115 1.54788 230 252 247
0.159765 -0.355219 1.4306 81 133 116
0.162496 -0.352988 1.40768 84 141 126
0.13689 -0.378853 1.64347 133 203 163
0.118812 -0.396346 1.79449 44 64 59
0.125384 -0.387862 1.7384 63 94 73
0.132188 -0.379235 1.67527 53 109 80
0.1345 -0.374597 1.65483 47 78 49
0.149055 -0.356972 1.51605 101 159 134
0.123765 -0.375587 1.72486 81 123 100
0.147324 -0.34866 1.50469 104 144 126
0.0856921 -0.405846 2.00591 35 67 42
-0.307492 -0.877263 4.61963 139 166 200
0.12104 -0.366255 1.73002 70 106 84
0.0821451 -0.398945 2.03688 143 213 173
0.0901801 -0.393109 1.96988 68 110 79
0.121067 -0.362334 1.72055 73 109 95
0.145249 -0.338645 1.49514 96 146 134
-0.319032 -0.866468 4.69953 194 220 237
0.0852278 -0.39011 2.00715 52 81 58
0.078981 -0.381616 2.02555 166 232 203
0.113832 -0.333612 1.71655 102 153 125
0.0390363 -0.38939 2.31515 115 190 152
0.13341 -0.311118 1.50084 82 139 118
0.123994 -0.312041 1.57889 73 118 101
0.127133 -0.301309 1.5186 95 153 129
-1.00971 -1.2949 9.04213 149 186 190
0.081805 -0.323115 1.93574 119 192 166
0.0945443 -0.311898 1.80456 77 144 113
0.100908 -0.308651 1.75221 96 152 123
-1.35573 -1.54789 11.2027 90 135 116
0.0290007 -0.352003 2.34556 74 134 116
-2.08819 -2.10492 15.9546 47 79 60
-1.83259 -1.85745 14.2176 52 81 55
-1.26751 -1.38288 10.7641 144 200 171
0.115908 -0.28716 1.55669 66 123 92
-2.86779 -2.66801 20.8374 160 195 175
-1.67098 -1.70478 13.2772 41 61 48
0 0 0 80 124 111
-4.97708 -4.06609 34.4007 140 197 182
-3.59704 -3.02883 25.5497 49 62 54
-2.9166 -2.46504 21.3794 65 95 84
-2.46044 -2.0955 18.4313 66 87 85
-1.28864 -1.21268 10.9174 64 92 79
-1.30221 -1.21266 10.9256 78 140 118
0.068358 -0.281658 1.93079 83 143 113
0.00887057 -0.302232 2.40964 96 160 131
-1.26085 -1.10702 10.6723 180 221 190
0 0 0 93 120 124
0.10371 -0.260866 1.56251 75 153 106
0.0922134 -0.260444 1.67719 62 95 74
1.76628 0.833863 -8.74062 76 114 96
-1.61142 -1.21419 13.0122 147 201 188
0.0245397 -0.269671 2.23839 88 144 115
-1.76547 -1.30452 14.011 99 142 133
-0.593145 -0.597337 6.49389 98 133 113
0.0921307 -0.254886 1.64604 60 125 93
0.0968156 -0.254611 1.61096 74 122 98
0.00193763 -0.269992 2.40568 77 145 110
0.0358494 -0.25982 2.12954 133 222 178
0.084914 -0.252078 1.7127 80 138 110
1.78169 0.746553 -8.93932 119 161 130
-0.0488917 -0.277085 2.77269 76 142 113
-0.636103 -0.557382 6.73228 89 130 103
0.0898061 -0.246471 1.62888 170 240 204
-0.00662542 -0.25281 2.43582 83 140 107
-1.74507 -1.0863 13.9126 52 89 73
4.33144 1.90259 -25.3494 56 86 67
-0.0181654 -0.244384 2.5088 74 112 82
-0.00673839 -0.24048 2.414 71 112 91
-1.13622 -0.705866 9.95779 80 105 85
1.3824 0.413093 -6.3779 53 63 51
-2.35755 -1.20209 17.7793 70 125 108
-1.57049 -0.856498 12.7502 97 130 115
-2.36549 -1.16471 17.864 148 217 202
-0.333694 -0.327029 4.70112 124 198 168
-1.0081 -0.585143 9.10935 101 124 102
1.62096 0.489463 -7.93203 252 254 254
-1.36517 -0.700611 11.3987 101 150 134
-0.72586 -0.455588 7.27896 101 134 120
-2.40259 -1.09618 18.0964 130 166 152
-1.28225 -0.65198 10.8737 108 178 155
-0.567094 -0.388287 6.24851 126 177 169
0.0329393 -0.206692 2.0131 58 115 100
-1.04818 -0.479339 9.36823 111 170 149
-0.966676 -0.445243 8.81875 122 173 165
-2.33632 -0.88 17.6812 105 141 125
-0.20499 -0.226303 3.79516 69 149 118
-2.65616 -0.955377 19.6719 67 88 73
-0.07375 -0.19717 2.82304 76 131 104
0.0510861 -0.199569 1.81735 62 98 84
-2.65038 -0.817605 19.6403 89 126 118
-0.632047 -0.283481 6.59546 125 153 134
-2.04249 -0.569273 15.6998 71 99 80
0.0387771 -0.186283 1.8958 153 226 186
-0.689636 -0.257249 6.91901 108 166 137
0.0326816 -0.183333 1.93312 38 92 55
-1.27276 -0.353127 10.7637 107 150 129
-0.936036 -0.288044 8.60565 116 160 147
0.0275524 -0.179758 1.97792 155 227 175
-1.0594 -0.309312 9.36667 106 149 136
0.0328907 -0.178886 1.90578 73 141 110
-0.940134 -0.248273 8.59028 75 88 74
0.0151322 -0.169835 2.05554 63 99 69
-1.01488 -0.222485 9.03811 135 196 182
0.0532445 -0.179667 1.67434 88 145 124
-2.97655 -0.402382 21.6639 83 119 103
-1.59015 -0.220657 12.7584 140 194 181
-1.54269 -0.191492 12.3819 69 91 73
-0.00500888 -0.137093 2.1336 68 107 85
0.0258344 -0.150422 1.84012 88 122 112
-0.0784081 -0.0846961 2.66412 255 255 255
0.0339017 -0.150205 1.69745 97 164 143
-0.0718218 -0.0777146 2.5723 74 130 101
-0.296233 0.0142959 4.17498 79 134 117
-0.392697 0.0655006 4.79516 67 126 106
0.0764168 -0.208812 1.12345 101 152 132
-1.91843 0.490018 14.6203 63 108 89
-2.31176 0.721621 17.0941 75 124 108
2.17016 -0.498484 -11.2604 93 152 137
0 0 0 100 140 122
-2.03819 0.660422 15.3592 82 151 138
2.38986 -0.585648 -12.6563 87 135 117
-4.81554 1.4785 33.0646 94 162 137
-0.0776592 -0.0237461 2.43831 90 149 165
0.0508751 -0.176789 1.24893 62 80 63
9.68425e-05 -0.0982877 1.7398 70 129 109
1.46642 -0.399886 -6.83322 129 206 179
0.0423151 -0.164617 1.28533 137 205 188
-0.718749 0.381039 6.77419 255 254 255
-0.159258 0.0688809 2.9569 102 173 146
0.0223794 -0.135025 1.40166 72 96 88
-0.480768 0.318226 5.13362 84 132 104
-0.0216956 -0.0664541 1.7659 91 145 110
-0.440202 0.312447 4.84986 82 116 139
-0.0148385 -0.078069 1.68936 90 164 122
5.94519 -3.03029 -35.0429 95 164 143
-0.182748 0.14717 2.95864 92 153 125
-0.0665284 0.0047443 1.87688 55 89 58
-0.048099 -0.0305994 1.6877 66 109 100
-0.328837 0.389377 3.83464 74 122 96
1.31369 -0.824082 -5.77878 71 135 113
0.943327 -0.479146 -3.42308 91 161 130
-0.523952 0.662071 5.12675 85 139 102
-0.110431 0.0854689 2.13475 95 132 122
0.878603 -0.428989 -3.02476 105 163 135
0.874807 -0.436232 -2.99063 100 136 112
-0.184075 0.215684 2.6808 91 146 121
-0.417294 0.579024 4.32316 83 127 98
0.891333 -0.496554 -3.07057 77 139 115
-0.111616 0.0869491 1.9967 79 121 103
-0.197792 0.26039 2.68031 76 113 97
0.906779 -0.53732 -3.1841 84 134 100
0.850356 -0.494077 -2.82303 95 144 124
1.17081 -0.922708 -4.87023 123 205 162
-0.141828 0.148504 2.14879 84 138 109
0.919115 -0.675476 -3.26979 75 114 92
1.22809 -1.26176 -5.40548 88 153 167
0.933253 -0.742524 -3.37159 80 129 101
-0.384733 0.738399 3.82735 249 251 252
-0.720463 1.4475 6.24668 72 88 111
1.04972 -1.078 -4.24755 62 135 119
0.918204 -0.829529 -3.31279 186 228 217
0 0 0 157 179 191
-2.84105 6.32477 21.0155 162 185 201
0.900015 -0.833426 -3.20928 84 94 82
0 0 0 75 77 87
0 0 0 77 76 85
0 0 0 137 139 149
0.90667 -0.888839 -3.28382 91 157 128
-2.72888 6.62514 20.7957 227 228 232
1.6805 -3.10646 -9.43341 135 179 166
1.73038 -3.51447 -10.1016 109 118 132
2.45459 -5.6116 -15.7028 106 132 119
1.21372 -2.16634 -6.20331 70 114 97
2.28205 -5.72348 -15.114 76 106 95
1.8091 -4.27699 -11.3535 169 217 199
1.35711 -2.86332 -7.69406 187 197 204
1.65955 -4.03167 -10.4502 69 75 70
1.08663 -1.94126 -5.36089 234 255 255
1.0707 -1.94331 -5.30818 100 154 147
2.02368 -5.76749 -14.2058 253 255 255
0.788838 -0.721692 -2.47897 84 128 97
0.840319 -0.884249 -2.90638 94 165 132
1.34068 -3.62292 -8.71865 70 106 92
0.822435 -0.836862 -2.76547 62 125 93
1.16115 -2.63774 -6.56579 132 130 142
1.0421 -2.0021 -5.24392 111 155 142
1.06473 -2.23586 -5.66862 252 254 254
1.10301 -3.70672 -7.99898 107 131 149
0.78612 -0.753074 -2.48498 58 114 73
0.806628 -0.844125 -2.68894 94 160 131
0.978434 -2.24569 -5.33228 222 229 232
0.915528 -1.80413 -4.45601 86 122 110
0.845209 -2.34359 -5.03854 175 185 195
0.764807 -2.32109 -4.74617 55 41 52
0.873348 -1.55505 -3.88866 60 97 77
0.766881 -1.91557 -4.07868 154 180 167
0.478548 -1.8745 -3.19645 253 255 255
0.6797 -2.04526 -4.03604 86 79 92
0.58235 -2.01279 -3.70298 127 134 153
0.733072 -1.9588 -4.01691 164 222 198
0.72621 -1.73945 -3.65367 85 93 92
0.72064 -0.643848 -2.02077 91 146 137
0.745584 -1.62532 -3.52131 83 103 98
0.785799 -1.09918 -2.87463 64 130 119
0.657273 -1.70644 -3.37278 165 232 205
0.449741 -1.63903 -2.69697 192 218 225
0.721151 -0.677507 -2.04809 115 177 159
0.458533 -1.65407 -2.73667 192 209 218
0.549087 -1.58643 -2.82612 80 91 89
0.383587 -1.48509 -2.25142 138 147 150
0.527168 -1.55086 -2.71679 80 96 85
0.0789049 -0.893817 -0.605239 103 161 143
0.318648 -1.38163 -1.91695 162 127 141
0.1518 -1.07285 -1.04236 94 164 147
0.372295 -1.41538 -2.08808 229 244 246
0.447861 -1.41787 -2.26207 120 129 138
0.283013 -1.27085 -1.62612 201 216 235
0.27033 -1.2556 -1.57189 114 126 162
0.205295 -1.15028 -1.26201 70 95 97
0.343621 -1.31398 -1.82502 101 95 106
0.405855 -1.33608 -1.99085 113 119 118
0.673769 -1.08859 -2.35028 132 194 172
0.26415 -1.20791 -1.46232 253 255 255
0.267393 -1.1983 -1.44266 250 255 254
0.673691 -1.04693 -2.27658 136 191 174
0.690363 -0.860909 -2.0603 101 170 125
0.427792 -1.26695 -1.90255 246 247 245
0.665541 -0.651564 -1.6959 87 121 115
0.437381 -1.24223 -1.87305 186 240 223
0.660436 -0.679171 -1.68448 116 158 127
0.379121 -1.20812 -1.66678 251 255 255
0.357219 -1.19 -1.5813 222 244 239
0.382121 -1.19755 -1.64663 98 133 107
0.628121 -0.968367 -1.94217 101 160 139
0.594473 -1.02555 -1.91821 126 157 128
0.606686 -0.96004 -1.84313 166 225 211
0.561267 -1.05131 -1.85081 219 250 247
0.594208 -0.994845 -1.85394 88 122 98
0.586089 -1.00327 -1.83967 111 156 139
0.632122 -0.750388 -1.6106 105 171 159
0.628451 -0.684632 -1.50585 109 169 151
0.0972139 -0.718206 1.89458 87 91 115
0.0759311 -0.726143 2.04649 145 166 194
0.0999955 -0.673128 1.93911 154 155 165
0.0511572 -0.765534 2.17012 173 208 242
0.0573855 -0.727185 2.17746 151 150 154
-0.0376173 -0.904338 2.60933 147 191 228
0.0282778 -0.776995 2.32352 139 129 129
0.0341655 -0.757602 2.30553 141 131 131
0.0482016 -0.736335 2.23118 150 145 147
0.0197693 -0.780345 2.3797 142 132 132
-0.311577 -1.39267 3.78495 191 223 234
0.0284702 -0.744623 2.36305 137 123 124
-0.0119002 -0.797897 2.58805 116 108 108
-0.0581595 -0.861089 2.84481 121 116 115
0.206489 -0.365203 1.0883 61 73 55
-0.36743 -1.31516 4.50198 164 166 167
-0.338983 -1.2613 4.37738 118 103 94
-0.509987 -1.5338 5.27586 109 82 62
0.207559 -0.35684 1.08136 57 84 64
