ply
format ascii 1.0
element vertex 533
property float x
property float y
property float z
property uchar blue
property uchar green
property uchar red
end_header
-0.633731 -1.57682 3.65559 105 149 143
-1.62527 -0.974022 3.79414 227 243 249
1.9558 -0.586895 3.29717 73 91 132
-1.88337 -0.633194 3.67844 68 85 128
-1.06146 -0.587154 3.77049 85 154 127
1.04795 -0.527978 3.47418 170 222 234
-1.44009 -0.498523 3.82241 162 219 218
-1.78347 -0.34889 3.50419 59 69 123
0.506703 -0.34201 3.54305 39 82 73
-1.86014 -0.231666 3.64653 196 240 247
-2.05917 -0.247629 4.04927 81 103 145
-1.98286 -0.180575 3.88904 207 234 238
-2.06604 -0.146041 4.05297 218 236 237
-1.88075 -0.1069 3.69591 201 236 255
-2.43213 0.00664479 4.77773 230 244 238
-2.64932 0.0270471 5.5767 56 73 160
-2.75673 0.0691065 5.8051 66 103 185
1.97745 0.0479024 3.41418 117 145 139
-2.13843 0.369497 3.89388 114 165 128
-1.87949 0.391948 3.72547 81 81 97
-6.31847 1.6276 12.4732 195 233 255
-11.5958 3.54355 23.2965 151 204 255
0 0 0 62 93 186
0 0 0 120 125 134
0 0 0 102 103 117
-7.51167 2.45949 14.8423 122 128 165
0 0 0 75 104 195
-18.624 6.29302 37.3959 162 197 255
0 0 0 77 105 192
0 0 0 196 232 255
0 0 0 190 234 241
0.230562 0.920774 3.69348 178 226 230
0 0 0 79 95 124
8.29535 -4.46702 -16.4641 205 237 248
3.88138 -2.28102 -8.24769 87 107 192
-0.149267 -1.59857 3.5555 83 136 126
1.85928 -1.39955 3.17746 118 144 126
-1.89432 -1.54648 3.85846 226 251 237
0.573355 -1.36255 3.44045 212 241 238
-1.72169 -1.37027 3.81173 71 101 112
0.468585 -1.19951 3.49193 70 139 106
-2.45168 -1.34719 3.95212 85 140 131
-0.788043 -1.11173 3.71244 205 240 236
1.73445 -0.943653 3.29744 95 126 105
0.729909 -0.956951 3.46825 110 177 140
0.534942 -0.934805 3.50778 125 199 163
1.30421 -0.887886 3.3722 197 242 239
0.64092 -0.859078 3.48164 121 189 158
-1.57083 -0.822233 3.69637 157 215 255
1.92713 -0.70673 3.29628 111 162 154
1.94857 -0.679912 3.28347 80 95 141
-1.79487 -0.685209 3.64299 139 137 156
-1.6694 -0.64998 3.61115 186 223 255
-1.53609 -0.646974 3.63674 96 106 183
1.96512 -0.503098 3.31041 191 216 236
-1.47864 -0.527062 3.7996 119 128 171
0.506497 -0.342451 3.54067 30 64 53
-2.02754 -0.243032 3.9922 63 80 131
-1.88562 -0.221063 3.69686 210 242 248
-1.43608 -0.226264 3.83264 98 145 159
-1.90741 -0.211986 3.73994 197 232 245
-2.38066 -0.223113 4.99671 58 88 169
-2.47152 0.0231535 4.85609 209 246 250
-3.55074 0.123161 8.4907 125 168 225
-1.81784 0.0791306 3.68296 41 45 124
-1.97172 0.220278 3.6859 165 172 191
-1.52348 0.246622 3.68082 153 180 236
-1.7842 0.309225 3.68228 172 220 255
-2.15625 0.373671 3.89471 134 206 163
-9.14713 1.99982 19.3 79 100 182
-1.8802 0.392369 3.7266 81 81 97
-6.88135 1.67508 13.6424 84 82 141
0 0 0 71 80 107
12.8381 -6.04426 -25.9041 171 209 251
-2.85399 1.8162 6.97096 176 191 237
8.29877 -4.46816 -16.4695 205 237 248
0 0 0 181 190 233
-0.273694 -1.59759 3.57392 103 170 149
-1.67623 -1.70475 3.82733 88 147 132
-0.273377 -1.58943 3.57411 50 104 91
-0.644885 -1.61238 3.64933 105 146 148
1.85944 -1.39948 3.17696 102 128 112
0.43638 -1.50734 3.47598 81 135 118
-0.276716 -1.54911 3.58214 96 134 128
-0.277064 -1.54067 3.58538 52 86 80
-0.63368 -1.56233 3.66015 127 162 165
1.13674 -1.3926 3.32873 196 230 220
-1.48715 -1.57115 3.79258 219 255 253
1.20787 -1.37528 3.32107 70 133 107
0.75715 -1.40458 3.41571 19 74 55
0.749047 -1.40257 3.42652 108 184 150
0.575874 -1.39125 3.4433 192 238 225
1.07434 -1.35014 3.34912 61 88 78
-1.44748 -1.49704 3.77883 207 255 247
1.86433 -1.26265 3.20925 70 114 85
1.79198 -1.2412 3.24278 65 113 95
-1.8262 -1.34834 3.62399 201 226 222
1.36514 -1.18737 3.32672 60 110 92
0.414097 -1.19887 3.50889 169 233 197
-2.33807 -1.33293 3.93238 80 153 127
-1.47618 -1.23027 3.76587 180 220 255
-1.60757 -1.22719 3.79221 209 243 255
0.670039 -1.11744 3.46098 103 152 132
0.571599 -1.06141 3.47364 182 228 222
-1.53214 -1.00401 3.30585 174 221 242
-2.32939 -1.1853 3.91329 85 150 128
-1.80189 -1.0923 3.63634 139 148 181
1.74024 -0.945365 3.29996 122 159 139
0.6673 -0.979776 3.47124 58 100 83
0.654403 -0.972286 3.46232 185 226 221
-1.83723 -1.00409 3.64392 115 107 172
0.486037 -0.966689 3.50738 124 196 173
0.710888 -0.943908 3.46596 117 166 144
1.70555 -0.901045 3.30557 71 137 112
0.666264 -0.932779 3.47519 85 126 105
-1.21747 -0.943288 3.60088 164 193 250
-1.68375 -0.948159 3.63505 158 178 203
0.569129 -0.903527 3.48905 219 244 234
-1.63723 -0.978616 3.80939 57 72 104
0.659368 -0.869992 3.48274 190 234 227
-1.34422 -0.850496 3.43674 64 99 189
0.647387 -0.855071 3.48158 102 164 142
0.570303 -0.835154 3.49299 184 216 211
1.69009 -0.796066 3.31457 55 102 76
0.561243 -0.824477 3.49343 73 127 104
-1.40207 -0.817329 3.58468 87 105 198
-1.39274 -0.802471 3.5834 113 110 182
-1.42607 -0.791115 3.598 67 94 184
0.619814 -0.752909 3.49343 48 92 69
0.567539 -0.746406 3.49319 185 231 219
1.92757 -0.706704 3.29651 103 151 145
-1.51614 -0.7772 3.63671 115 122 201
-1.49086 -0.721774 3.62884 67 99 188
-1.51475 -0.70775 3.63555 107 119 191
0.568699 -0.678273 3.50982 199 240 235
-1.95157 -0.693179 3.64786 204 239 255
1.92956 -0.618494 3.31058 87 129 98
-1.5338 -0.674869 3.63318 109 130 192
-1.73395 -0.662355 3.61121 69 69 153
-1.53395 -0.661591 3.63441 103 110 179
-1.70962 -0.644369 3.6051 116 155 223
-1.68507 -0.644868 3.61594 72 101 186
-0.869206 -0.657413 3.73256 248 255 254
-1.70799 -0.630595 3.60294 119 144 218
-1.88237 -0.633046 3.67861 68 85 136
-1.89021 -0.605437 3.68077 191 227 243
1.96383 -0.503578 3.30713 199 224 244
1.69592 -0.495136 3.36224 155 231 190
-1.4794 -0.52674 3.80216 135 152 195
1.93992 -0.453691 3.342 103 148 121
-1.41622 -0.517006 3.79522 204 243 255
-1.17321 -0.499268 3.78411 81 164 132
0.51559 -0.436427 3.53221 54 105 61
0.517339 -0.435787 3.5309 52 102 62
1.18262 -0.423298 3.43608 105 175 145
1.19331 -0.417649 3.44872 63 115 97
1.17526 -0.399023 3.44796 103 164 138
-2.05958 -0.428734 3.88352 148 193 250
0.421544 -0.363388 3.56121 185 239 226
-1.53174 -0.36282 3.64923 121 157 233
-0.140723 -0.346954 3.66213 222 251 255
-0.0676091 -0.339811 3.65399 155 230 214
-1.87571 -0.287937 3.69144 49 69 134
0.388901 -0.264934 3.57331 176 240 210
0.636174 -0.232994 3.54285 248 255 255
-1.56863 -0.238406 3.75348 136 164 229
-1.44681 -0.220669 3.86039 169 205 223
0.366998 -0.197102 3.57698 208 232 224
-0.461107 -0.200243 3.68953 77 135 106
0.331928 -0.195392 3.579 198 221 213
-1.78282 -0.17986 4.26531 125 164 232
-0.593522 -0.137983 3.71186 58 124 99
-2.06823 -0.145159 4.05716 218 236 237
-1.52632 -0.11587 3.66187 142 158 224
-1.4215 -0.0845548 3.80683 143 216 206
-1.36572 -0.0687962 3.81102 244 255 255
-1.83963 -0.0532413 3.68644 165 203 255
-1.14693 -0.0383799 3.7886 215 247 246
-1.87042 -0.00962151 3.69941 64 80 126
-0.58481 0.00423651 3.7235 198 238 227
-1.87141 0.0465063 3.70583 177 215 255
0.0380271 0.078701 3.66258 212 238 222
2.12458 0.0971613 3.40945 123 129 118
-1.52293 0.208699 3.67959 142 159 216
-1.96571 0.228925 3.68042 156 193 249
-1.96333 0.23387 3.675 78 80 128
-1.52411 0.247228 3.68261 153 180 237
-1.52474 0.260233 3.68247 145 165 236
-1.79037 0.303577 3.68543 81 92 150
-1.78417 0.309204 3.68222 172 220 255
-2.1496 0.369168 3.88195 121 191 151
-2.13964 0.370096 3.89559 129 188 150
-1.86384 0.393916 3.72463 67 69 133
-1.41446 0.386885 3.43278 139 168 229
-10.3281 2.88347 24.7847 142 173 234
0 0 0 73 68 130
-1.06089 0.468784 3.79368 115 154 139
-6.87217 1.76916 13.6439 72 93 168
0 0 0 85 127 194
0 0 0 184 213 255
-2.10756 0.653154 3.87772 111 162 155
-2.96426 1.23414 7.18363 136 161 225
0.462023 0.805046 3.65334 56 122 87
0 0 0 46 62 109
-2.23623 1.10139 4.47859 84 99 125
3.84504 -2.45455 -9.28836 171 178 228
-0.276231 -1.57714 3.5791 112 177 162
1.86209 -1.3993 3.18511 115 150 124
0.995742 -1.46777 3.36949 86 112 128
-1.48769 -1.63519 3.78996 215 238 230
-1.02675 -1.61148 3.74244 83 139 150
-0.295562 -1.52067 3.59417 74 91 118
1.13963 -1.39743 3.3341 203 237 227
1.86883 -1.33421 3.20208 107 156 140
-1.93601 -1.57416 3.8794 197 250 223
0.57439 -1.36539 3.45573 204 231 228
1.13893 -1.29942 3.35313 43 105 81
0.572979 -1.26198 3.46318 219 242 238
0.391444 -1.20254 3.49873 59 108 76
0.573279 -1.17016 3.46326 213 235 230
1.89086 -1.05458 3.16785 134 158 188
-1.76757 -1.19803 3.63182 199 230 255
0.357306 -1.06188 3.52263 204 236 231
-1.83874 -1.06646 3.63911 175 220 253
-1.80942 -1.05897 3.64164 142 152 182
-1.81855 -1.05923 3.65676 137 151 187
0.655477 -0.972227 3.47081 178 222 216
1.64399 -0.795091 2.83377 209 225 207
0.736382 -0.962964 3.4714 39 75 53
0.6571 -0.958989 3.47036 179 219 208
1.67904 -0.911886 3.31026 76 128 111
-1.68468 -0.9875 3.63059 181 214 240
-1.67581 -0.966177 3.62011 218 243 255
-1.87295 -0.959235 3.64525 86 74 126
-1.67853 -0.944271 3.61871 152 179 205
-1.62932 -0.984724 3.80393 254 254 254
-1.37379 -0.913836 3.5745 151 191 243
0.663547 -0.878635 3.47919 62 74 62
-1.37164 -0.899322 3.57504 142 180 244
-1.39121 -0.897907 3.62547 148 190 249
0.287325 -0.859674 3.54385 58 113 88
0.579934 -0.832779 3.49153 69 113 90
0.658011 -0.802148 3.49463 197 228 221
0.577651 -0.77754 3.48031 55 87 70
0.569403 -0.764362 3.49398 188 214 200
-1.51212 -0.777955 3.63635 102 125 203
0.568185 -0.744509 3.49839 205 239 232
0.567382 -0.719028 3.50807 208 242 232
1.9268 -0.667708 3.28888 53 77 53
-1.5141 -0.735225 3.63675 102 118 184
1.9513 -0.655181 3.2807 133 168 188
1.93567 -0.657434 3.29756 77 107 72
-1.5032 -0.707997 3.63537 66 92 186
1.93658 -0.637934 3.30109 78 108 79
-1.53341 -0.675033 3.6314 133 148 211
-1.53434 -0.64724 3.63393 101 104 178
-1.93139 -0.645998 3.68627 81 102 184
-1.70425 -0.632107 3.61168 110 144 227
-1.92886 -0.641349 3.696 150 169 206
2.03635 -0.565352 3.27771 105 142 134
2.04937 -0.562703 3.29762 151 199 193
-1.70598 -0.604525 3.60914 89 125 209
-1.06436 -0.587277 3.76879 102 160 135
1.49095 -0.510436 3.39227 54 113 85
1.69474 -0.495452 3.36014 158 231 193
-1.45541 -0.556481 3.80536 146 137 150
-1.41253 -0.515642 3.80419 236 250 255
1.93784 -0.449852 3.33914 82 132 108
0.515345 -0.436263 3.53328 54 105 61
1.19377 -0.426139 3.45279 106 176 146
0.227335 -0.43501 3.58725 77 132 113
1.14467 -0.366765 3.45297 104 160 137
2.33654 -0.395374 3.91834 55 66 94
2.05088 -0.318696 3.34412 130 163 148
0.430111 -0.32407 3.55677 223 247 245
-0.106894 -0.329055 3.66254 52 108 85
-2.04004 -0.338597 3.86806 68 115 106
1.88575 -0.274064 3.37515 180 220 208
1.87065 -0.230292 3.38435 61 84 76
0.50569 -0.216622 3.56104 244 252 251
-2.08622 -0.242119 4.36867 66 76 153
0.401607 -0.196004 3.57747 76 95 80
-1.53347 -0.168391 3.65284 101 120 188
-1.49309 -0.12581 3.83263 103 175 162
1.95735 -0.108478 3.39279 57 71 60
-1.06099 -0.00913225 3.77681 219 250 249
-1.08834 -0.00513826 3.78106 234 255 252
-2.77014 0.00805324 5.8111 67 87 164
-1.17697 0.0486256 3.7911 203 233 208
1.97497 0.044339 3.42311 44 69 59
-2.00791 0.21633 3.73673 106 74 109
-1.52051 0.272199 3.85058 113 156 189
-1.79158 0.304488 3.68801 71 83 141
1.76885 0.292259 3.47738 60 97 77
-1.52177 0.335309 3.86729 172 219 255
-2.16169 0.366259 3.88828 49 69 46
-2.13768 0.380176 3.89081 54 85 58
0 0 0 60 91 170
0.462069 0.805309 3.65388 56 122 87
-1.4879 -1.63844 3.805 224 239 231
-0.636518 -1.56023 3.64387 130 177 185
-1.84536 -1.64818 3.85519 210 252 221
-1.25263 -1.59741 3.77403 98 170 157
-0.299266 -1.52327 3.60187 56 77 99
-0.29339 -1.52012 3.59053 73 84 116
1.14108 -1.3978 3.33727 202 233 224
1.4425 -1.37361 3.28646 48 89 68
1.86415 -1.33249 3.19903 108 157 141
-1.48719 -1.5722 3.7956 219 255 248
-1.9005 -1.54631 3.86642 221 242 234
0.57495 -1.36724 3.44967 209 240 239
0.590123 -1.34843 3.44834 79 103 93
-2.02558 -1.47542 3.8676 204 248 249
0.606015 -1.28782 3.44983 74 107 86
0.601109 -1.28631 3.44977 77 109 90
1.35805 -1.18476 3.31124 76 126 102
-2.25655 -1.36608 3.91046 200 226 220
-1.42083 -1.28389 3.75589 118 105 179
1.90617 -1.07418 3.19034 102 122 147
-1.46578 -1.23462 3.76419 192 239 255
-1.60416 -1.23191 3.79866 213 245 255
-1.70851 -1.15981 3.6242 141 147 194
1.81913 -1.03728 3.27913 35 80 53
0.657742 -0.998321 3.46866 216 239 235
0.689432 -0.980546 3.46223 56 102 80
0.659289 -0.967975 3.48245 193 230 222
0.72542 -0.946033 3.47642 40 75 48
0.547131 -0.947119 3.48639 61 104 71
-0.809601 -0.998546 3.71949 243 248 249
0.529643 -0.922534 3.50212 85 136 109
0.669492 -0.881346 3.47745 45 87 69
0.668346 -0.881299 3.47947 49 81 62
0.689232 -0.885583 3.48278 104 168 139
-1.08936 -0.911896 3.76398 145 209 197
0.582026 -0.83406 3.49088 54 96 71
0.643602 -0.803131 3.48326 56 92 75
-1.6126 -0.818672 3.69834 171 163 193
-1.57988 -0.816782 3.67776 92 92 140
0.577438 -0.77746 3.48614 58 91 70
0.568974 -0.742803 3.49928 206 240 234
1.93361 -0.678069 3.30009 92 131 99
1.95941 -0.663774 3.28615 155 198 207
1.95866 -0.639552 3.27522 131 167 205
1.96763 -0.63521 3.30106 157 202 235
-1.0537 -0.693624 3.76578 255 255 255
-1.88406 -0.637041 3.67018 152 185 201
2.05321 -0.561895 3.30371 160 204 197
-0.927482 -0.633668 3.75305 87 149 125
1.59642 -0.563301 3.37288 37 76 55
-1.97414 -0.567875 3.77508 222 246 255
-1.51752 -0.523193 3.70626 37 61 113
-1.48659 -0.539552 3.78748 229 254 255
-1.53507 -0.521291 3.70354 61 81 129
-1.46657 -0.523291 3.79877 63 99 159
-1.45431 -0.51772 3.80893 179 222 255
0.655007 -0.485011 3.51659 247 255 255
-1.41371 -0.515321 3.80673 235 254 255
1.93917 -0.449549 3.34094 82 132 108
1.17781 -0.445408 3.44997 104 165 145
-1.52644 -0.464944 3.73796 83 100 133
0.518589 -0.433786 3.54872 78 139 111
1.19201 -0.41707 3.44796 61 116 97
1.14132 -0.414389 3.45087 110 166 147
-1.04421 -0.296694 2.53106 144 146 186
1.18332 -0.402463 3.45944 108 179 152
1.18454 -0.38511 3.45425 82 128 109
1.18219 -0.371417 3.45308 127 189 171
-2.05436 -0.406855 3.87646 163 208 246
1.97526 -0.34604 3.33014 161 192 225
1.04272 -0.357273 3.48955 64 120 97
-0.138814 -0.347312 3.67266 216 239 235
2.04974 -0.319189 3.34167 130 168 150
1.94978 -0.286934 3.36734 116 171 138
2.04491 -0.287643 3.35048 79 96 92
-1.55391 -0.314963 3.77819 113 108 140
2.01522 -0.277942 3.34702 81 93 95
0.634348 -0.231121 3.54629 247 255 254
-0.455165 -0.199836 3.69124 84 147 121
0.402137 -0.195531 3.57956 76 108 97
0.325493 -0.193724 3.5828 228 250 245
0.226701 -0.171604 3.60158 79 123 100
-0.298535 -0.162809 3.66941 60 89 73
-0.0381344 -0.145242 3.63624 236 248 248
0.0273937 -0.144708 3.63116 42 68 50
-1.49728 -0.0757628 3.83459 156 217 231
0.0794965 0.0137685 3.65543 57 88 79
1.97295 0.0299131 3.41382 109 184 146
1.97765 0.0439202 3.42016 50 65 61
1.97553 0.0551765 3.42179 171 198 188
-1.95673 0.0802571 3.72471 218 249 255
1.89546 0.115099 3.44731 51 67 66
-2.11913 0.215886 3.88296 198 227 254
1.99244 0.202211 3.44886 83 113 94
2.3421 0.232174 3.957 160 208 244
-2.08317 0.251943 3.85305 85 82 91
-1.23352 0.265103 3.81466 245 252 255
-1.52697 0.272041 3.84514 99 134 184
-1.43433 0.27639 3.83603 140 201 203
-1.44033 0.279465 3.84536 175 221 239
-1.02657 0.309443 3.75242 134 196 182
-1.52167 0.352901 3.85547 97 123 200
1.81702 0.320843 3.47598 57 58 56
-2.1516 0.364571 3.89537 124 224 176
-1.87539 0.376746 3.73061 253 252 254
0.390248 0.418363 3.63417 221 240 253
-1.14079 0.461092 3.80309 53 75 63
-2.88059 0.958683 7.04937 141 137 186
0 0 0 62 92 151
2.03093 0.615181 3.49237 103 148 105
1.59169 0.736096 3.56417 49 64 43
1.60301 0.751952 3.59683 53 67 49
0 0 0 240 241 245
3.73896 -2.41377 -9.29254 74 84 131
-0.63999 -1.56307 3.66226 130 180 186
1.87627 -1.32971 3.13917 118 136 159
-0.63388 -1.54263 3.65714 58 64 69
-0.299164 -1.52261 3.59735 69 77 94
1.79426 -1.35158 3.23018 65 106 85
1.92076 -1.3375 3.21326 85 91 102
1.07381 -1.35234 3.35812 56 102 83
1.86012 -1.2761 3.2075 49 79 50
1.86338 -1.25497 3.22122 98 147 109
1.85085 -1.21708 3.24431 48 68 39
0.598248 -1.28561 3.44112 89 121 104
1.83237 -1.19103 3.2336 106 168 132
1.79488 -1.18533 3.23521 83 120 100
1.35699 -1.18411 3.3124 90 146 125
1.37392 -1.17332 3.31835 86 143 118
-2.2598 -1.3666 3.91598 206 229 221
1.81029 -1.10937 3.21171 91 128 96
0.385506 -1.20201 3.49856 90 137 105
-1.62929 -1.28702 3.79667 27 57 58
-1.31255 -1.27177 3.74469 119 100 173
1.90745 -1.07237 3.20243 94 105 127
-1.69696 -1.17936 3.61926 182 207 239
-1.67366 -1.15489 3.6156 91 90 132
1.79473 -1.00692 3.25126 86 144 103
0.653648 -0.998348 3.45506 158 199 191
0.567765 -0.99819 3.47255 177 215 209
0.495764 -0.98731 3.49864 65 116 96
0.688842 -0.980559 3.46065 56 102 80
0.654889 -0.968135 3.46738 168 214 202
-0.82298 -0.997865 3.72877 253 255 254
-1.68362 -0.955874 3.62892 64 56 87
0.52813 -0.922602 3.49979 93 146 119
0.654724 -0.896777 3.47748 194 228 221
-1.08742 -0.948339 3.76387 109 166 157
0.540297 -0.82119 3.48635 59 100 73
0.569105 -0.818461 3.49791 178 213 203
-1.60281 -0.842854 3.68436 87 86 152
0.557685 -0.769036 3.52339 61 117 82
-1.50748 -0.762313 3.62612 96 120 202
-0.768623 -0.779898 3.70877 255 254 255
-1.52948 -0.75894 3.67773 112 120 197
1.70486 -0.661765 3.33257 61 103 68
-1.65092 -0.701273 3.60057 106 85 117
0.430379 -0.671589 3.5243 64 96 72
1.95461 -0.628458 3.28757 162 200 235
-1.8054 -0.669319 3.62787 61 48 70
-1.93405 -0.656109 3.68053 61 59 119
-0.866217 -0.664695 3.73584 255 255 254
-1.52166 -0.635941 3.6579 68 57 83
-1.93645 -0.638574 3.69294 199 221 255
1.58888 -0.559198 3.37167 116 165 137
-1.48176 -0.538228 3.76673 176 224 255
-1.53177 -0.519298 3.70796 67 82 131
-1.38215 -0.528387 3.77535 53 63 57
1.96509 -0.467155 3.31303 156 185 224
-2.04551 -0.512514 3.73168 96 78 107
-1.3103 -0.524213 3.79881 43 62 43
1.70471 -0.470851 3.37691 58 111 84
-1.43229 -0.51886 3.79957 46 48 58
-2.05886 -0.49502 3.77628 25 25 39
1.17682 -0.452116 3.44981 127 188 174
-2.08285 -0.478408 3.75548 31 31 49
1.1778 -0.430416 3.45808 46 72 49
-1.7395 -0.438521 3.62936 79 97 168
1.13647 -0.415954 3.4524 112 174 152
1.12728 -0.406181 3.45942 108 179 152
1.13596 -0.362987 3.46525 97 161 139
1.19113 -0.363443 3.45256 69 124 105
1.97438 -0.352994 3.33144 146 168 209
1.97279 -0.312933 3.32996 129 150 195
1.94084 -0.301828 3.35761 54 81 55
2.0722 -0.292212 3.3963 70 89 80
-1.55252 -0.315812 3.77354 113 108 140
2.02444 -0.280893 3.36159 104 125 122
1.87962 -0.274964 3.37776 133 177 160
1.87391 -0.23648 3.39739 113 163 145
0.3227 -0.192904 3.58664 224 243 240
1.95192 -0.153665 3.36162 122 165 138
1.98994 -0.140607 3.36228 154 177 227
-1.48667 -0.127254 3.82307 94 169 153
1.96156 -0.11549 3.38294 100 151 114
2.03053 -0.0931253 3.37606 91 105 99
-1.48669 -0.0831923 3.80382 128 209 206
0.201923 -0.0803344 3.62222 56 73 60
1.8737 -0.0713218 3.39793 65 107 84
-1.53043 -0.0393335 3.73705 42 40 69
0.107411 -0.0118644 3.6364 49 67 54
2.00474 9.99776e-05 3.38693 161 203 238
-1.51408 0.0460848 3.74202 77 85 122
-1.90678 0.0633167 3.72815 42 48 53
1.94477 0.0604866 3.42172 98 149 121
-1.95791 0.0810597 3.72747 218 249 255
-2.87511 0.175782 7.0767 50 64 113
1.88832 0.111517 3.43705 69 95 82
-1.9663 0.220025 3.70203 224 236 248
2.01852 0.209029 3.42119 157 182 222
-1.23126 0.262583 3.80707 245 254 255
1.98509 0.246277 3.45649 113 174 136
-1.47843 0.286553 3.86098 52 109 94
-1.44422 0.289538 3.8498 175 216 249
-1.50699 0.313568 3.85871 63 113 165
2.00164 0.301723 3.44759 47 61 49
-2.17103 0.372898 3.89535 51 73 49
-1.86182 0.366947 3.71031 243 245 246
-1.89249 0.386942 3.72878 40 37 39
-0.97288 0.395567 3.69524 211 234 229
1.69623 0.415887 3.51642 60 68 58
-2.01073 0.493966 3.87969 139 213 195
0.494746 0.497774 3.63774 225 241 248
1.58961 0.493508 3.53405 53 79 66
0.504568 0.532967 3.63306 215 237 243
0.350631 0.546293 3.6741 131 189 184
1.54102 0.538655 3.55895 58 83 69
1.50842 0.563984 3.56787 48 86 74
-2.11225 0.646446 3.85967 240 255 254
2.06642 0.647546 3.54974 32 37 35
1.57019 0.726206 3.57973 52 69 55
1.52659 0.743378 3.57099 85 136 122
-2.70388 1.97995 7.14008 119 192 182
0 0 0 58 100 165
