ply
format ascii 1.0
element vertex 1295
property float x
property float y
property float z
property uchar blue
property uchar green
property uchar red
end_header
-1.43069 0.702346 -3.40084 120 148 142
-1.28323 0.582257 -2.9146 109 112 116
0.242243 -0.567597 1.50468 202 228 210
-1.28103 0.5376 -2.89192 124 191 146
0.631512 -0.672292 2.59885 166 218 188
-1.37506 0.459461 -3.16703 129 146 142
6.44744 -3.29124 20.8338 158 225 196
1.17389 -0.823015 4.32325 98 146 118
-1.99688 0.559323 -4.98304 60 65 38
-2.48613 0.342912 -6.37831 216 250 213
-3.33106 0.486292 -8.80679 79 121 98
2.53389 -0.827027 7.80494 187 242 223
-3.04115 0.370894 -7.93584 147 182 155
-3.93718 0.0457214 -10.3129 64 122 98
-2.93809 -0.0237683 -7.50381 82 138 115
-2.64773 -0.367174 -6.66291 53 104 96
-2.29073 -0.523612 -5.65077 54 84 59
-1.46214 -0.331093 -3.26903 75 112 96
-0.43778 -0.602674 -1.45201 112 177 161
0.12614 -1.17138 1.96491 111 174 135
0.125744 -1.16668 1.96212 197 252 189
0.692369 -2.22772 3.61726 118 175 142
0.0746866 -1.04998 1.80756 72 105 98
0.726649 -2.27341 3.7366 148 205 172
0.881493 -2.5648 4.17868 126 162 138
0.00995091 -0.916022 1.57533 133 170 144
0.552676 -1.93734 3.27441 102 137 127
-0.124048 -0.625064 0.957733 111 122 114
0.660323 -2.12153 3.60645 183 254 214
0.943447 -2.64529 4.41496 137 174 166
0.960169 -2.6727 4.46219 220 251 236
2.27994 -5.09738 8.18036 138 182 176
0.650508 -2.09253 3.59538 132 170 158
0.0310552 -0.919675 1.63997 81 104 89
1.82477 -4.20251 7.01283 148 168 173
1.17759 -3.01913 5.17193 141 185 168
0.670292 -2.09158 3.70276 101 144 133
0.724323 -2.18475 3.86827 99 130 121
1.45939 -1.8733 3.34764 98 130 119
0.131376 -1.08789 1.9927 108 180 150
0.0489136 -0.93644 1.69853 124 140 116
0.258184 -1.2982 2.4078 148 202 179
-0.118989 -0.600088 0.930115 176 222 210
-0.0160421 -0.776662 1.38821 194 235 214
0.108547 -1.01419 1.9051 69 123 106
1.74084 -3.92345 7.02107 107 138 131
0.114552 -1.01633 1.92334 82 130 112
0.717818 -2.09224 3.92589 110 167 152
1.04337 -2.6521 4.94662 202 236 225
1.04149 -2.64497 4.95322 122 145 141
1.23083 -2.95918 5.53649 133 160 157
0.315243 -1.34855 2.6317 66 103 93
0.754773 -2.09616 4.07351 99 108 122
0.0625238 -0.897204 1.72195 113 168 153
0.152445 -1.05257 2.06032 138 193 168
0.814071 -2.18965 4.26714 137 180 171
1.16621 -2.794 5.37657 142 167 169
1.12765 -2.71166 5.28305 101 139 127
0.746167 -2.05728 4.06692 131 130 140
1.58062 -3.46696 6.72457 190 230 219
0.599473 -1.79907 3.59121 81 120 98
0.0896889 -0.929508 1.82203 187 240 226
0.179113 -1.07788 2.14997 191 231 213
0.177596 -1.07449 2.14787 119 134 126
0.359053 -1.37602 2.77802 79 163 128
0.20686 -1.11295 2.24977 85 123 111
0.318359 -1.28656 2.63647 203 251 239
1.45371 -3.16857 6.39896 136 168 163
1.55951 -3.34324 6.73674 149 160 158
0.592199 -1.73092 3.57837 165 232 200
0.698755 -1.90071 3.94297 96 115 123
0.550383 -1.64814 3.43802 98 158 134
-0.0402337 -0.663279 1.19781 109 175 146
0.998173 -2.37629 4.93874 215 228 226
2.24735 -4.38886 9.01841 208 236 230
0.321305 -1.25361 2.64029 115 153 135
-0.026496 -0.674446 1.24584 140 210 174
0.239402 -1.11481 2.35417 129 160 153
0.426279 -1.41021 3.01343 102 141 115
0.434599 -1.41875 3.04307 183 205 193
0.103658 -0.885546 1.8266 133 156 151
-0.00431352 -0.691051 1.31607 90 116 102
0.379571 -1.30993 2.84734 78 104 90
0.420905 -1.37386 2.99545 89 122 108
1.02383 -2.31816 5.05841 159 163 182
2.44689 -4.54427 9.82036 105 130 140
-0.0169983 -0.657365 1.23219 174 233 212
1.76485 -3.40989 7.54199 142 173 164
1.7696 -3.41948 7.57446 132 146 144
1.13711 -2.42863 5.44756 153 199 187
2.99355 -5.26428 11.6887 162 180 187
0.00985196 -0.689183 1.34827 177 235 211
0.0247932 -0.707751 1.40723 111 165 148
0.965475 -2.13354 4.87033 157 174 183
1.81962 -3.43512 7.77377 145 174 178
2.46228 -4.39546 9.93905 107 128 129
0.184915 -0.952445 2.09777 138 144 155
2.37892 -4.2447 9.64675 252 255 253
1.33693 -2.67571 6.15207 130 154 152
0.217429 -0.994906 2.21937 197 243 237
0.100507 -0.819997 1.755 109 153 136
0.0955023 -0.809637 1.72943 207 255 231
1.72123 -3.21979 7.45766 101 140 125
0.210954 -0.976187 2.19054 111 128 125
0.0889232 -0.789277 1.68695 216 233 229
1.13944 -2.31875 5.46222 127 143 149
4.04879 -6.60312 15.3429 130 152 163
0.0987424 -0.799957 1.72814 181 225 212
0.0830859 -0.775173 1.66146 216 232 231
2.97131 -4.97149 11.7193 134 157 153
2.5014 -4.27249 10.1535 106 133 129
4.7478 -7.52541 17.7556 130 166 166
1.96067 -3.4722 8.28526 128 143 162
0.973569 -2.04235 4.90593 238 255 255
0.0921942 -0.773879 1.68053 214 222 222
1.21833 -2.37662 5.7597 133 152 165
1.12089 -2.21964 5.41842 118 125 128
0.729056 -1.61401 3.93766 70 92 73
0.739499 -1.63144 3.97414 124 140 116
0.108575 -0.785318 1.73256 175 184 181
0.108942 -0.78497 1.73593 182 192 186
7.95712 -11.6225 28.8192 128 140 146
0.117091 -0.775683 1.7369 197 208 192
0.0928424 -0.740632 1.63732 111 140 131
0.0859176 -0.73178 1.60822 113 149 133
0.265582 -0.950658 2.27643 207 255 244
8.95762 -12.7453 32.3215 132 166 156
0.192587 -0.851469 1.98952 125 157 132
1.22789 -2.25381 5.77681 133 149 166
0.102984 -0.745378 1.66726 201 225 213
0.119953 -0.75913 1.72778 207 232 218
3.6391 -5.41173 14.096 250 255 255
0.105318 -0.735443 1.65681 193 220 204
4.4557 -6.47422 16.9162 125 143 144
0.104971 -0.726632 1.64357 99 120 111
0 0 0 203 233 220
0 0 0 127 140 132
0.137728 -0.763658 1.77421 154 162 161
2.14575 -3.32905 8.92608 132 159 173
-3.8945 4.46884 -11.825 114 151 147
0.116207 -0.724179 1.66852 77 91 73
-3.79542 4.25834 -11.4985 103 116 124
0 0 0 117 156 148
0.121753 -0.714717 1.66442 181 231 219
-2.50462 2.56325 -7.0751 129 149 150
0.0924864 -0.678668 1.53731 197 230 223
-8.01327 9.30003 -26.1363 188 230 219
-7.60068 8.77035 -24.6685 108 129 127
0.118405 -0.701648 1.63917 207 242 232
-6.41519 7.2763 -20.6095 196 225 210
0.230419 -0.802131 1.98593 84 109 99
7.78951 -9.91893 28.4339 219 227 234
-6.64604 7.48718 -21.3721 200 226 210
0.228405 -0.798821 1.98256 192 246 211
-7.05199 7.93529 -22.7908 189 217 217
-5.69292 6.27728 -18.0771 176 217 210
-3.20047 3.31883 -9.50517 156 181 185
0.136629 -0.705717 1.68539 109 130 122
0.141715 -0.711163 1.70437 100 134 124
0 0 0 123 146 161
-2.90827 2.90348 -8.48699 135 155 160
-8.70236 9.63557 -28.5033 218 241 236
-8.93481 9.84522 -29.2614 160 174 173
-8.63851 9.48363 -28.2857 107 126 123
-7.38292 8.02767 -23.9125 112 129 125
-10.4307 11.5016 -34.4621 122 127 128
-3.49949 3.4972 -10.5492 134 157 159
-0.00344953 -0.536043 0.989936 86 107 98
0 0 0 135 145 163
5.60397 -6.77531 20.8082 150 162 172
0 0 0 120 141 143
-4.15321 4.08313 -12.8134 123 150 160
-2.42624 2.1826 -6.83467 122 134 144
1.81582 -2.45909 7.67845 90 112 110
-4.96075 4.91093 -15.5369 114 142 136
3.92691 -4.74107 14.949 180 194 200
-8.10898 8.28365 -26.4245 101 111 111
0.21841 -0.723587 1.84842 166 230 201
7.33935 -8.25336 26.6701 158 152 163
2.45722 -3.07013 9.84643 150 167 176
1.32488 -1.86142 5.8845 175 239 217
1.72754 -2.29694 7.31725 106 130 122
7.5529 -8.44462 27.3728 141 146 155
-2.19648 1.85597 -6.05468 183 234 230
1.41187 -1.9111 6.16705 199 246 224
3.47438 -4.06754 13.3602 142 162 180
2.10106 -2.61459 8.56467 193 233 221
2.69443 -3.23096 10.626 149 152 160
0.439785 -0.910989 2.65066 169 205 193
4.54895 -5.11869 17.0277 93 99 112
0 0 0 108 122 118
0.413321 -0.875368 2.52356 191 229 207
0.561877 -1.00758 3.03134 200 248 222
0 0 0 188 205 208
0.535949 -0.983162 2.94735 173 236 210
0.594408 -1.03366 3.14638 85 150 118
-3.56788 3.18591 -10.8002 155 184 193
-4.50107 4.10934 -13.994 186 208 203
-4.43331 4.04267 -13.7557 127 131 132
-3.85337 3.45955 -11.7588 173 196 192
2.04286 -2.47788 8.33618 97 105 104
-4.06592 3.59637 -12.4611 128 140 144
0.0356072 -0.534011 1.05751 187 224 204
0.0635788 -0.559762 1.21058 85 138 125
0.55225 -0.971953 2.97686 153 200 174
8.86835 -9.08243 31.7148 174 181 174
0 0 0 162 166 167
-5.70299 5.13256 -18.0618 222 233 225
-2.35377 1.87294 -6.60513 154 166 172
3.47044 -3.77369 13.1793 200 227 223
0.177741 -0.642025 1.63238 129 179 155
0.174955 -0.634501 1.60159 237 255 246
0.300463 -0.722166 1.99666 202 244 213
1.89301 -2.17982 7.63705 185 199 193
5.75312 -5.81253 20.9328 188 202 196
-2.07105 1.5348 -5.61881 150 171 179
0.184339 -0.61285 1.56762 172 221 193
0.0220208 -0.499967 0.89223 73 94 72
0.1845 -0.608453 1.55509 56 64 57
1.11495 -1.36999 4.96937 188 229 252
1.0645 -1.31731 4.78579 194 241 249
-1.72513 1.1107 -4.4275 212 241 226
-2.41495 1.64425 -6.75991 198 245 237
-1.42159 0.822146 -3.39377 165 170 185
-1.64488 0.999013 -4.13704 178 230 220
-1.63794 0.990298 -4.11898 177 233 222
-4.96768 3.58028 -14.9369 174 226 202
0.989424 -1.16338 4.26727 172 238 203
-1.59214 0.940952 -3.9688 147 179 192
-12.1431 9.11623 -38.4887 178 230 220
-4.72986 3.31678 -14.1724 200 236 212
-1.39276 0.761859 -3.29095 101 102 106
-1.38243 0.751379 -3.25518 189 196 199
-1.75873 1.03918 -4.52973 146 153 162
-1.35131 0.713204 -3.14156 210 229 226
3.90282 -3.28929 13.8806 77 106 90
-6.80871 4.76171 -20.9343 126 134 124
-1.57805 0.865788 -3.91368 120 124 135
-1.46735 0.781852 -3.53787 149 163 159
-3.41684 2.08392 -9.75945 71 86 72
-1.50777 0.775314 -3.67036 97 108 106
-1.39261 0.689045 -3.2744 118 125 122
-1.39869 0.691437 -3.29459 222 246 228
0.46106 -0.713697 2.45286 189 212 214
10.535 -7.46723 35.088 38 42 31
1.07678 -1.0819 4.41034 190 240 228
-1.33075 0.619664 -3.06505 247 255 254
-2.68198 1.45956 -7.33164 159 176 149
0.290744 -0.59519 1.68716 39 62 57
-1.27879 0.548511 -2.88437 193 212 197
-2.08892 1.02597 -5.42747 62 81 64
-1.52086 0.696531 -3.69301 102 160 142
-1.29279 0.545398 -2.92428 140 179 164
-1.28079 0.536584 -2.88998 141 205 159
-2.26914 1.08331 -5.95743 200 219 192
-1.33266 0.556319 -3.05337 121 161 159
-1.33819 0.538079 -3.06638 216 247 238
0 0 0 97 144 106
-11.8219 6.47573 -36.0036 89 104 76
-1.33702 0.524852 -3.05536 199 239 214
-2.07829 0.912907 -5.33486 209 237 218
-1.27687 0.484197 -2.86178 90 123 116
-10.1855 5.40264 -30.9031 165 222 184
-1.34068 0.516554 -3.07157 194 209 201
-1.33088 0.51181 -3.03726 66 100 76
-5.04501 2.37216 -14.629 47 45 37
-1.2237 0.425 -2.68346 209 230 232
-1.31527 0.467736 -2.97835 210 236 223
0.935493 -0.818027 3.72137 177 236 208
0.632592 -0.672136 2.60232 173 224 196
-1.22066 0.397974 -2.66004 139 167 161
1.06735 -0.866853 4.12961 56 64 57
-3.24934 1.31677 -8.90948 161 204 167
-1.37985 0.46123 -3.18489 218 238 233
-5.41142 2.30547 -15.51 65 79 55
-2.8201 1.08135 -7.53913 148 165 144
-4.29656 1.76452 -12.113 60 68 51
1.20173 -0.886266 4.4892 154 202 174
-1.40151 0.453243 -3.24818 176 224 182
-2.73571 0.982099 -7.26903 64 77 53
0.168688 -0.496507 1.05889 71 83 71
-2.36242 0.706045 -6.09675 108 147 115
-1.17832 0.290514 -2.50307 227 245 244
-1.99446 0.556924 -4.97543 51 56 35
-1.1719 0.287782 -2.48663 92 99 102
-1.99731 0.535182 -4.95461 194 225 194
-2.05825 0.549389 -5.13009 82 103 81
-6.65143 1.47836 -18.5923 105 137 118
-1.44545 0.219053 -3.21355 93 111 98
2.61138 -0.881823 8.05833 126 176 152
-2.3739 0.319777 -6.06251 185 219 182
2.53732 -0.827024 7.8159 195 247 229
-1.25705 0.140578 -2.64247 195 211 188
-2.24477 0.262896 -5.67756 111 114 98
-1.19736 0.110896 -2.4631 75 99 87
-2.92766 0.242059 -7.57047 86 119 105
0.210864 -0.488802 0.919002 165 204 183
-6.00071 0.50445 -16.1772 76 116 105
-3.94686 0.228065 -10.4142 101 133 128
-1.21995 0.0557734 -2.51097 200 251 224
-2.11867 0.0702468 -5.2093 170 220 186
-1.15645 0.04705 -2.31978 102 112 95
-1.12562 0.0433443 -2.22782 71 90 75
-1.13521 0.0211539 -2.24619 91 117 104
-3.06783 -0.0592006 -7.86642 222 246 246
-3.03167 -0.0683608 -7.77388 212 237 233
-1.03804 -0.00755675 -1.95179 167 218 190
-1.03652 -0.00844989 -1.94985 175 225 195
-1.9724 -0.144459 -4.7353 189 228 212
-1.88734 -0.142278 -4.49622 180 236 201
-2.75684 -0.226908 -6.95787 70 84 80
-1.8623 -0.175482 -4.41024 177 255 225
-1.81125 -0.176097 -4.2698 161 213 189
-2.47459 -0.387906 -6.17227 165 239 221
-1.55355 -0.23138 -3.53285 163 225 201
-1.80973 -0.336979 -4.28033 171 226 209
0.326213 -0.489353 1.03456 133 149 138
-1.42735 -0.234052 -3.16707 78 130 106
-1.42439 -0.26858 -3.15853 61 119 95
-0.459402 -0.778827 -3.85441 140 171 150
0.932764 -2.70078 4.21318 85 109 97
0.0720151 -1.05902 1.79603 106 153 137
0.145904 -1.18335 2.03256 162 206 169
1.34817 -3.45879 5.38138 161 180 185
0.900196 -2.60769 4.20352 106 130 112
0.662081 -2.16502 3.56182 128 171 160
0.926852 -2.65102 4.29833 90 125 105
-0.0624545 -0.76207 1.26447 162 184 182
0.831809 -2.46943 4.0578 101 115 114
1.0406 -2.85498 4.62541 110 132 130
0.553746 -1.93874 3.27932 99 134 124
0.0685729 -1.0167 1.78071 104 145 137
0.269003 -1.36762 2.40297 125 164 142
0.949387 -2.64968 4.43845 194 235 220
2.29651 -5.12853 8.24048 133 174 169
1.37258 -3.422 5.6569 127 175 139
0.0379157 -0.940821 1.66867 77 93 70
-0.122895 -0.609177 0.936164 115 122 125
0.0310425 -0.919647 1.64051 78 102 84
1.19845 -3.0591 5.23125 111 143 126
0.592039 -1.92437 3.48129 96 152 129
1.90381 -4.29925 7.36065 68 66 55
-0.120228 -0.603356 0.935706 130 160 155
-0.0672244 -0.701748 1.19102 68 78 65
1.71423 -3.90676 6.87773 173 220 194
-0.0161998 -0.778747 1.39076 112 148 131
1.7421 -3.92829 7.03231 106 134 128
1.15916 -2.87052 5.28157 147 179 178
-0.0361233 -0.728808 1.28747 89 106 95
0.702512 -2.05366 3.88423 128 156 156
-0.0678141 -0.668323 1.13785 119 164 148
1.06546 -2.68692 5.02163 124 143 150
0.0573545 -0.899263 1.70624 131 190 175
-0.0363577 -0.711788 1.26524 126 149 145
1.16662 -2.79457 5.37825 142 167 169
0.0738717 -0.901957 1.75341 126 188 172
1.64574 -3.56128 6.97141 93 116 108
0.902292 -2.29357 4.58558 154 171 174
1.88063 -3.89349 7.72657 118 135 121
1.6121 -3.42864 6.89697 153 164 156
1.023 -2.44203 5.00676 178 186 185
1.02639 -2.43901 5.02666 107 102 104
2.0665 -4.15213 8.39881 195 242 220
0.548904 -1.64669 3.43031 105 157 140
0.98029 -2.35781 4.88433 205 224 221
1.12287 -2.5545 5.32063 102 110 109
0.323342 -1.25733 2.64423 92 134 117
2.00784 -4.00193 8.24183 180 212 211
1.16482 -2.59921 5.48143 227 255 251
-0.0266046 -0.674398 1.24585 145 215 179
0.00709899 -0.716684 1.37707 162 227 206
0.0953226 -0.86852 1.78725 112 148 132
0.387381 -1.33293 2.87539 144 187 166
0.361975 -1.29083 2.7889 124 166 148
0.79476 -1.96417 4.2733 158 190 203
0.397887 -1.31872 2.90461 186 221 187
0.530649 -1.53045 3.38311 99 133 122
1.58845 -3.17737 6.95511 138 150 156
0.37475 -1.28193 2.82127 172 231 186
0.0905841 -0.822046 1.72973 123 173 161
0.0556166 -0.759057 1.5679 116 173 158
-0.00953928 -0.652463 1.24497 171 206 196
0.176062 -0.93731 2.06163 196 222 216
0.182125 -0.947557 2.09058 205 224 221
0.0817088 -0.79121 1.6758 102 146 129
0.0790824 -0.78235 1.65827 130 164 158
0.120771 -0.843046 1.83003 179 239 208
1.12021 -2.31891 5.40448 120 134 146
0.425984 -1.24895 2.88703 75 94 77
1.71139 -3.18971 7.41817 122 133 141
0.0876551 -0.789492 1.68772 221 238 234
0.111303 -0.817364 1.77441 152 175 167
0.0893067 -0.778144 1.67871 111 126 122
0.0901464 -0.781036 1.68988 188 240 223
4.92834 -7.76614 18.3919 137 163 169
1.02561 -2.11626 5.09635 149 164 166
0.738072 -1.64066 3.97282 162 184 149
0.741059 -1.63236 3.97979 127 148 123
0.188723 -0.881267 2.02332 174 229 212
0.474031 -1.25728 3.06049 219 241 236
2.02906 -3.43539 8.56242 250 255 255
0.197008 -0.878282 2.03484 149 207 182
8.43968 -12.2797 30.6008 136 160 160
0.81231 -1.67759 4.19553 222 246 228
1.44656 -2.59109 6.5272 165 188 203
0.105433 -0.759702 1.69045 186 217 210
2.01287 -3.36309 8.48311 150 153 161
0.194526 -0.861489 2.00887 162 209 183
0.852151 -1.71201 4.32864 136 151 120
0.26574 -0.950724 2.27549 199 255 235
0.102743 -0.745385 1.66671 197 226 211
0.192646 -0.851534 1.98898 119 157 129
1.22178 -2.248 5.75006 163 179 196
2.85871 -4.45339 11.4173 142 161 176
0.0945795 -0.734594 1.63013 207 240 233
0.104036 -0.748393 1.67776 116 131 123
0.114537 -0.759167 1.71471 184 221 217
1.717 -2.8978 7.46421 120 126 139
0.0953569 -0.73178 1.62804 118 139 131
0.118207 -0.761281 1.72884 186 223 213
1.34434 -2.39705 6.18985 207 228 236
0.0988314 -0.727908 1.63118 125 143 136
0.128359 -0.763346 1.75302 181 222 215
0.104971 -0.726632 1.64357 99 120 111
0 0 0 143 149 162
-4.09164 4.69244 -12.5221 131 184 171
-10.3945 12.7015 -34.1899 136 174 156
0.100957 -0.705483 1.60446 110 145 131
0 0 0 150 150 164
-5.24854 6.0402 -16.5097 115 142 132
-5.47389 6.30027 -17.2584 178 227 211
-2.48556 2.5786 -7.01705 113 120 123
0.226102 -0.819059 2.00902 69 81 63
0.0922855 -0.678787 1.53638 205 239 232
0.230498 -0.80215 1.98598 77 107 96
0.0496942 -0.618656 1.32957 133 164 173
-7.10032 8.00541 -22.9698 196 229 225
-3.20185 3.31905 -9.5056 156 181 185
-5.67966 6.2587 -18.0309 188 233 224
5.98856 -7.60237 22.199 122 127 142
10.5934 -13.0452 38.0634 208 240 246
0.143645 -0.710033 1.70441 119 152 145
0.144874 -0.709876 1.70791 139 168 159
1.53094 -2.27616 6.72765 126 150 148
-0.0106652 -0.534385 0.975278 137 180 171
0 0 0 155 171 183
0 0 0 167 184 197
-0.00295918 -0.535618 0.990032 102 116 112
3.20193 -4.09955 12.5473 190 219 228
0.111112 -0.648654 1.52365 124 140 139
0 0 0 131 150 153
0 0 0 144 156 156
7.05337 -8.30482 25.787 218 237 240
-4.54577 4.56288 -14.158 196 238 227
0.0714181 -0.605464 1.34364 103 147 141
-8.52281 8.85672 -27.8915 118 127 136
-2.097 1.82401 -5.7119 142 189 193
-6.31103 6.38497 -20.1742 143 157 163
-6.1731 6.21621 -19.7391 148 166 173
-2.23879 1.93721 -6.19662 84 106 104
1.87256 -2.47543 7.84311 80 100 101
2.10501 -2.71485 8.64141 232 255 255
4.41143 -5.14605 16.5306 238 252 251
0 0 0 141 152 166
-2.51645 2.22755 -7.17102 139 163 169
-2.23892 1.9312 -6.21407 80 101 103
1.32349 -1.86055 5.8787 173 241 218
4.58816 -5.32476 17.2431 218 232 238
4.93435 -5.60396 18.3446 102 110 110
-6.7973 6.66848 -21.882 96 98 106
4.0177 -4.61783 15.1892 243 251 255
0.083699 -0.591245 1.32977 169 205 183
0.0856185 -0.593052 1.33952 87 107 94
0.278894 -0.755472 2.04207 176 233 212
0.452495 -0.922981 2.70267 58 63 48
3.53096 -4.07179 13.5339 144 154 172
0 0 0 91 94 98
-3.58524 3.20432 -10.8477 148 173 177
-3.35279 2.95172 -10.0433 168 174 187
2.03023 -2.48681 8.30601 202 224 219
-4.03355 3.60651 -12.3796 140 152 154
6.5648 -6.99473 23.9073 202 217 219
-3.0687 2.63358 -9.07218 167 195 206
0 0 0 160 172 174
0.0949075 -0.586949 1.33787 142 181 160
2.57625 -2.97484 10.1277 140 155 158
0.586974 -1.00354 3.08866 230 255 251
0.0677917 -0.562587 1.22565 115 171 150
0.544215 -0.963032 2.94431 166 228 198
5.79317 -6.08226 21.1809 161 163 163
1.58746 -1.93761 6.62997 63 74 64
-2.67023 2.15547 -7.67404 158 177 184
-7.09741 6.37811 -22.7806 203 229 229
0.524945 -0.93017 2.8675 62 80 57
-2.21987 1.70999 -6.12954 151 162 166
0.635519 -1.01471 3.21517 136 193 160
-2.07223 1.53601 -5.62148 156 173 182
0.0131045 -0.504562 0.904765 143 206 164
0.0902028 -0.56151 1.26765 119 124 123
7.63511 -7.38388 27.1994 186 207 205
0.0595112 -0.533229 1.11207 81 113 112
0.143068 -0.587675 1.41303 167 215 189
0.144197 -0.58785 1.415 188 233 217
-1.74971 1.17496 -4.51527 147 150 154
-7.56084 6.11052 -23.7161 173 232 211
-1.66638 1.08381 -4.22925 164 173 176
-2.90501 2.15522 -8.45369 118 180 164
2.68336 -2.671 10.1195 175 221 208
2.47211 -2.47913 9.38533 150 194 177
-1.66812 1.04265 -4.23325 241 255 235
-1.41441 0.828416 -3.3699 165 178 192
-1.41894 0.82385 -3.37989 219 235 241
-1.41485 0.819408 -3.37169 218 229 233
3.25613 -3.00911 11.9185 169 234 213
0.577277 -0.856599 2.8526 96 123 83
-6.51713 4.82668 -20.062 167 219 195
0.785034 -1.00938 3.59344 140 176 159
-5.62622 4.11061 -17.1671 67 97 84
3.19944 -2.90059 11.6891 62 101 79
-5.96769 4.3064 -18.198 65 69 57
-1.61162 0.943391 -4.02525 225 250 252
3.40749 -3.00814 12.328 140 206 177
-7.58341 5.54569 -23.5546 170 224 201
-5.37565 3.77358 -16.2684 158 220 198
3.48105 -3.01343 12.5139 51 70 51
-4.8834 3.37678 -14.6515 193 243 219
-6.31795 4.43562 -19.346 148 176 156
-4.50328 3.03578 -13.369 94 101 88
-4.86983 3.30898 -14.5698 149 191 166
-1.50501 0.819273 -3.67024 148 164 171
-4.06653 2.62033 -11.9 167 187 168
-3.79273 2.38972 -10.9894 173 196 174
-1.40125 0.70796 -3.30868 131 137 148
-1.37388 0.684206 -3.2226 137 155 156
-1.46269 0.745953 -3.52053 101 104 102
-5.60837 3.59631 -16.8811 179 233 210
0 0 0 81 89 72
-1.4307 0.702156 -3.40045 115 149 142
-1.42356 0.696702 -3.37349 55 97 74
0.1415 -0.532152 1.25644 109 125 124
-1.33097 0.619443 -3.0646 251 255 255
-4.59282 2.75239 -13.5383 166 212 189
-2.67832 1.45649 -7.32241 150 167 140
-2.10829 1.06759 -5.50854 45 62 41
0 0 0 151 187 163
-1.32305 0.572944 -3.03502 81 128 126
-1.35136 0.568319 -3.1151 67 138 112
-1.17726 0.465012 -2.55045 221 238 241
-1.40571 0.573965 -3.29749 106 119 127
-11.6544 6.37687 -35.5239 71 86 59
-10.0444 5.42063 -30.4424 160 248 212
-4.16501 2.07173 -11.9369 64 69 42
-1.33035 0.511756 -3.03715 77 109 85
-1.24778 0.457167 -2.76517 100 141 133
0.955997 -0.862768 3.85088 79 124 108
-3.52164 1.63803 -9.88644 186 244 203
-1.27377 0.465547 -2.84331 252 255 253
0.929591 -0.845867 3.75596 162 226 196
-1.30119 0.475174 -2.93363 91 109 102
-1.3024 0.463512 -2.92553 180 229 201
-1.31027 0.456178 -2.96609 103 126 128
0.941311 -0.818618 3.73489 181 237 208
-1.57688 0.574856 -3.78389 188 227 205
-4.10767 1.76609 -11.6417 46 43 38
-3.0177 1.23076 -8.18617 142 168 145
-4.02253 1.68029 -11.3052 152 169 148
-5.41351 2.30624 -15.5138 65 79 55
-2.81782 1.06589 -7.53923 76 84 67
1.18543 -0.89072 4.46226 75 96 81
-2.64744 0.968016 -6.99974 80 91 75
9.76542 -4.66356 30.98 111 144 117
-2.95348 1.07751 -7.94868 142 188 165
-1.30673 0.397055 -2.93553 111 142 127
1.18844 -0.859789 4.42155 196 247 220
0.160809 -0.494506 1.03636 198 231 224
-2.71288 0.91531 -7.17109 140 197 164
1.2347 -0.831339 4.49286 173 222 202
0.167306 -0.492601 1.02777 101 121 109
-2.18892 0.637669 -5.55179 177 217 192
-2.08676 0.565026 -5.22099 175 248 216
-1.98905 0.528957 -4.93408 192 222 197
-2.05403 0.54653 -5.12029 75 97 73
-1.35946 0.305738 -3.04958 55 61 44
-3.83595 0.948402 -10.457 43 52 42
-1.45779 0.284143 -3.28097 76 91 83
2.92062 -1.12757 9.12976 142 202 171
1.5146 -0.725906 5.02474 64 102 80
-1.37383 0.221207 -3.01692 206 239 224
-1.64013 0.266814 -3.8145 40 41 37
-1.26576 0.196159 -2.69642 51 55 44
-1.64257 0.24845 -3.81485 170 206 189
0.19185 -0.487376 0.956272 53 63 47
-1.05332 0.137943 -2.04868 137 164 154
2.59851 -0.881497 8.01888 133 181 155
-2.3612 0.327256 -6.02955 70 79 52
-1.32178 0.151972 -2.84926 97 126 101
-1.24932 0.135375 -2.61503 103 120 106
3.27929 -0.950237 9.91761 166 236 206
0.419752 -0.496986 1.55795 198 255 243
4.87872 -1.04542 14.2948 83 110 94
-1.19573 0.0948305 -2.45018 103 132 116
-1.24227 0.0791806 -2.58706 191 245 216
-1.24604 0.0747937 -2.60075 75 93 76
-1.12528 0.065571 -2.23004 110 124 118
4.60975 -0.839216 13.3585 79 127 101
-1.183 0.0462884 -2.39179 94 101 80
-1.27898 0.0389313 -2.67183 107 119 97
-1.10498 0.0364573 -2.1616 64 91 75
6.30105 -0.757158 17.8618 64 104 93
5.79973 -0.670431 16.4574 207 244 234
1.92825 -0.46279 5.75441 90 99 96
-1.15047 0.00241096 -2.28803 89 111 92
-1.12006 0.000362819 -2.2002 103 152 130
0.161277 -0.501638 0.649868 88 86 78
-2.55918 -0.175 -6.42343 169 237 220
-1.82546 -0.186658 -4.31547 90 125 99
-1.71283 -0.183802 -3.99155 94 125 104
-1.63586 -0.188445 -3.77226 189 232 211
2.29568 -0.281719 6.53467 171 197 184
-1.51319 -0.23239 -3.41442 61 96 82
-0.939339 -0.056871 -1.63943 115 154 138
-1.42926 -0.266814 -3.17557 88 137 115
-2.34764 -0.553776 -5.80198 67 89 71
0.0314852 -0.954793 1.65566 94 153 132
0.230402 -1.31338 2.2831 85 99 75
0.631029 -2.09397 3.49274 125 167 160
0.782699 -2.36514 3.94404 176 234 199
0.0688925 -1.01642 1.77815 130 166 160
0.66829 -2.14633 3.62738 110 144 127
0.00898932 -0.892254 1.56037 155 206 192
-0.124362 -0.617438 0.946899 188 231 220
0.0635666 -0.987303 1.75425 172 237 211
0.115307 -1.08647 1.94372 169 236 207
-0.0754895 -0.711737 1.18221 90 112 107
-0.0482783 -0.7596 1.29438 168 233 208
0.0341965 -0.933686 1.65559 69 88 67
-0.0406213 -0.76774 1.31525 116 125 112
0.0237231 -0.905113 1.61179 183 241 216
0.0274694 -0.912957 1.62841 97 131 107
-0.108455 -0.629207 0.988836 87 99 93
0.0565426 -0.961206 1.73046 81 87 70
0.0390499 -0.928163 1.66418 197 243 221
0.869232 -2.45235 4.28636 99 122 118
0.0816276 -0.993459 1.81854 86 131 112
2.3765 -5.13914 8.7577 122 131 135
0.700284 -2.11139 3.81868 96 126 115
0.691797 -2.0937 3.796 134 186 169
0.445395 -1.6315 3.02204 144 193 177
6.2256 -12.0014 20.3442 124 178 165
1.75027 -3.95794 7.00586 113 136 132
0.759982 -2.19586 4.03177 153 187 200
1.8894 -4.17085 7.44712 193 248 223
1.97575 -4.33238 7.70169 139 168 143
0.546488 -1.79242 3.3851 115 161 139
0.110542 -1.00768 1.91042 172 243 210
0.587273 -1.86013 3.5286 125 146 138
-0.0365749 -0.728303 1.28926 101 125 107
0.0651555 -0.922721 1.74315 158 213 188
0.563347 -1.79991 3.44356 107 169 147
1.05117 -2.65371 4.98185 94 111 107
0.618541 -1.8843 3.62453 195 255 231
0.871542 -2.32145 4.42947 157 170 172
1.17426 -2.85018 5.37582 136 148 152
1.25433 -2.97708 5.62688 129 143 141
0.296536 -1.30922 2.56379 103 154 140
0.927608 -2.40884 4.61268 161 165 176
1.0809 -2.66463 5.09666 118 124 119
0.0751694 -0.92119 1.76647 155 214 186
0.261382 -1.24604 2.44091 73 93 88
0.930859 -2.39074 4.63337 228 253 255
0.0825216 -0.924384 1.78481 86 109 94
0.268637 -1.23477 2.46563 100 152 134
0.0835861 -0.919563 1.79098 212 248 234
0.902403 -2.30394 4.57525 242 253 251
1.64645 -3.56335 6.9769 93 116 108
0.0576515 -0.864726 1.68852 111 164 150
0.585375 -1.75609 3.55972 112 154 136
1.76518 -3.72821 7.34955 157 217 177
0.315893 -1.27884 2.6187 139 201 187
0.392264 -1.40665 2.89996 73 119 107
0.205082 -1.08521 2.22701 185 224 202
1.51136 -3.24718 6.59856 130 164 154
0.383919 -1.3821 2.87255 130 188 160
0.432372 -1.46367 3.04236 169 210 203
0.570578 -1.68637 3.50915 94 143 129
0.245938 -1.14279 2.37517 150 199 183
0.516309 -1.59152 3.32231 93 132 117
0.310849 -1.24501 2.60715 208 255 232
0.246317 -1.14317 2.38174 62 108 96
1.12177 -2.55537 5.32334 102 110 109
1.70984 -3.52846 7.25939 160 172 176
0.217483 -1.08963 2.27254 122 136 135
0.319688 -1.25812 2.64658 92 134 117
2.56597 -4.89929 10.0919 88 99 91
-0.0697763 -0.603293 1.02966 193 238 222
0.913755 -2.19946 4.65853 175 197 208
1.16448 -2.60014 5.4845 229 255 253
0.250264 -1.13025 2.38581 96 143 121
2.06865 -4.05902 8.48752 113 145 140
-0.0231859 -0.674717 1.25562 49 52 43
0.264683 -1.14713 2.43884 177 245 214
-0.0320323 -0.655655 1.20229 168 219 191
0.353375 -1.28209 2.75896 109 160 132
2.25456 -4.28473 9.15016 140 155 151
0.671116 -1.76289 3.859 171 205 198
2.43277 -4.50338 9.71364 149 174 178
0.0551719 -0.795297 1.61568 116 168 158
1.79797 -3.51468 7.62594 151 189 189
1.76533 -3.46142 7.53575 238 252 251
0.00761239 -0.703313 1.36679 97 151 134
0.99474 -2.23696 4.96927 148 171 179
2.22552 -4.1508 9.10237 190 212 223
-0.0174945 -0.654557 1.22913 182 224 213
0.136946 -0.904703 1.93189 105 142 138
1.27566 -2.6477 5.9203 143 162 170
1.82016 -3.46942 7.7488 106 119 117
2.8546 -5.05806 11.2339 128 149 151
3.02844 -5.29187 11.7582 172 193 201
-0.002665 -0.663597 1.2748 182 237 218
0.0558546 -0.758952 1.56901 98 159 145
0.0525276 -0.753031 1.55431 113 162 154
-0.00762222 -0.650494 1.2419 118 143 129
1.33256 -2.66682 6.12777 115 142 138
0.12432 -0.855618 1.84975 156 203 187
0.0827623 -0.791092 1.6781 107 143 129
1.55969 -2.97062 6.90955 143 169 163
0.10053 -0.811359 1.74344 131 167 145
1.71403 -3.19227 7.42687 114 126 132
4.95261 -7.92409 18.4505 119 141 139
0.212559 -0.963593 2.18055 166 199 184
0.158731 -0.872548 1.94011 94 99 78
3.03669 -5.05892 11.9374 129 156 152
0.0814574 -0.770239 1.65216 118 147 144
0.924147 -1.98131 4.73381 132 156 154
0.0142254 -0.65502 1.2849 157 220 176
0.0956546 -0.789255 1.71151 123 140 127
0.150775 -0.86082 1.91376 140 169 146
0.0900603 -0.777538 1.68074 118 141 133
0.958265 -2.01392 4.85661 148 186 180
1.22371 -2.38148 5.7736 124 148 160
0.109206 -0.794343 1.74608 158 176 169
1.12489 -2.22303 5.4335 98 106 106
0.0856374 -0.753261 1.63932 111 145 134
3.18735 -5.12422 12.4956 175 200 204
1.33315 -2.489 6.14537 123 136 152
0.125299 -0.798071 1.77979 143 185 167
0.182667 -0.868222 1.99332 171 226 199
0.0984396 -0.760399 1.67628 226 245 242
5.3764 -8.05723 19.988 139 140 144
1.89098 -3.20762 8.06313 150 164 176
0.1052 -0.760697 1.69588 194 225 218
0.811101 -1.67414 4.20404 80 91 65
0.25931 -0.941078 2.24692 62 121 83
0.267272 -0.951237 2.27966 207 255 245
2.00891 -3.32955 8.48038 250 254 255
0.100418 -0.743791 1.66059 184 219 205
1.88852 -3.14289 8.06477 122 131 140
9.71182 -13.7152 35.0494 124 133 130
1.24132 -2.26844 5.82376 130 144 162
1.34717 -2.39376 6.17507 217 235 242
1.98767 -3.26701 8.3949 212 229 238
0.129117 -0.776716 1.76912 157 204 165
0.190167 -0.841887 1.96932 178 235 210
0.116745 -0.759446 1.72161 211 239 233
0.132604 -0.776501 1.7781 161 201 160
5.18409 -7.50132 19.4081 151 186 190
0.839907 -1.64554 4.25844 95 113 90
0 0 0 129 158 149
0.0994427 -0.727238 1.63613 141 178 162
0.94591 -1.76314 4.60928 253 253 253
3.04584 -4.50985 12.0201 164 193 200
9.57377 -13.016 34.6511 146 164 175
0.287524 -0.933338 2.31768 102 150 138
0 0 0 138 147 156
-3.29473 3.66625 -9.75631 138 175 173
0.238051 -0.849332 2.07905 186 229 208
-1.84454 1.7732 -4.80719 142 163 165
0.110342 -0.709058 1.63044 253 255 255
-4.33995 4.86803 -13.3888 155 199 186
1.47775 -2.36532 6.57087 153 168 177
-4.29173 4.80772 -13.2511 146 194 182
0.196698 -0.781362 1.88387 96 108 90
0.332467 -0.951884 2.45774 49 59 42
1.49689 -2.3876 6.67844 116 124 137
0 0 0 240 252 255
0.0979408 -0.682 1.55476 89 100 92
0.101019 -0.686153 1.57148 168 202 192
-3.33927 3.50533 -9.98775 167 188 189
0.250296 -0.822935 2.06663 129 168 153
0.0498132 -0.618497 1.33032 128 163 173
0 0 0 248 255 255
-4.37773 4.7155 -13.5756 113 134 135
-6.41336 7.07046 -20.546 126 132 137
0.102507 -0.667975 1.53819 94 129 115
6.02002 -7.63668 22.3143 127 134 149
-6.29519 6.91862 -20.1592 101 116 112
-2.40288 2.3235 -6.7638 129 133 138
0 0 0 150 163 171
-2.93216 2.92959 -8.57439 114 133 138
0 0 0 150 156 169
-4.76443 4.99146 -14.9298 97 124 120
-2.00189 1.8009 -5.37899 143 170 180
0 0 0 179 203 203
-4.92045 5.09632 -15.3995 197 216 219
-0.0150713 -0.526055 0.945196 178 232 203
-0.00315183 -0.535516 0.989847 102 112 112
-0.00108399 -0.538361 1.00328 208 247 239
0.0520578 -0.597681 1.28886 196 237 216
-0.00909445 -0.529099 0.959557 103 137 126
0 0 0 151 162 170
0.229606 -0.752937 1.92468 177 223 204
-3.18448 3.06579 -9.45811 139 155 154
-2.31927 2.09149 -6.48069 85 96 93
-0.0100851 -0.522379 0.936666 179 236 205
0.0833137 -0.615168 1.38831 104 112 111
0.12497 -0.65421 1.55508 129 175 169
0.253419 -0.773731 2.01755 86 101 87
0 0 0 110 98 96
0 0 0 140 149 163
0 0 0 196 193 188
-8.8099 9.1859 -28.823 124 134 141
-2.41256 2.16683 -6.79868 147 157 167
-1.74391 1.43742 -4.50373 148 183 186
4.14331 -4.95782 15.6968 172 198 215
-4.62398 4.54616 -14.4097 158 170 180
0.0901284 -0.618003 1.41286 203 234 225
2.10189 -2.75802 8.67082 248 255 255
4.7594 -5.60765 17.7912 134 165 174
-1.76327 1.4477 -4.56582 121 153 159
0.0129236 -0.536857 1.02104 206 252 229
2.09805 -2.72578 8.60932 148 164 177
3.1722 -3.88713 12.3352 150 177 198
5.35172 -6.24723 19.8653 126 149 157
-8.3558 8.49703 -27.2384 89 95 94
-6.99566 7.06625 -22.5998 147 174 170
-2.23541 1.93197 -6.18548 84 106 104
2.12858 -2.75162 8.73773 131 147 163
0 0 0 131 139 146
-2.28394 1.97063 -6.36577 115 127 145
-2.10375 1.77783 -5.73055 130 180 178
0.262274 -0.754582 1.99933 191 243 220
6.77532 -7.62541 24.7176 223 244 242
-6.79066 6.66376 -21.8685 107 106 115
0.0863994 -0.59744 1.35233 198 228 223
0 0 0 113 114 112
4.04023 -4.67439 15.3322 242 246 247
4.0125 -4.60599 15.1391 238 246 246
-6.89908 6.68585 -22.2006 185 213 220
0.0859209 -0.596399 1.35441 209 216 213
-5.63464 5.35463 -17.9016 216 243 253
0.423202 -0.893541 2.57908 168 212 195
0.444187 -0.912478 2.65833 171 207 193
0 0 0 201 225 225
0 0 0 184 202 209
-11.5111 11.2851 -37.9001 193 196 187
-5.61536 5.30253 -17.7867 193 209 221
3.69743 -4.20222 14.0903 113 113 125
-4.73262 4.39403 -14.837 133 140 143
-3.28134 2.87876 -9.80582 138 147 160
0.0836981 -0.582219 1.30732 179 193 191
0 0 0 157 193 199
-3.73945 3.32325 -11.3784 148 155 172
-2.13184 1.71965 -5.84915 171 177 190
-2.04177 1.62294 -5.55068 140 174 180
2.07938 -2.5083 8.46246 90 92 93
4.58494 -5.03451 17.1475 198 209 213
0 0 0 81 74 71
-3.06717 2.63087 -9.0654 167 195 206
-1.71447 1.28453 -4.40689 94 165 145
0.134151 -0.616699 1.47984 83 99 88
0.559833 -0.988028 3.01278 86 107 82
2.44309 -2.84174 9.69327 118 121 119
-3.23787 2.77183 -9.63158 158 167 180
0.544837 -0.963041 2.94757 154 217 185
0.58908 -1.00388 3.09351 246 255 255
-2.69165 2.22694 -7.75672 162 184 196
8.74347 -8.98507 31.3208 145 157 151
-6.99044 6.37311 -22.4433 168 191 199
0.591425 -0.992909 3.08327 99 142 109
0.148443 -0.615923 1.50463 108 132 102
-7.10765 6.38822 -22.8119 203 229 229
-1.73693 1.25157 -4.48589 154 173 178
0.577559 -0.967764 3.04039 52 71 50
0.636557 -1.01486 3.21839 136 193 160
-3.21423 2.64776 -9.54432 238 243 244
0.0732065 -0.556185 1.2157 181 240 226
0.145291 -0.60523 1.46573 120 148 128
0.60346 -0.981147 3.10898 203 244 229
-2.3515 1.81034 -6.6028 142 156 162
-3.12742 2.49713 -9.22274 101 115 111
0.0907309 -0.561278 1.26933 121 126 124
-3.04153 2.3868 -8.95403 179 212 205
-2.0486 1.47418 -5.52902 148 184 178
0.732187 -1.05543 3.51534 67 114 88
0.776364 -1.09199 3.66857 94 155 129
0.0596392 -0.533175 1.11245 78 113 116
-2.81379 2.14418 -8.16919 213 241 242
-1.77274 1.19943 -4.59205 170 174 179
0.789191 -1.09351 3.70112 75 121 98
0.157463 -0.597216 1.4698 226 249 241
0.117988 -0.564783 1.30576 174 209 183
-7.57398 6.11638 -23.7358 164 220 199
-2.71134 1.98255 -7.76426 88 124 112
0.118842 -0.564426 1.30847 171 209 181
0.761685 -1.04808 3.57875 114 165 131
0 0 0 189 227 205
-1.72456 1.13161 -4.44504 137 133 138
-1.68913 1.09525 -4.30337 122 117 119
0.196006 -0.618269 1.60724 83 99 92
0.602442 -0.912002 2.99374 200 237 211
-9.48556 7.61892 -30.0089 178 222 193
-2.64955 1.91867 -7.59794 97 148 140
-1.98245 1.32735 -5.29367 114 125 133
-1.76309 1.14867 -4.57171 204 230 236
-2.42856 1.69932 -6.83688 99 151 141
-1.67892 1.0542 -4.26029 231 251 238
-1.64198 1.01579 -4.12967 107 124 110
-7.01653 5.33378 -21.7818 74 83 63
-5.81985 4.35132 -17.822 70 70 58
0.787025 -1.02112 3.60977 219 252 238
-1.41501 0.809222 -3.36756 177 178 192
6.83164 -5.7066 23.6768 184 220 208
-5.95098 4.29347 -18.1535 54 53 43
0.738509 -0.955167 3.39179 157 196 175
-5.15782 3.59974 -15.5418 190 235 218
-4.82066 3.35532 -14.4338 97 105 98
-1.41445 0.777747 -3.36941 149 149 163
5.19441 -4.26095 18.0334 195 218 190
4.22092 -3.52303 14.9139 148 219 193
4.89805 -3.98959 16.9614 76 90 72
-4.85251 3.29208 -14.5126 154 193 168
-4.42541 2.95041 -13.11 69 68 54
-1.34511 0.697367 -3.12119 96 92 91
5.25775 -4.21855 18.2483 67 91 73
-1.50368 0.816886 -3.66538 146 165 170
-5.2807 3.51799 -15.8715 151 199 175
-3.83767 2.43082 -11.1172 170 202 178
-1.63653 0.895073 -4.1163 131 129 148
-7.16768 4.79803 -21.9981 190 230 218
5.28648 -4.08153 18.1666 106 125 110
-5.39836 3.46707 -16.2038 175 208 193
-1.50643 0.777435 -3.65109 222 242 237
5.38188 -4.13976 18.5063 70 90 71
-1.45317 0.733947 -3.47853 196 230 224
-1.40799 0.703624 -3.32938 230 247 238
8.40819 -6.16386 28.1042 41 53 41
-3.9803 2.42318 -11.5385 104 107 85
-1.46104 0.725738 -3.51591 110 129 137
0 0 0 180 211 190
-4.85353 3.01207 -14.4328 52 49 35
1.03265 -1.05328 4.25788 196 249 235
-4.54708 2.71328 -13.3967 155 208 181
0.141992 -0.528988 1.2468 171 207 207
0.53495 -0.751308 2.70413 171 212 204
2.60369 -2.07313 9.49986 151 217 192
-1.32653 0.597301 -3.04145 221 255 245
1.34816 -1.21876 5.28274 221 255 247
-2.11385 1.07417 -5.52601 62 80 57
-1.27704 0.559831 -2.88046 228 252 240
-1.46993 0.680246 -3.53149 100 126 120
0 0 0 109 151 133
-1.2808 0.549125 -2.88776 186 204 191
-1.31988 0.574537 -3.02975 47 93 81
10.6527 -6.84768 34.8351 181 242 208
-2.06373 0.967824 -5.30571 201 227 213
-2.16411 1.02478 -5.63892 208 235 215
-1.17835 0.469182 -2.56118 216 235 238
0.10669 -0.500692 1.0421 202 230 230
-1.26263 0.49689 -2.81996 181 218 210
-1.20558 0.452341 -2.62876 121 139 122
-4.22761 2.08095 -12.1105 184 227 176
-1.39035 0.54278 -3.23432 78 89 87
0.146234 -0.50786 1.12836 173 205 188
-1.24759 0.455849 -2.7586 171 194 189
-1.34266 0.507569 -3.07586 120 176 141
-1.3943 0.532089 -3.25773 130 157 148
1.59055 -1.15287 5.79026 89 93 98
-1.40664 0.510406 -3.2851 246 251 252
1.13844 -0.921972 4.39662 47 51 46
-1.19437 0.399134 -2.58742 66 64 54
0.941098 -0.81885 3.73182 193 251 226
-6.14261 2.7949 -17.96 120 163 130
-2.99864 1.21701 -8.13492 133 161 138
-1.45596 0.504321 -3.42832 106 124 111
-1.20335 0.388706 -2.60897 207 235 229
-1.24246 0.40169 -2.72789 112 129 115
1.77622 -1.15955 6.26153 145 153 152
-1.5088 0.503849 -3.57113 192 248 219
-1.115 0.326298 -2.29415 78 100 88
1.42447 -0.991035 5.20678 177 221 204
-4.07539 1.65152 -11.5025 47 45 34
1.20913 -0.893441 4.54033 67 96 80
1.34491 -0.942581 4.93791 86 100 88
-1.30544 0.397814 -2.93213 133 165 148
1.13105 -0.834747 4.23233 111 140 117
-2.95578 1.07927 -7.95547 148 194 172
1.64699 -1.0432 5.83543 55 72 63
-1.28858 0.384763 -2.87813 241 249 248
-1.11095 0.299019 -2.27335 109 137 124
0.198483 -0.504297 1.18032 187 221 204
-1.26276 0.363132 -2.79401 124 130 135
0.168298 -0.495932 1.06307 77 89 77
0.187832 -0.499597 1.13035 181 230 214
3.94267 -1.93209 12.6894 110 153 132
0.157433 -0.493131 1.01276 96 115 94
-2.94393 0.974959 -7.89196 149 193 157
-1.34088 0.372072 -3.01424 163 178 157
0.159649 -0.491969 1.00333 200 236 222
0.165985 -0.492558 1.02439 94 104 91
0.0823849 -0.474725 0.762623 123 162 146
-2.05146 0.571077 -5.11781 99 122 100
0.175467 -0.492125 1.047 196 239 226
0 0 0 200 234 224
-1.46476 0.351179 -3.3596 190 211 203
-1.07202 0.220489 -2.15089 127 149 144
2.88659 -1.22162 9.17562 71 106 80
0.174013 -0.489528 0.965268 146 161 153
-6.92966 1.92236 -19.6905 39 46 43
-1.06128 0.195129 -2.10309 108 125 128
-4.74753 1.15193 -13.2159 44 51 44
-1.28706 0.222721 -2.76885 160 199 191
-6.49086 1.49218 -18.2298 89 123 99
-1.45795 0.235541 -3.27063 175 217 192
-1.30403 0.207527 -2.80099 193 228 201
-1.26639 0.196112 -2.69647 45 51 40
-1.17138 0.173246 -2.40228 186 243 210
-2.07923 0.332561 -5.16243 75 79 60
-1.14976 0.159327 -2.33742 192 243 199
2.30712 -0.85191 7.21584 178 255 233
-1.60697 0.229961 -3.71113 55 58 43
-1.27303 0.166689 -2.70534 103 132 117
0.255258 -0.490216 1.13976 46 72 59
-3.49216 0.558814 -9.30467 158 215 184
-1.55646 0.197613 -3.53908 171 244 206
-1.10946 0.137126 -2.20946 164 222 197
-1.09692 0.131653 -2.16325 175 252 231
-1.11144 0.126185 -2.21005 56 71 57
-1.05604 0.119874 -2.04773 143 208 176
0.216824 -0.48793 0.991165 192 237 228
2.69528 -0.827221 8.25387 193 251 227
2.86823 -0.865953 8.72512 98 118 119
3.30651 -0.951352 10.0002 154 222 191
-1.34948 0.145448 -2.9099 221 249 230
-1.32585 0.144718 -2.85437 97 121 109
-3.09301 0.387718 -8.11343 211 249 231
-1.05992 0.110795 -2.05715 82 96 90
-1.34594 0.128584 -2.90234 213 241 218
-1.28278 0.128295 -2.72479 102 129 119
3.03427 -0.855567 9.19253 85 116 101
-4.96338 0.660708 -13.5004 203 246 225
-2.70574 0.282829 -6.98454 194 219 191
-1.25394 0.113832 -2.6319 62 73 53
-1.13697 0.101972 -2.27078 74 84 72
-1.06507 0.0952401 -2.06452 100 130 117
3.63187 -0.884611 10.8344 112 130 117
-1.09977 0.0928366 -2.15987 182 220 208
4.8127 -1.042 14.11 108 134 120
-1.28362 0.0942998 -2.70789 85 103 86
0.185924 -0.489528 0.840123 161 184 170
-1.02819 0.0814738 -1.95122 75 93 86
-1.12811 0.0796099 -2.24808 93 107 89
0.095008 -0.483105 0.591804 86 113 103
-1.22336 0.0815427 -2.5275 141 153 133
-1.20071 0.0704097 -2.45844 172 209 175
2.22226 -0.583603 6.62374 106 132 114
0.427436 -0.48922 1.47474 222 249 233
1.4398 -0.515899 4.48012 159 205 183
-1.41189 0.0357916 -3.046 60 82 57
0.2084 -0.491357 0.859737 79 75 64
-1.11714 0.0434129 -2.20162 199 242 215
-1.10355 0.0352957 -2.15909 61 87 73
-4.13006 0.10778 -10.887 68 86 73
0.2397 -0.491769 0.923222 163 208 169
-3.02314 -0.00300691 -7.76048 108 159 145
-1.9287 -0.0208135 -4.63964 69 84 70
-1.79625 -0.0327508 -4.2618 189 225 201
-1.11617 0.00980117 -2.18534 137 175 145
-2.55389 -0.0816805 -6.39695 140 202 186
-2.10851 -0.072139 -5.13842 216 250 239
-1.07652 0.00629606 -2.06516 173 212 191
-5.30767 -0.0756341 -14.01 86 104 97
-3.51257 -0.115867 -9.11806 193 243 225
-1.75551 -0.0933676 -4.12759 107 156 134
-1.03765 -0.00252459 -1.95165 115 126 118
-2.52987 -0.138702 -6.34861 47 61 49
-1.081 -0.0131794 -2.0786 83 103 84
-3.49566 -0.174842 -9.04999 168 217 201
0.126426 -0.499379 0.565811 70 76 65
-1.03579 -0.014133 -1.94214 63 66 51
-2.50148 -0.247368 -6.2434 175 223 199
-1.93438 -0.236074 -4.63631 130 186 157
-1.09095 -0.0514248 -2.10855 108 141 126
-2.79071 -0.326574 -7.07241 162 236 218
-2.00831 -0.262463 -4.83919 177 211 194
-5.12371 -0.520544 -13.3343 169 193 169
-1.63346 -0.20955 -3.76572 223 255 245
-1.89316 -0.289272 -4.51434 71 82 74
-2.95151 -0.445151 -7.46723 64 75 59
-1.97034 -0.341453 -4.74262 69 106 80
-0.997868 -0.0670729 -1.82228 99 123 105
-0.954072 -0.0547812 -1.6809 95 132 122
-1.7775 -0.350341 -4.18741 106 131 127
-0.93908 -0.0579634 -1.63772 108 149 128
-1.91039 -0.40502 -4.57736 85 111 95
-1.46106 -0.279977 -3.28954 105 123 110
-1.78772 -0.385332 -4.20387 93 126 111
-1.73768 -0.406951 -4.0709 110 156 133
-1.43544 -0.299296 -3.19629 199 250 230
0.188036 -1.2493 2.17189 119 162 149
1.16456 -3.08698 4.96496 106 120 114
0.0744254 -1.03488 1.80786 199 231 226
0.804624 -2.40918 3.99738 135 171 159
0.0843923 -1.04612 1.84222 133 168 142
0.866135 -2.5058 4.1875 184 212 212
0.0280927 -0.92804 1.62527 108 161 141
1.38128 -3.45215 5.65107 114 124 111
0.709348 -2.19604 3.75968 192 250 226
0.97603 -2.68987 4.52916 213 244 223
-0.0361241 -0.782627 1.34205 111 131 112
0.239881 -1.30515 2.34265 98 141 126
0.937038 -2.59944 4.43469 103 110 103
0.7819 -2.30753 4.00843 113 145 134
0.026807 -0.913014 1.62596 123 167 150
0.252098 -1.3113 2.38072 181 228 212
0.692691 -2.1413 3.76416 69 94 80
-0.108608 -0.628602 0.990386 66 72 67
-0.107181 -0.633289 0.999417 179 220 199
0.796345 -2.29912 4.10093 89 114 110
0.0486209 -0.931511 1.69529 97 104 83
0.700885 -2.11308 3.82431 95 124 115
0.973149 -2.60725 4.64274 172 205 208
1.61753 -3.76882 6.58597 213 248 234
-0.105229 -0.617803 0.979731 158 226 201
1.05669 -2.7451 4.91842 229 253 253
-0.111178 -0.61034 0.959275 144 226 203
-0.0196968 -0.770495 1.37512 194 215 207
1.05627 -2.67266 4.98491 138 167 164
0.812096 -2.24529 4.23856 165 184 192
0.379959 -1.45744 2.8292 208 255 243
0.798302 -2.2074 4.20473 251 253 253
0.208784 -1.15941 2.25321 145 190 157
0.736843 -2.08483 4.0211 114 138 136
-0.0391978 -0.706573 1.25291 182 231 215
-0.0377075 -0.711518 1.2679 127 148 146
0.0717174 -0.918241 1.76002 163 216 202
1.08133 -2.66925 5.11024 120 122 122
1.57085 -3.48325 6.69287 122 126 121
0.743355 -2.06174 4.06703 164 162 174
1.17622 -2.80085 5.46438 144 166 171
0.182654 -1.08759 2.16875 111 137 131
1.01219 -2.49488 4.93639 122 192 169
0.563147 -1.71189 3.48649 205 250 231
-0.0327057 -0.687217 1.24316 147 193 171
0.369737 -1.37903 2.82558 187 247 223
0.963922 -2.38058 4.80626 147 151 146
0.391335 -1.40642 2.89839 104 144 133
0.080844 -0.888749 1.77024 126 177 163
1.62311 -3.43523 6.94926 164 175 173
0.384665 -1.38126 2.86913 144 196 172
1.50531 -3.24482 6.5911 142 179 171
2.04236 -4.09916 8.29265 170 213 202
-0.0707594 -0.607625 1.03523 95 137 120
0.29132 -1.2099 2.53779 73 122 94
1.1602 -2.62865 5.45722 132 182 164
0.236767 -1.12369 2.35257 232 246 252
0.962719 -2.311 4.83874 168 173 188
0.992624 -2.35488 4.93662 133 136 141
0.411887 -1.39859 2.95894 190 242 219
2.08007 -4.11528 8.51286 173 208 198
2.05187 -4.04991 8.45618 141 175 168
0.335297 -1.25715 2.69502 180 239 219
0.710114 -1.83826 3.99387 96 113 110
0.553544 -1.58761 3.46257 103 139 127
1.99166 -3.86566 8.30437 133 148 151
2.28992 -4.33729 9.29363 149 176 173
1.21736 -2.62591 5.72246 169 188 196
1.09018 -2.38291 5.29993 160 171 179
0.0129028 -0.703401 1.38012 98 129 120
2.9155 -5.20756 11.458 243 255 255
0.00940499 -0.693149 1.35565 172 236 214
1.25289 -2.59649 5.84345 115 132 129
-0.0114444 -0.658059 1.25284 81 97 80
-0.00424805 -0.664568 1.27489 176 231 216
0.0136939 -0.688038 1.357 98 119 104
0.0262403 -0.707299 1.40898 120 165 156
-0.0149728 -0.63693 1.20319 114 144 125
0.176324 -0.920299 2.03961 207 239 220
3.25273 -5.45015 12.6487 168 197 194
0.0945339 -0.799841 1.72279 188 229 221
0.110526 -0.816625 1.76996 160 182 177
0.201115 -0.953445 2.14668 66 69 54
1.14272 -2.32928 5.48857 127 143 149
0.105423 -0.807853 1.753 72 81 61
0.149044 -0.861048 1.9064 136 160 148
0.800657 -1.79343 4.30597 149 190 182
0.0839033 -0.766174 1.65584 214 236 234
0.107029 -0.795621 1.74232 162 176 170
0.0150755 -0.649091 1.28452 198 250 220
0.0206646 -0.654793 1.29587 124 141 107
0.0289522 -0.659729 1.32262 98 137 112
0.702374 -1.58828 3.86264 73 82 61
0.0946697 -0.767123 1.67659 162 183 181
0.111664 -0.775402 1.72848 182 209 183
0.0955591 -0.74688 1.65271 200 229 220
0 0 0 116 125 129
1.3035 -2.35385 6.01613 247 253 252
1.91805 -3.19125 8.13593 220 236 243
1.95925 -3.22156 8.3252 147 154 169
-2.29355 2.50197 -6.31595 140 152 164
0.0975863 -0.72956 1.63096 126 154 134
1.32431 -2.33917 6.13108 164 182 199
0 0 0 110 114 119
5.76666 -8.00663 21.3805 103 121 120
2.16244 -3.33622 9.00457 150 175 195
0.282595 -0.90709 2.27183 198 238 220
0.318835 -0.955753 2.42543 89 151 129
0.98982 -1.74806 4.73299 255 255 255
-5.42848 6.32116 -17.1755 125 154 139
0.0941362 -0.691563 1.56623 104 124 112
-2.45495 2.54116 -6.9195 124 136 138
-1.82737 1.75419 -4.76506 168 190 196
0.197698 -0.789554 1.90354 176 218 201
0.363575 -1.00224 2.59762 156 237 204
-3.50574 3.84332 -10.5322 139 175 163
4.26339 -5.8088 16.2816 121 134 150
0 0 0 167 186 193
1.75446 -2.69134 7.57393 131 144 158
0.212481 -0.786037 1.92959 204 234 221
0.218129 -0.797348 1.96401 87 94 81
0.138946 -0.713759 1.70179 148 208 190
2.02896 -2.93771 8.50568 131 158 179
0 0 0 160 188 189
0 0 0 174 181 190
0.129396 -0.688878 1.62846 77 105 82
0.213238 -0.764518 1.90398 127 149 137
-3.01359 3.01348 -8.88879 173 203 204
-7.85479 8.58033 -25.5944 137 149 149
0.265664 -0.802639 2.0726 180 229 215
-2.42703 2.26944 -6.87188 129 135 140
-0.00205641 -0.534296 0.990191 80 94 83
0.202189 -0.735276 1.83865 110 123 109
0.290401 -0.824526 2.16586 195 234 218
-3.46711 3.38354 -10.4248 129 149 154
0 0 0 142 147 150
0.0995479 -0.630178 1.46155 98 95 91
0.109525 -0.640253 1.49943 114 131 127
1.85868 -2.49409 7.81855 132 161 158
7.05318 -8.15194 25.8449 212 228 235
0 0 0 119 114 111
-4.72098 4.68475 -14.7816 136 167 160
0 0 0 113 98 96
0 0 0 210 232 230
0 0 0 113 105 98
-8.15881 8.26591 -26.5756 99 108 105
0.0997728 -0.619728 1.43432 195 212 215
0.283936 -0.784045 2.09835 81 114 99
0 0 0 202 226 226
0 0 0 183 214 213
0.00246963 -0.521654 0.95526 159 214 181
1.78901 -2.35378 7.55518 105 119 115
-8.99235 9.04043 -29.5785 142 152 152
-3.01336 2.70158 -8.89926 141 161 166
4.02663 -4.66399 15.289 244 249 252
5.16017 -5.81426 19.1952 82 90 90
0 0 0 161 176 185
2.82182 -3.363 11.0886 138 144 151
-5.65114 5.37549 -17.9604 217 243 255
0.0817357 -0.585287 1.31287 96 113 104
0.422803 -0.881594 2.55592 172 222 198
-2.08623 1.69459 -5.68947 161 181 192
3.72217 -4.22568 14.1935 110 116 129
0.024837 -0.531851 1.03298 159 204 177
0.0795981 -0.579669 1.29503 202 233 224
0.134202 -0.624121 1.50444 191 227 203
5.94569 -6.44625 21.8672 194 215 217
-2.13723 1.73241 -5.85557 158 178 183
-2.03505 1.61498 -5.53382 132 172 177
2.16157 -2.57257 8.69886 92 99 96
2.36651 -2.81326 9.46163 204 225 226
-1.71681 1.28723 -4.41827 110 188 164
-4.22649 3.7816 -13.0724 87 86 82
0.0791404 -0.570168 1.26827 86 92 87
3.83113 -4.19656 14.4772 253 254 255
-2.66898 2.21312 -7.70296 163 182 195
0.538631 -0.958891 2.93708 172 235 209
3.8441 -4.21454 14.5591 228 237 241
0.173829 -0.640569 1.62904 173 221 193
0.570071 -0.960632 3.01148 57 79 55
-3.00249 2.43498 -8.8514 156 184 195
-2.34452 1.80299 -6.58555 125 141 148
0.589008 -0.961374 3.05701 63 74 58
0.0908575 -0.562927 1.27406 119 126 123
0.139994 -0.589931 1.41085 179 216 200
-3.02962 2.37725 -8.92878 131 169 157
-2.81795 2.15149 -8.18818 206 237 238
