ply
format ascii 1.0
element vertex 1259
property float x
property float y
property float z
property uchar blue
property uchar green
property uchar red
end_header
0.241538 -0.219406 3.08246 88 164 153
-0.88624 -0.206053 2.90975 131 195 159
0.207464 -0.217952 3.08133 113 184 164
0.496731 -0.216938 3.10331 108 182 148
-0.936115 -0.200062 2.91128 119 176 137
-0.950758 -0.194984 2.90658 156 228 186
0.23301 -0.204084 3.08692 91 159 136
0.311282 -0.20279 3.09104 82 150 115
-0.914916 -0.187454 2.91025 114 181 142
-0.896112 -0.180051 2.90769 69 102 75
-0.929437 -0.166534 2.90777 155 219 184
-0.21717 -0.177013 3.07105 111 177 148
-0.22847 -0.169497 3.07432 67 118 91
-0.299607 -0.168312 3.06782 97 159 145
0.309534 -0.166912 3.094 91 149 124
-0.618584 -0.15016 3.06332 110 160 148
0.303194 -0.152165 3.09502 160 241 202
-0.948694 -0.139173 2.9036 133 183 149
-0.572557 -0.147617 3.05974 99 160 146
-0.929148 -0.136402 2.90728 109 137 107
-0.953685 -0.132817 2.89322 62 96 65
-0.611319 -0.135046 3.06864 137 191 162
1.36751 -0.131196 3.1448 138 182 165
1.37801 -0.128689 3.14375 87 126 104
-0.9369 -0.11628 2.90474 36 86 62
-0.609411 -0.121413 3.06568 165 227 203
0.321 -0.120507 3.10382 124 175 185
-0.149357 -0.116436 3.08414 92 153 117
-0.13803 -0.11694 3.08239 87 149 119
-0.927191 -0.108885 2.89831 152 222 192
1.35116 -0.115118 3.12968 98 121 99
-0.915005 -0.105099 2.89874 123 182 144
1.26118 -0.115467 3.14051 86 129 102
1.37682 -0.109019 3.13786 139 197 168
1.39223 -0.10614 3.1509 94 152 123
-0.099558 -0.099106 3.08528 105 168 152
-0.596001 -0.0943926 3.0646 130 191 177
-0.629131 -0.0911696 3.06091 163 215 198
-0.216987 -0.0902079 3.0764 61 94 73
0.383149 -0.0896359 3.10498 161 237 195
0.418762 -0.0902282 3.1036 75 147 111
-0.516117 -0.0857487 3.06628 90 142 124
0.321838 -0.0824475 3.10526 82 144 104
0.314946 -0.0775088 3.1038 157 237 200
0.493567 -0.077563 3.09572 105 171 136
0.388495 -0.0669311 3.09648 92 149 124
-0.443409 -0.0588882 3.08304 91 137 115
-0.633685 -0.0579038 3.07018 117 168 148
0.268724 -0.0592739 3.10419 176 253 226
1.66818 -0.0589908 3.15021 152 221 178
0.228033 -0.0528061 3.10835 73 118 102
-0.424369 -0.0516538 3.07909 83 139 120
1.41629 -0.052654 3.14266 74 139 118
-0.98932 -0.0449889 2.88533 175 245 215
-0.650025 -0.0488007 3.07075 140 214 186
1.574 -0.0474276 3.14411 74 144 113
-0.976258 -0.0358844 2.88428 140 216 168
-0.960907 -0.0359278 2.89066 92 141 109
-0.909623 -0.0363534 2.89253 93 159 118
-0.5425 -0.0381542 3.07341 109 152 149
-0.148281 -0.033935 3.08055 95 164 144
-0.606922 -0.0270009 3.07848 126 164 158
-0.174488 -0.028282 3.08151 84 150 125
0.343096 -0.0222791 3.10148 168 238 198
0.199511 -0.0219623 3.10235 93 160 131
1.32915 -0.0212758 3.13882 109 189 160
-0.929574 -0.0145814 2.90001 124 175 137
-0.967629 -0.0136978 2.88482 91 148 115
-0.60819 -0.0146833 3.07175 168 237 204
0.274566 -0.0120707 3.11409 78 147 114
-0.966609 -0.00348367 2.88602 135 207 164
-0.566717 -0.00343466 3.07432 187 238 231
0.257633 -0.0027362 3.10997 61 133 86
-0.378614 0.00867219 3.08819 102 177 149
0.268364 0.0208013 3.10987 61 98 72
0.299146 0.0230608 3.1137 81 155 121
-0.132172 0.0268178 3.09726 91 153 131
0.183835 0.030476 3.10192 194 255 241
0.202367 0.0296173 3.10777 79 174 130
-0.591807 0.0328954 3.07922 100 172 150
0.28896 0.0323085 3.11481 58 114 79
0.190306 0.0391764 3.10525 88 155 124
0.268697 0.0374398 3.10663 156 220 191
1.60893 0.0459747 3.14929 142 239 189
-0.152349 0.0453667 3.09855 101 159 135
0.185914 0.0466194 3.10533 136 225 199
1.35548 0.0471447 3.14628 154 215 187
1.73424 0.049269 3.17926 112 174 138
0.544452 0.0452101 2.90642 46 82 66
-0.00650568 0.0521353 3.0987 86 153 138
0.171986 0.0535559 3.10357 106 178 135
0.279826 0.0530122 3.1068 57 103 74
0.137672 0.0623434 3.10633 84 148 113
0.274844 0.0603222 3.10645 135 210 172
-0.02807 0.0670062 3.11295 90 152 140
-0.00343172 0.0711931 3.0931 113 182 179
-0.564234 0.0768873 3.08367 78 115 99
1.41909 0.0839973 3.14794 177 241 206
1.31285 0.0876451 3.15723 120 196 148
-0.0595223 0.0907213 3.10433 83 145 131
-0.807348 0.0959282 3.02566 32 48 31
0.221854 0.101891 3.11104 80 147 115
0.245421 0.100587 3.11055 79 147 116
1.27511 0.102999 3.14842 110 143 106
0.209543 0.104785 3.11661 166 237 211
0.0835545 0.111696 3.10723 171 249 212
0.287076 0.120145 3.12404 188 233 216
-0.192867 0.121921 3.09519 102 159 134
-0.073364 0.124517 3.09736 167 244 217
0.231594 0.128337 3.11281 135 205 168
0.0900556 0.129302 3.11797 70 131 111
-0.165544 0.133117 3.10484 115 184 151
0.287017 0.138056 3.11753 40 99 68
-0.105201 0.141797 3.10705 102 162 128
1.6123 0.14828 3.14325 119 189 153
1.27836 0.152932 3.16165 152 231 190
0.336498 0.15567 3.1135 45 111 70
1.91196 0.157428 3.18453 101 170 137
0.355591 0.158761 3.11374 147 231 183
-0.388482 0.168333 3.11279 76 140 110
0.268046 0.167822 3.11898 114 150 133
0.138718 0.175472 3.12045 87 174 136
1.30259 0.18182 3.15669 65 137 91
-0.396141 0.181123 3.10422 76 147 107
1.22841 0.183656 3.15725 163 230 185
-0.381493 0.183621 3.10806 188 247 227
-0.299781 0.18752 3.1022 80 136 107
-0.179304 0.187481 3.10323 84 153 133
-0.314501 0.196284 3.11041 90 154 124
1.22866 0.201459 3.16309 147 213 178
-0.0128472 0.200749 3.1152 112 194 176
-0.118403 0.211601 3.10829 73 148 120
-0.32002 0.218405 3.10376 63 124 98
-0.157683 0.219156 3.11074 96 136 108
-0.0858606 0.219038 3.11589 82 153 127
-0.208228 0.221503 3.11429 64 137 99
1.24199 0.229295 3.16473 101 167 138
-0.0764219 0.230968 3.1168 91 159 128
-0.510592 0.236947 3.11382 86 157 117
-0.336483 0.23639 3.10515 72 131 93
-0.279466 0.237487 3.10765 55 113 78
-0.299635 0.246147 3.1112 69 122 82
-0.330369 0.269786 3.1072 84 151 112
-0.353691 0.274431 3.10586 146 215 195
-0.162431 0.274199 3.10887 63 126 106
1.54031 0.280473 3.1788 84 145 131
-0.123087 0.279756 3.11423 106 156 144
-0.124512 0.281933 3.1195 89 145 132
-0.331699 0.290399 3.1112 154 232 191
0.361031 0.303732 3.13388 70 155 117
-0.265202 0.323813 3.11884 89 158 145
-0.888359 0.342179 3.11249 117 159 188
-0.871579 0.354969 3.10811 99 154 139
-0.212644 0.35813 3.12311 94 156 132
-0.461982 0.366946 3.12544 76 150 120
-0.804769 0.370606 3.10839 75 140 108
-0.482336 0.374994 3.12078 87 150 111
-0.142594 0.378669 3.12829 122 186 174
1.18636 0.388297 3.17976 76 136 142
1.24075 0.38729 3.17488 91 152 118
-0.663002 0.381722 3.10343 93 151 122
-0.588385 0.383996 3.1209 65 108 81
-0.567512 0.384688 3.11913 120 184 154
0.369488 0.3873 3.13599 95 156 118
-0.674366 0.391251 3.11193 69 142 102
-0.581498 0.395054 3.12316 71 128 97
-0.904214 0.395136 3.10276 161 213 183
0.353282 0.408126 3.14332 85 141 122
-0.311385 0.412747 3.12419 86 172 142
-0.758699 0.422529 3.11293 131 187 152
-0.352823 0.422501 3.12472 98 168 145
1.22277 0.428694 3.17359 107 187 144
-0.848127 0.424823 3.09925 82 132 102
-0.825801 0.422063 3.09991 59 108 80
-0.951935 0.425582 3.08547 159 224 202
-0.125417 0.43223 3.12681 88 165 138
-0.405218 0.433025 3.13189 84 158 124
-0.584905 0.436337 3.12498 119 192 160
-0.936355 0.43329 3.1046 104 141 109
-0.533833 0.438843 3.12467 123 193 170
-0.398364 0.447326 3.13065 95 180 135
-0.938847 0.454294 3.09443 130 188 160
-0.856495 0.468611 3.09695 92 126 95
-0.760401 0.473148 3.11578 101 148 116
-0.606355 0.471446 3.10479 151 229 192
-0.219392 0.476832 3.12639 101 168 139
-0.272502 0.483427 3.13214 86 151 129
-0.618627 0.484344 3.0997 57 118 82
-0.410878 0.490585 3.14146 87 163 131
-0.612691 0.486781 3.10116 114 181 144
0.424742 0.495194 3.15904 113 188 174
-0.694142 0.488845 3.09998 140 216 174
-0.538909 0.496442 3.12909 79 143 124
0.390498 0.501827 3.15828 83 156 134
-0.564042 0.502323 3.13543 102 156 127
-0.94866 0.498389 3.09248 144 218 188
-0.14939 0.507446 3.13791 74 124 100
-1.00556 0.506273 3.1038 83 114 107
-0.435533 0.52384 3.12897 99 172 150
-0.281021 0.526269 3.12856 125 184 200
1.37271 0.533279 3.16981 88 142 107
0.293298 0.533643 3.15582 99 176 155
-0.138859 0.529905 3.13101 72 116 93
0.326215 0.531733 3.14305 201 255 234
-1.03541 0.53267 3.12379 117 152 138
-0.284938 0.53276 3.1252 232 255 254
-1.02386 0.532592 3.11087 161 213 176
-0.260074 0.535973 3.12684 82 156 120
-0.704305 0.536722 3.11717 172 252 215
1.35566 0.548588 3.17563 95 139 108
-0.246865 0.544605 3.13458 110 173 134
-0.783251 0.546961 3.11464 62 91 75
-0.717496 0.554579 3.12602 57 104 72
-0.775583 0.552577 3.10963 140 208 177
-0.241953 0.557829 3.13329 83 160 122
-1.03768 0.557864 3.11059 192 234 203
-0.8582 0.556663 3.11508 121 153 142
-0.836839 0.55887 3.12893 143 177 147
1.49878 0.566963 3.176 64 106 88
-0.335209 0.561487 3.13962 83 159 127
1.46842 0.570944 3.17676 98 161 122
-0.400815 0.568274 3.12936 81 148 111
-0.680178 0.571005 3.11899 89 134 107
-1.05467 0.571672 3.11424 106 144 114
1.27028 0.582316 3.18025 77 127 93
-0.707488 0.579689 3.11851 137 214 177
-0.762954 0.582378 3.10955 130 195 169
1.20754 0.594919 3.17686 91 161 138
0.36598 0.595487 3.15778 84 129 172
-0.694084 0.596625 3.12123 62 102 74
1.43652 0.607583 3.17904 141 213 171
-1.04299 0.601342 3.10414 60 101 73
-0.678087 0.619533 3.12957 139 216 182
-0.642245 0.622455 3.13829 79 155 114
-0.339888 0.621411 3.13263 99 166 139
1.53262 0.628971 3.15688 108 147 122
-0.66761 0.62501 3.12192 163 233 202
0.134876 0.630511 3.14916 112 179 170
0.412328 0.634177 3.15203 83 145 109
-0.691551 0.63505 3.12635 166 225 197
-0.275486 -1.22673 2.87996 106 159 132
-1.30528 -1.17177 2.809 153 216 184
-0.401202 -1.18045 2.88009 88 145 112
-0.255431 -1.16761 2.89635 116 174 156
-0.262923 -1.1535 2.89997 107 162 143
-1.51833 -1.08115 2.74247 155 208 168
-0.0749547 -1.1484 2.91515 162 223 213
-1.50307 -1.0515 2.73803 84 112 69
-0.389977 -1.10766 2.90683 93 153 122
-1.40845 -1.04538 2.82651 112 161 117
-1.37205 -1.04423 2.83899 61 88 68
-1.22904 -1.03981 2.83701 44 66 42
-0.449736 -1.06571 2.91396 148 215 188
-0.453957 -1.05741 2.91493 89 134 107
-1.22895 -1.02263 2.83806 147 222 190
-0.464858 -1.04522 2.91032 55 113 85
-0.367091 -1.03807 2.92441 86 139 119
-0.0231116 -1.03322 2.93903 94 132 120
-0.567247 -1.01491 2.91172 99 155 132
-0.000289628 -1.01869 2.94098 152 223 203
0.0164207 -1.00904 2.93878 93 151 140
-0.6231 -0.999135 2.91554 76 146 115
-1.34248 -0.958456 2.85372 69 127 99
-0.370021 -0.97617 2.9342 85 112 96
-0.673157 -0.960862 2.91254 169 234 209
-0.345065 -0.961156 2.93746 153 231 200
-0.380763 -0.949689 2.93125 79 113 112
-0.978809 -0.920312 2.86034 148 227 194
-0.653352 -0.933204 2.91271 82 108 94
-1.41416 -0.909478 2.85844 109 181 134
-1.41409 -0.909457 2.85942 118 192 144
-0.954754 -0.911645 2.86927 69 118 98
-0.777191 -0.917219 2.88465 116 187 147
-0.26713 -0.934792 2.95105 79 115 98
-0.973897 -0.907102 2.86196 143 225 182
-0.556271 -0.909651 2.88566 105 153 135
-0.0468073 -0.933709 2.96031 82 155 117
0.747328 -0.949858 3.00843 116 163 147
0.959603 -0.953288 3.0228 109 176 144
-0.532396 -0.909501 2.88907 134 216 164
-1.33211 -0.895031 2.86537 66 111 94
-0.502921 -0.902084 2.90135 76 102 78
-0.91802 -0.889107 2.86139 66 103 71
-0.126986 -0.918157 2.95353 116 159 148
0.944464 -0.937323 3.02572 109 188 155
-0.0211854 -0.913685 2.96515 106 168 152
-1.42237 -0.878114 2.86466 55 107 77
-0.62997 -0.881973 2.89278 85 104 89
1.0168 -0.923768 3.02328 89 126 106
-1.42536 -0.869996 2.86316 147 206 178
-0.38887 -0.891179 2.93742 125 182 167
-0.200416 -0.898804 2.96209 144 204 193
0.479844 -0.912036 3.00155 109 184 168
-1.12475 -0.874214 2.89036 106 129 114
-1.42426 -0.851547 2.8697 99 141 134
-1.47409 -0.847083 2.86099 56 114 90
-1.43931 -0.843833 2.87153 91 115 107
-0.562118 -0.847801 2.88733 97 145 116
-0.183611 -0.862548 2.95521 81 112 105
-1.12058 -0.844593 2.90139 54 63 60
-0.563754 -0.838242 2.88883 34 60 36
-1.45827 -0.829139 2.8598 139 209 169
-0.185934 -0.852247 2.95278 145 196 188
-1.21665 -0.829759 2.87175 89 145 124
-0.411172 -0.84983 2.94949 45 59 47
-0.179819 -0.846174 2.96026 137 202 177
-0.258067 -0.824908 2.92412 38 56 43
-1.51142 -0.804087 2.87777 96 145 123
-0.145541 -0.830165 2.96772 90 129 114
1.02896 -0.850216 3.03901 107 168 134
-1.45289 -0.796936 2.8736 92 134 117
-1.37472 -0.794378 2.87569 71 100 91
-0.586708 -0.798798 2.90433 64 121 82
-1.38054 -0.78653 2.87216 112 191 170
1.03204 -0.832824 3.04091 157 221 185
-1.03258 -0.79741 2.91849 68 133 112
-1.51991 -0.787001 2.88424 127 212 167
-0.122691 -0.806663 2.9714 202 245 234
-1.51215 -0.783189 2.88754 86 156 120
-1.50718 -0.772713 2.87746 86 150 120
-1.41673 -0.774526 2.87459 84 107 99
-0.560323 -0.781224 2.90597 152 228 194
-0.156623 -0.800325 2.97392 45 84 62
0.136197 -0.802759 2.99236 114 155 140
-1.46144 -0.766043 2.87785 92 144 127
-1.04915 -0.779308 2.92876 133 185 155
-1.34481 -0.763267 2.88145 107 153 134
-1.23432 -0.765593 2.88602 65 106 85
1.0836 -0.809518 3.0566 81 127 98
-1.40468 -0.757416 2.87207 80 123 90
1.35909 -0.814465 3.07777 117 178 150
-1.53161 -0.743283 2.87094 73 105 86
-1.02085 -0.758854 2.92834 169 234 212
-1.3321 -0.745243 2.88832 70 106 90
-1.38382 -0.740107 2.87709 47 64 51
-1.01216 -0.752561 2.92725 100 151 123
0.211608 -0.772442 3.00299 106 167 153
-1.55398 -0.737852 2.87598 100 149 111
-1.22959 -0.741474 2.89291 92 133 102
-1.0431 -0.752262 2.93259 44 60 43
-1.2499 -0.732148 2.88717 157 239 197
-1.4508 -0.726125 2.87755 79 137 109
-1.43777 -0.726933 2.88226 86 157 124
-1.00249 -0.737823 2.92455 84 136 113
0.245778 -0.759274 3.00707 111 182 162
1.3227 -0.775608 3.08282 119 200 161
-1.2981 -0.719889 2.89972 117 191 167
-1.22899 -0.716976 2.8868 158 219 185
-0.762396 -0.72735 2.92864 85 120 110
-0.308112 -0.734042 2.95479 127 160 139
1.36793 -0.760369 3.08104 114 178 142
-1.43482 -0.695492 2.89012 48 102 79
-1.2812 -0.700754 2.9082 130 198 167
-0.830131 -0.702816 2.91553 144 207 175
-0.140275 -0.720714 2.99275 88 94 89
-1.33167 -0.696057 2.89383 134 211 173
-0.299177 -0.709151 2.96848 102 190 150
-1.24014 -0.687909 2.89599 78 111 90
-1.32967 -0.688818 2.89635 55 112 74
-1.22025 -0.687993 2.90214 145 212 167
-0.0199481 -0.705307 2.99385 97 160 134
-0.804515 -0.691241 2.93512 59 79 67
-0.485381 -0.665269 2.84062 105 150 123
-1.07952 -0.679382 2.92843 58 62 51
-0.834215 -0.679343 2.91748 57 82 62
-1.34254 -0.665771 2.88963 87 141 104
1.00384 -0.708405 3.07169 118 173 154
-1.41347 -0.66219 2.88679 126 196 160
-0.496362 -0.65143 2.83989 29 54 44
0.790163 -0.697584 3.04039 132 190 166
-0.984499 -0.661208 2.9064 111 177 135
-0.885145 -0.662415 2.91369 91 137 114
-0.839074 -0.661354 2.9195 30 39 29
0.657473 -0.687408 3.03884 100 159 139
-1.25402 -0.655338 2.90986 53 76 54
-0.958009 -0.649495 2.89782 124 191 160
1.12099 -0.689229 3.08333 90 120 109
-1.29121 -0.646981 2.88985 138 218 171
-1.07042 -0.652171 2.90933 68 92 62
-0.0229361 -0.667778 3.00592 86 135 107
1.13121 -0.685094 3.08516 60 96 79
-0.157 -0.653516 2.97248 155 234 195
-1.33191 -0.632748 2.89053 86 132 96
-0.743379 -0.643172 2.95186 162 220 209
1.14883 -0.67399 3.07955 90 119 103
-1.01041 -0.630822 2.89313 139 217 163
-0.149653 -0.645911 2.98037 66 88 70
-1.47556 -0.628487 2.89091 125 201 170
-0.879408 -0.631067 2.91259 85 129 98
-0.76736 -0.638328 2.95103 160 201 173
-0.168673 -0.642079 2.98123 141 208 176
-1.4138 -0.623061 2.90275 37 85 67
-1.26551 -0.624163 2.90995 46 71 45
-1.1128 -0.61752 2.90425 170 210 175
-1.36401 -0.616043 2.90351 84 137 97
-0.977495 -0.614756 2.90329 51 55 36
-0.954642 -0.609229 2.88881 114 140 116
-0.126629 -0.629663 2.99181 81 120 105
-0.0272357 -0.631498 3.01375 80 138 110
1.23667 -0.646634 3.09945 115 154 139
-0.832782 -0.60694 2.91797 63 95 60
0.0812953 -0.625531 3.01832 89 146 131
-0.0316468 -0.619903 3.01093 148 225 204
-1.27976 -0.597346 2.90457 157 217 183
-1.14095 -0.595643 2.90468 97 144 106
-1.25814 -0.598748 2.91839 101 180 137
-0.713104 -0.609505 2.97366 56 86 81
0.708007 -0.618786 3.04874 98 176 139
-1.24748 -0.590355 2.91723 103 150 112
-0.7166 -0.601831 2.95888 134 183 175
-0.213092 -0.598881 2.96051 163 211 205
-0.772462 -0.59564 2.96586 132 189 156
-1.27503 -0.581336 2.91693 58 74 51
1.06672 -0.610199 3.07456 79 128 114
-0.0603825 -0.59543 3.01287 163 231 200
-0.708441 -0.57735 2.973 52 66 55
-0.946953 -0.555549 2.88223 97 146 124
-0.0907332 -0.577288 3.01072 161 235 205
-0.712773 -0.566885 2.97377 109 156 147
-1.08417 -0.548832 2.90085 109 164 125
-1.67615 -0.530895 2.89829 123 174 140
-1.24226 -0.525785 2.87933 95 163 116
1.15643 -0.564736 3.09622 93 150 125
-1.02646 -0.52209 2.89115 96 136 111
-0.46496 -0.530171 2.94157 139 184 168
-1.68821 -0.515231 2.89601 149 207 179
-0.97427 -0.511707 2.88546 48 52 41
0.817791 -0.543515 3.06122 162 236 206
0.803339 -0.541295 3.06001 98 146 117
-1.64891 -0.503999 2.91155 53 68 54
-1.07616 -0.496733 2.89537 92 142 118
-0.864999 -0.50293 2.91254 130 167 127
-0.96619 -0.49347 2.88878 141 172 151
-0.950757 -0.495937 2.88929 62 79 65
-0.683732 -0.510554 2.98121 84 102 103
-0.0700885 -0.516885 3.01966 69 115 96
-1.05998 -0.486892 2.89976 166 228 188
-0.997181 -0.48481 2.88848 185 234 218
-0.688766 -0.493376 2.98232 156 199 188
-1.0307 -0.473355 2.89051 80 117 91
0.417756 -0.497626 3.05792 76 145 155
-0.659058 -0.479408 2.99089 75 106 103
-0.663537 -0.471446 2.98491 157 213 200
-0.557202 -0.462533 2.94521 92 119 103
-1.08082 -0.450728 2.90839 45 62 48
0.0219182 -0.464994 3.03694 112 172 154
-1.42189 -0.447512 2.93768 99 140 113
-0.671452 -0.456213 2.99506 161 225 219
0.0965535 -0.459607 3.04361 90 155 139
-0.686729 -0.44886 2.99927 101 148 132
-0.643994 -0.44236 2.99018 169 220 216
-1.04576 -0.42798 2.90185 174 219 203
0.0109076 -0.446094 3.03813 90 150 139
0.599189 -0.453609 3.07014 90 158 133
0.507286 -0.444476 3.06742 152 228 210
0.525502 -0.44482 3.06698 151 235 200
-0.47587 -0.429337 3.0002 153 216 174
-1.0725 -0.413013 2.91938 38 44 39
-0.846921 -0.416293 2.93383 151 193 158
-1.21337 -0.402384 2.85341 91 148 117
-1.45891 -0.408966 2.9524 88 121 106
-0.857426 -0.403735 2.92893 39 54 40
-1.76552 -0.40405 2.94686 129 191 161
-0.0996553 -0.414775 3.02959 84 130 117
0.510136 -0.418226 3.07719 87 176 143
-1.01065 -0.393595 2.89725 107 168 140
-0.509227 -0.404422 3.01424 100 137 121
-0.271787 -0.41273 3.03336 141 223 200
-1.15497 -0.383507 2.85988 116 153 119
-1.44955 -0.390587 2.95082 69 97 91
-1.46573 -0.384738 2.95656 139 205 164
-1.1702 -0.374929 2.86817 114 177 137
-0.878572 -0.381661 2.93074 141 171 142
-1.43147 -0.383471 2.96184 108 188 141
-0.677925 -0.386648 2.99522 72 128 117
-0.278093 -0.391721 3.03841 45 85 67
-0.835367 -0.37582 2.92801 131 166 139
-0.69268 -0.372214 2.99723 135 202 171
-0.217575 -0.366521 3.04849 66 124 89
1.17538 -0.370778 3.11895 98 132 122
1.38826 -0.369909 3.13364 165 212 210
-0.374833 -0.353547 3.03922 105 167 153
-0.219211 -0.353009 3.04028 87 151 116
1.38683 -0.358016 3.13045 96 128 123
-0.95594 -0.330701 2.88795 102 152 120
0.850093 -0.352459 3.09009 91 139 127
1.26697 -0.361155 3.13358 145 196 176
0.886888 -0.351506 3.09487 80 139 118
1.16186 -0.345125 3.1206 115 142 109
0.834957 -0.337273 3.08262 55 112 81
0.891986 -0.330911 3.08505 84 123 97
1.27693 -0.336209 3.12911 129 166 140
-0.630086 -0.312183 3.03729 104 149 133
-0.217317 -0.310563 3.05149 97 164 157
-0.31683 -0.298055 3.0529 76 110 104
0.823085 -0.300591 3.08847 125 190 145
-0.625662 -0.287578 3.04402 84 128 111
-1.66527 -0.282034 2.96287 69 74 53
0.766521 -0.292257 3.08988 121 162 135
1.56303 -0.296405 3.14301 92 167 139
-0.144056 -0.285128 3.05671 77 140 108
-0.328423 -0.283103 3.05471 110 170 152
-0.183931 -0.282506 3.05349 90 168 137
0.685773 -0.287486 3.08205 67 112 86
-0.68626 -0.277037 3.02525 146 206 172
0.0607729 -0.27494 3.05845 118 168 210
1.73015 -0.283718 3.13506 125 197 161
0.0610512 -0.273309 3.06533 122 168 215
0.615496 -0.261858 3.09456 107 159 171
0.649243 -0.261364 3.09873 117 146 153
-0.620843 -0.251833 3.0471 143 217 191
1.45634 -0.261471 3.13579 123 170 161
0.688034 -0.249607 3.08943 97 150 136
0.689885 -0.247711 3.09723 140 176 170
0.599246 -0.242427 3.10057 119 189 172
1.25452 -0.216504 3.13175 104 134 93
0.369341 -0.212172 3.0919 90 156 127
0.303629 -0.208842 3.08865 96 161 145
-0.895561 -0.180281 2.90689 53 78 52
-0.921585 -0.166279 2.91017 64 103 65
-0.667722 -0.171538 3.04733 138 159 186
-0.651437 -0.171865 3.06176 155 194 226
-0.566916 -0.170357 3.06063 121 166 180
0.347525 -0.171963 3.09164 75 149 119
-0.485493 -0.16955 3.06421 107 168 158
-0.560634 -0.158239 3.05738 90 142 135
-0.229585 -0.158734 3.07412 89 148 127
1.42593 -0.15708 3.15063 89 159 119
0.310166 -0.149059 3.10068 93 149 120
0.470381 -0.142845 3.10666 98 152 159
-0.600624 -0.139618 3.05473 91 136 119
0.295308 -0.136511 3.09996 199 250 230
1.35038 -0.141006 3.14325 117 166 134
-0.685678 -0.129395 3.05295 105 124 115
1.36362 -0.133692 3.13576 139 194 177
1.51508 -0.132784 3.14768 123 191 160
1.37744 -0.128562 3.14419 77 113 91
1.76031 -0.126056 3.15544 125 197 174
0.321056 -0.120534 3.10372 124 175 185
1.35629 -0.121019 3.13918 62 78 55
-1.51615 -0.116778 3.0171 98 137 121
-0.625289 -0.114832 3.06008 71 88 74
-0.937779 -0.107953 2.89665 145 205 181
-0.474528 -0.114528 3.07746 143 211 186
1.30151 -0.1147 3.12791 115 159 123
1.40955 -0.110803 3.1426 172 243 203
-0.592202 -0.100889 3.06141 69 110 89
-0.466847 -0.100595 3.07533 43 108 76
-1.00341 -0.0914395 2.88213 159 231 195
-0.922073 -0.0918394 2.89618 130 214 179
0.332281 -0.100524 3.09874 62 122 91
1.37467 -0.0995126 3.14094 168 237 204
-1.01736 -0.087311 2.87527 168 236 201
-0.217009 -0.0906928 3.07475 47 87 59
0.48288 -0.090476 3.10144 75 142 105
-0.940244 -0.0790904 2.90697 143 214 198
-0.599603 -0.0850259 3.06101 48 71 57
1.65478 -0.0883364 3.15366 94 157 125
1.6693 -0.0890399 3.15514 85 151 126
-0.128193 -0.0832702 3.07486 89 163 133
-0.984038 -0.0700818 2.88796 31 93 53
0.379772 -0.0754961 3.10017 189 254 215
-0.464659 -0.0666874 3.07544 90 150 132
1.38449 -0.069013 3.14103 96 170 136
-0.898355 -0.0607897 2.8874 124 200 166
-1.00051 -0.0574122 2.88537 82 120 92
1.56772 -0.061772 3.15226 97 142 115
1.57078 -0.0605335 3.15645 71 112 81
0.370289 -0.0556915 3.10173 145 231 183
1.66859 -0.0581572 3.14785 169 233 191
-0.362634 -0.051821 3.07901 56 120 90
-0.23516 -0.0526053 3.07923 71 124 84
0.226077 -0.0538375 3.10392 83 121 109
0.365393 -0.0447544 3.10598 65 115 85
-0.964446 -0.03917 2.88789 73 135 95
-0.347901 -0.0398898 3.07848 152 235 210
0.28116 -0.0418491 3.10564 70 123 84
-0.531838 -0.0277854 3.07516 86 146 135
1.26389 -0.0276381 3.14095 100 139 101
1.34914 -0.029753 3.14186 137 202 176
0.343292 -0.0212724 3.10467 189 253 218
-0.0016918 -0.0162151 3.09694 105 174 159
0.374309 -0.0161785 3.10217 72 148 107
1.71975 -0.00103131 3.16144 122 181 153
-0.378614 0.00867219 3.08819 102 177 149
-0.965662 0.01165 2.89184 92 129 89
1.29569 0.0142154 3.12701 139 199 151
-0.916183 0.0159539 2.90565 63 105 74
1.39239 0.0214895 3.14687 55 134 95
0.176197 0.0241674 3.10934 108 176 141
0.0696251 0.0354693 3.10555 110 186 162
1.75292 0.0453603 3.1752 96 155 127
-0.165986 0.0504539 3.08926 111 178 146
0.278911 0.0526373 3.10567 61 105 76
1.40122 0.0533041 3.15404 78 145 116
0.87687 0.0554883 2.78405 93 128 114
-0.028204 0.0686747 3.10153 130 199 178
1.33793 0.0671723 3.15839 114 194 159
1.30669 0.0705864 3.15536 126 205 156
0.179466 0.0732376 3.10402 99 173 137
-0.461844 0.0793889 3.10364 251 253 253
1.41946 0.0844278 3.15216 170 236 195
-0.0627458 0.0910562 3.10134 108 170 154
-0.8064 0.094369 3.02431 48 59 43
1.27511 0.102999 3.14842 110 143 106
-0.62258 0.105421 3.09054 88 158 141
0.221827 0.101499 3.10993 89 153 123
0.296106 0.103627 3.11077 77 141 105
1.41493 0.108682 3.15229 87 166 127
-0.0509771 0.115267 3.09793 145 215 174
0.234731 0.122857 3.11898 59 125 90
0.262079 0.121245 3.10967 95 159 117
1.2926 0.123353 3.16045 131 224 179
0.090349 0.129303 3.11797 70 131 111
-0.944351 0.130903 2.91834 63 90 64
-0.108198 0.141957 3.10872 87 140 101
0.234293 0.156493 3.10968 74 139 100
0.355979 0.159344 3.11531 147 231 183
-0.109418 0.160509 3.10364 90 127 107
-0.0759699 0.167558 3.10489 90 150 120
-0.388319 0.168031 3.10423 66 128 98
1.42964 0.173051 3.15332 104 185 146
2.01478 0.172102 3.19241 125 192 171
-0.436371 0.176326 3.10118 104 159 140
-0.282926 0.178281 3.10577 91 156 124
1.21761 0.186266 3.16009 80 136 107
-0.202087 0.193473 3.11386 70 133 117
-0.314606 0.196618 3.11128 90 154 124
0.343961 0.196863 3.11141 162 249 199
-0.39441 0.208083 3.10346 95 169 133
-0.434599 0.216915 3.10875 95 145 127
-0.23204 0.233763 3.11929 96 152 133
-0.336483 0.23639 3.10516 72 131 93
0.0568929 0.240868 3.12364 119 180 160
-0.338077 0.256599 3.10656 80 141 105
0.0486302 0.262389 3.12036 77 136 115
-0.38006 0.262776 3.11361 90 150 116
-0.352209 0.265438 3.11228 73 112 80
-0.332109 0.270629 3.10392 74 130 95
1.54045 0.280658 3.17926 90 155 140
0.0779546 0.281645 3.1394 126 193 172
-0.35485 0.282463 3.12546 134 207 181
-1.32018 0.29404 3.08015 119 191 161
1.23402 0.333387 3.16614 72 124 101
-1.04049 0.322169 3.05262 174 224 194
-0.332697 0.344466 3.12742 99 170 153
-0.873966 0.35662 3.1116 91 149 131
-0.212014 0.358131 3.12366 72 128 109
-0.803861 0.369865 3.10672 76 141 109
-0.788217 0.368772 3.10824 76 134 105
1.38159 0.375727 3.17316 106 184 160
1.35664 0.38031 3.17492 88 158 121
1.23844 0.386499 3.1707 98 162 126
-0.792604 0.381461 3.10155 135 202 175
-0.590124 0.385011 3.11852 57 102 75
-1.05957 0.383569 3.04617 134 160 142
-0.612288 0.393152 3.11078 81 138 107
-0.800271 0.397315 3.10783 61 109 73
-0.360443 0.398113 3.12493 87 139 116
-0.8917 0.401648 3.09633 138 223 178
-0.873539 0.402704 3.1144 79 137 113
-0.311385 0.412747 3.12419 86 172 142
-0.595666 0.409587 3.10859 120 182 142
-0.904316 0.419551 3.10746 159 223 187
1.21995 0.425011 3.16541 120 191 151
-0.876366 0.420017 3.10661 100 147 121
-0.866866 0.421544 3.10753 79 118 92
-0.64071 0.426744 3.11885 68 133 94
-0.535921 0.433737 3.13226 70 130 96
-0.405218 0.433025 3.13189 84 158 124
-0.738656 0.441032 3.11193 46 103 70
-0.942313 0.455285 3.09449 155 217 187
-0.829241 0.454106 3.09687 131 198 161
-0.613411 0.464627 3.09852 144 211 180
-0.296105 0.472517 3.13443 83 154 134
-0.101979 0.470017 3.12314 76 144 121
-1.00423 0.469553 3.09985 131 193 147
-0.306865 0.477569 3.13116 94 168 140
-0.731291 0.475647 3.10929 64 109 83
-0.695907 0.476818 3.09769 55 99 70
-0.219594 0.48008 3.12938 112 178 159
-0.758716 0.48042 3.11294 59 104 77
-0.571687 0.481435 3.12027 123 197 155
-0.852067 0.488146 3.10193 153 221 180
-0.744788 0.488274 3.10338 82 134 111
-0.799293 0.506527 3.11318 69 106 86
-0.137732 0.513807 3.13552 53 102 82
0.152938 0.528419 3.14641 96 161 145
-1.02192 0.528813 3.10827 148 205 174
-0.269798 0.537381 3.12786 141 195 158
-0.745584 0.537217 3.11597 145 224 183
-0.176513 0.54432 3.14063 88 145 124
-0.703699 0.547662 3.1233 53 87 57
-1.00997 0.551034 3.10868 190 248 213
-0.125234 0.55927 3.13705 76 149 123
-0.194529 0.560528 3.13646 94 159 133
-0.735328 0.563071 3.11844 72 107 87
-0.684079 0.563811 3.12563 162 223 189
0.38816 0.566917 3.1476 66 135 125
-0.401614 0.568523 3.12923 85 150 111
-1.53722 0.570228 3.10782 148 226 195
-0.701875 0.583303 3.13509 48 84 70
0.406331 0.587918 3.15633 149 229 194
-0.295141 0.587992 3.13204 93 156 124
1.53501 0.599972 3.17493 103 139 103
1.3529 0.609037 3.17117 87 139 115
-0.757632 0.603852 3.11856 141 219 172
0.422691 0.612035 3.15298 83 159 118
-0.745092 0.606827 3.11254 59 107 71
-0.703612 0.607013 3.1162 157 226 183
-0.661842 0.612814 3.1263 135 224 181
-0.697854 0.617566 3.12399 73 132 101
1.43085 0.641866 3.17708 98 170 128
-0.208155 -1.2418 2.87728 127 168 161
-0.0356247 -1.21792 2.89086 93 136 127
0.0451554 -1.21248 2.89723 161 223 211
-0.36252 -1.15528 2.89737 104 163 148
-1.53732 -1.08739 2.74287 94 120 90
0.537642 -1.1505 2.94458 103 160 145
-1.52359 -1.07076 2.7464 110 146 110
-1.3613 -1.05691 2.83665 113 167 124
-1.17719 -1.0597 2.84105 138 182 153
-1.33862 -1.04641 2.8318 73 117 86
0.66704 -1.09861 2.97079 104 166 150
-0.428174 -1.07036 2.91024 157 239 216
-0.449401 -1.06575 2.9155 156 226 195
-1.53445 -0.999756 2.74729 163 215 168
-1.26231 -1.02931 2.82721 156 225 180
-1.53078 -0.985408 2.74362 67 86 71
-1.16294 -1.01989 2.85596 34 47 33
-0.367023 -1.03813 2.92785 90 145 128
-1.08277 -1.00143 2.83252 180 236 201
1.23684 -1.06567 3.023 86 146 128
-1.33308 -0.997629 2.84338 98 148 138
-1.53532 -0.967832 2.765 73 83 70
-1.18777 -0.993267 2.85113 33 62 47
-0.732011 -1.00963 2.89595 146 207 187
-1.5351 -0.952178 2.77075 158 230 178
-0.384172 -1.00405 2.92963 94 118 100
-0.0468785 -1.01309 2.95333 106 151 134
0.0149918 -1.00972 2.94485 76 139 129
-1.37415 -0.970072 2.84899 50 84 73
-1.45188 -0.976151 2.87404 73 90 86
-0.385328 -0.986403 2.92565 75 105 92
-0.723932 -0.964455 2.89885 117 207 154
-0.486175 -0.956879 2.93125 54 66 44
1.47397 -0.996024 3.04941 110 167 136
-1.22302 -0.919595 2.84323 148 211 169
-0.696055 -0.937177 2.90736 83 123 98
0.978765 -0.976358 3.02113 109 159 141
-1.41598 -0.921094 2.86382 85 127 96
-1.17392 -0.921778 2.8581 43 66 52
-0.927386 -0.923269 2.8736 75 96 87
-0.48289 -0.94146 2.92379 107 138 117
-0.363403 -0.940386 2.93325 142 199 174
-0.906087 -0.918002 2.87477 103 138 124
-0.882253 -0.910639 2.86253 167 230 198
-0.777652 -0.917149 2.88719 125 195 154
-0.68148 -0.928782 2.91828 74 113 97
-0.188244 -0.938355 2.95141 195 240 231
-0.268194 -0.934733 2.95321 78 113 93
-0.477016 -0.923961 2.92487 51 61 49
-0.687376 -0.907781 2.90097 148 209 199
-0.294402 -0.916733 2.93585 159 233 209
-1.67871 -0.869641 2.79983 185 224 192
-1.06727 -0.890171 2.89372 148 224 193
-0.389252 -0.901676 2.92164 55 84 69
-1.10691 -0.884048 2.87662 137 168 159
-1.09065 -0.888288 2.89466 113 156 143
-0.1139 -0.904344 2.95508 85 128 115
-1.4144 -0.87613 2.86179 83 132 104
-0.560473 -0.875381 2.87813 120 185 159
-1.43151 -0.871203 2.86603 152 222 191
-1.05167 -0.879126 2.89803 140 214 190
0.987312 -0.915106 3.02412 84 158 130
1.03853 -0.92043 3.02358 198 255 237
-0.935528 -0.869755 2.87274 155 237 195
-0.276506 -0.896498 2.96464 72 108 91
-1.13477 -0.86718 2.87619 136 190 160
-0.569835 -0.867587 2.87942 83 123 95
-0.229954 -0.885429 2.94352 117 175 140
-0.109366 -0.892079 2.95817 106 140 130
-1.35421 -0.854281 2.86341 122 233 189
-1.02199 -0.859249 2.89489 128 213 181
-0.215196 -0.878338 2.95422 93 126 111
0.890556 -0.893848 3.0233 122 202 171
-0.236543 -0.868288 2.95038 57 74 65
-0.0302064 -0.868978 2.96134 97 127 114
-1.4471 -0.837969 2.86671 67 91 79
-0.185842 -0.869039 2.97376 88 119 112
-0.564487 -0.837998 2.89323 32 76 45
0.863236 -0.881399 3.02881 107 173 154
1.24235 -0.888497 3.05649 129 196 181
0.083919 -0.860084 2.97792 98 177 158
-0.547398 -0.830453 2.8918 47 82 55
-1.40723 -0.824647 2.88196 58 97 72
-1.05449 -0.831762 2.90419 61 130 110
-1.58855 -0.8138 2.86251 47 71 53
-1.10842 -0.82821 2.9058 58 86 73
-1.38955 -0.812919 2.86586 118 180 158
-0.349335 -0.833551 2.93244 69 75 64
-1.43274 -0.802959 2.86131 151 255 208
-0.420519 -0.826707 2.9316 62 94 69
-0.118133 -0.833149 2.96365 97 150 123
-0.301236 -0.819575 2.926 69 78 58
-0.144398 -0.83034 2.96486 115 149 138
0.474155 -0.834393 3.01152 97 151 134
0.510805 -0.835476 3.01583 96 145 129
-0.246157 -0.812365 2.95464 148 214 189
0.147875 -0.822359 2.99049 77 144 115
-1.51984 -0.786985 2.8845 131 217 169
-0.265616 -0.803216 2.94581 54 64 47
-0.12341 -0.806484 2.97405 208 247 239
0.438854 -0.818063 3.01664 85 140 125
-0.106684 -0.802119 2.97216 107 151 144
-1.54088 -0.771678 2.8922 89 143 108
-0.725161 -0.780283 2.91286 158 220 202
-1.49973 -0.769916 2.87736 83 106 92
-0.634791 -0.773765 2.91288 66 98 87
-1.35985 -0.76249 2.8812 130 208 184
-0.844878 -0.76498 2.90504 146 226 183
-1.59851 -0.745614 2.84372 126 200 148
-1.34474 -0.758714 2.88008 95 147 130
-1.40155 -0.74509 2.87397 131 210 169
-1.51276 -0.744245 2.87641 86 117 110
-1.37012 -0.742471 2.87089 129 201 159
-1.30114 -0.743658 2.87419 80 140 116
-0.99079 -0.754607 2.91523 62 101 86
-1.38323 -0.742362 2.87828 48 65 51
-1.55403 -0.737743 2.8773 91 146 107
-1.28817 -0.739856 2.88603 69 122 109
-1.2128 -0.741839 2.89078 131 203 160
-1.605 -0.726242 2.84739 127 217 164
-1.56878 -0.732604 2.87062 62 103 66
-0.0534214 -0.758072 2.98925 91 145 122
-0.249002 -0.750535 2.96596 123 184 170
-0.848047 -0.73332 2.91132 142 198 169
-0.0537157 -0.757974 2.99717 95 146 126
1.26001 -0.773723 3.07482 91 153 141
-1.06346 -0.732629 2.93014 43 46 37
-1.50126 -0.718147 2.883 158 216 188
-1.45939 -0.715024 2.88278 155 232 205
-1.28662 -0.718141 2.89662 77 135 117
-1.55581 -0.713307 2.8894 77 106 81
-0.0537517 -0.736284 2.99015 180 233 220
-1.30912 -0.712605 2.90246 70 87 83
-0.301324 -0.724653 2.95263 72 89 68
-1.02477 -0.709387 2.92975 129 188 168
-1.02488 -0.705527 2.93162 138 196 171
-1.45506 -0.692029 2.89154 70 112 95
-1.00503 -0.696999 2.91873 47 74 65
-0.958421 -0.696656 2.91567 159 242 197
-1.06782 -0.695259 2.92763 36 45 35
-1.67318 -0.674839 2.85152 149 229 186
-1.36597 -0.679685 2.8925 171 236 197
-1.34458 -0.676264 2.89245 89 141 101
-0.902744 -0.679361 2.90656 115 173 145
0.774805 -0.705 3.02526 127 181 158
-0.21529 -0.689806 2.97871 62 88 75
-1.41599 -0.664919 2.89153 101 176 138
0.955362 -0.701434 3.05368 130 195 170
-0.709082 -0.670887 2.94759 171 228 225
-0.746242 -0.664901 2.9375 154 215 205
-1.22035 -0.654137 2.91841 185 216 189
-0.18434 -0.665927 2.97055 186 229 220
-1.38108 -0.64961 2.90936 120 212 169
-0.918435 -0.652183 2.91467 32 39 32
-0.84256 -0.651133 2.91533 118 168 138
-1.45542 -0.641523 2.88669 165 240 202
-1.33416 -0.641479 2.90004 68 126 85
-0.156831 -0.65703 2.96366 162 237 205
1.13072 -0.685306 3.0831 67 96 80
-1.21866 -0.641564 2.9217 63 86 71
-1.01116 -0.63086 2.89274 142 223 168
-0.383009 -0.64671 2.95404 60 78 71
-0.768014 -0.638159 2.95237 154 195 168
-0.148534 -0.644076 2.98428 65 85 72
1.17165 -0.66503 3.07714 75 114 93
-1.27789 -0.625863 2.89946 102 129 109
-1.24545 -0.625333 2.91162 43 52 39
-0.0285236 -0.644572 3.0128 64 92 72
-0.978683 -0.614161 2.90781 67 78 58
-0.891782 -0.611351 2.89625 122 188 153
0.683474 -0.642939 3.04977 104 190 156
-0.833569 -0.606623 2.92032 63 95 60
0.592699 -0.633608 3.0445 79 124 97
-1.18426 -0.604267 2.92076 92 119 103
-0.92002 -0.600005 2.89509 31 36 21
-1.20963 -0.601596 2.92997 44 52 35
-0.889739 -0.598394 2.91482 66 97 64
-0.703097 -0.61196 2.97062 141 175 181
1.23799 -0.641445 3.11137 111 147 135
-1.22848 -0.601118 2.92538 108 141 120
-0.02015 -0.614232 3.02297 117 188 162
0.709113 -0.618284 3.04727 114 191 157
-0.774988 -0.594412 2.96396 114 172 143
-1.10948 -0.580294 2.91436 114 149 123
0.804587 -0.607841 3.05221 79 124 107
-0.837525 -0.573733 2.94448 111 163 126
-0.045477 -0.584106 3.01436 136 212 180
0.888987 -0.586737 3.0676 102 174 144
-1.05485 -0.5544 2.89674 161 238 187
-0.960028 -0.55165 2.8888 200 232 231
-0.836263 -0.559522 2.9353 36 41 32
-0.172055 -0.569827 2.99689 146 225 184
-0.950086 -0.545292 2.87796 197 234 232
-1.62344 -0.548582 2.90793 75 105 80
-0.697697 -0.559535 2.96885 90 130 125
-0.7241 -0.557461 2.97876 60 74 62
-0.574156 -0.548145 2.94487 62 107 88
-0.499598 -0.547208 2.94445 58 92 68
-1.02645 -0.535712 2.89485 182 223 215
0.0339451 -0.556719 3.02609 100 159 139
-0.593553 -0.537058 2.93847 87 145 120
-0.3231 -0.545205 2.9837 143 208 186
-0.479032 -0.535862 2.94018 96 127 120
-0.75165 -0.531177 2.95372 137 193 182
-0.164746 -0.539698 2.99816 47 97 73
-0.00956252 -0.550095 3.02462 87 164 143
-0.855606 -0.518175 2.89861 132 198 156
0.935606 -0.546672 3.0755 122 190 159
0.806245 -0.541182 3.0622 72 120 91
-1.10014 -0.50965 2.88606 117 176 138
-0.944294 -0.500691 2.88885 142 204 158
-0.525802 -0.510152 2.9373 105 131 117
-1.0928 -0.501116 2.88154 76 86 50
-0.862632 -0.503863 2.90713 137 179 138
-0.6843 -0.510116 2.98387 77 95 96
-1.25877 -0.487844 2.86141 56 87 58
-1.05512 -0.495507 2.90866 59 89 70
-0.998191 -0.489514 2.89475 141 197 176
1.07825 -0.526255 3.08959 110 187 159
-0.718701 -0.50513 2.98295 55 75 76
-0.662594 -0.498932 2.97496 175 229 229
-0.630496 -0.497128 2.97601 130 175 179
-0.66834 -0.494756 2.99974 137 179 172
0.357645 -0.499894 3.05625 81 157 133
-0.424438 -0.479691 3.00689 46 70 60
-0.248295 -0.480049 3.03197 57 99 81
-0.678714 -0.468957 2.99691 66 104 92
-0.640903 -0.4696 2.9839 100 147 138
-1.12832 -0.444651 2.87316 133 193 139
-0.191842 -0.462395 3.02852 63 113 95
0.58068 -0.467612 3.07297 101 171 141
-1.44854 -0.442533 2.9484 74 116 98
-1.23728 -0.425312 2.8592 68 107 69
-1.21493 -0.421843 2.85042 117 198 143
-1.08723 -0.429988 2.90663 145 196 168
0.599674 -0.452314 3.07738 94 155 127
-1.05249 -0.418234 2.90449 125 182 157
-1.08766 -0.415415 2.91364 87 119 88
-0.812272 -0.411333 2.93219 101 178 151
-0.679626 -0.422375 2.99017 92 130 130
-0.913459 -0.396978 2.86697 188 225 223
-0.461904 -0.410266 3.00976 89 135 112
-0.693804 -0.408093 3.00459 162 209 201
-1.45003 -0.390284 2.95231 77 108 101
-0.463895 -0.40108 3.01355 54 101 92
-1.02639 -0.381601 2.89285 171 235 199
-0.929038 -0.376502 2.88318 89 131 108
-0.925116 -0.365437 2.88356 138 190 166
-0.286053 -0.387096 3.03928 61 100 75
-0.355811 -0.378777 3.02012 89 125 111
-0.314511 -0.382379 3.04078 91 119 100
-1.49471 -0.359391 2.94729 138 209 169
-1.48353 -0.34881 2.95547 67 95 82
-0.219069 -0.352917 3.04072 86 147 113
0.935819 -0.361714 3.09191 123 169 157
1.26341 -0.362937 3.12484 147 202 183
1.00681 -0.355769 3.11206 147 200 186
1.231 -0.360266 3.1441 169 232 212
1.17964 -0.356917 3.14192 119 151 127
1.39203 -0.346112 3.13322 147 204 189
0.746544 -0.333161 3.09453 109 176 147
0.800591 -0.335999 3.10363 69 94 68
0.8642 -0.333686 3.09293 64 87 59
0.977923 -0.338482 3.10205 117 213 166
-0.836949 -0.315455 2.96443 115 135 106
0.854377 -0.321244 3.08029 135 212 168
-1.45485 -0.308907 2.97732 180 241 213
0.782393 -0.318753 3.082 179 242 226
1.02567 -0.324994 3.10654 107 153 117
0.738152 -0.312375 3.0935 95 156 130
1.3596 -0.318373 3.13484 119 145 127
-0.740169 -0.29048 3.01613 127 178 150
0.621464 -0.286768 3.09378 94 166 136
0.686717 -0.286565 3.08603 64 110 87
0.808421 -0.283381 3.10125 123 164 133
0.0609223 -0.274237 3.06142 123 170 214
-0.271516 -0.268734 3.05896 98 170 157
0.724274 -0.270643 3.09817 128 165 185
0.514706 -0.261799 3.09171 149 212 203
1.45667 -0.260974 3.13601 131 181 171
0.689196 -0.247828 3.09674 135 172 164
0.665434 -0.234494 3.09893 133 161 195
1.44155 -0.236344 3.14911 107 131 119
0.651534 -0.227055 3.10045 98 131 127
1.47317 -0.22943 3.14214 115 154 152
-0.996698 -0.208186 2.89141 145 193 169
-0.729117 -0.220811 3.04362 74 106 82
1.44779 -0.227536 3.14255 143 207 188
-0.914493 -0.207479 2.91175 118 199 160
-0.932491 -0.202769 2.90598 147 217 177
1.25539 -0.216288 3.13264 98 130 89
-0.954377 -0.196965 2.90682 134 210 169
0.23872 -0.203593 3.10124 92 163 153
-0.683083 -0.19784 3.06504 140 194 187
0.297824 -0.200694 3.08233 61 135 99
-0.669663 -0.19103 3.06012 99 113 101
0.283081 -0.180433 3.08934 81 134 107
0.34783 -0.171273 3.09422 72 151 118
1.44074 -0.175395 3.13691 82 123 95
0.448569 -0.169332 3.09839 103 161 136
-1.01323 -0.154283 2.9052 31 67 50
-0.918962 -0.155397 2.91337 53 82 49
-0.523364 -0.167457 3.06012 122 179 164
-0.635811 -0.161162 3.06627 105 145 143
1.43489 -0.164743 3.1482 150 225 187
-0.936346 -0.133798 2.90197 51 73 44
-0.604051 -0.136197 3.06683 91 140 118
-0.753726 -0.126744 3.01157 126 186 145
1.30964 -0.132835 3.14254 115 165 135
1.32547 -0.137906 3.13462 112 142 117
-0.926511 -0.119438 2.89823 94 156 116
-1.49894 -0.114219 3.02513 57 104 78
-0.437209 -0.116823 3.07246 244 255 255
-0.0595968 -0.115807 3.07746 98 170 140
0.445081 -0.116342 3.11252 98 162 120
0.462914 -0.118078 3.09923 76 120 83
1.82432 -0.120733 3.16794 106 149 134
-0.611742 -0.109819 3.06062 140 196 183
0.777246 -0.103503 2.93411 121 143 125
-1.00386 -0.0908569 2.88399 165 233 198
-0.650742 -0.0920304 3.07128 74 100 84
0.436017 -0.0992211 3.09861 73 119 90
1.37551 -0.0994061 3.14133 172 241 208
-0.100569 -0.0886826 3.09886 90 159 139
0.48443 -0.0890396 3.10635 51 128 90
1.65293 -0.0893784 3.15006 96 160 130
-0.962541 -0.0773365 2.88828 155 222 190
0.38744 -0.0845797 3.10026 89 145 110
-1.03617 -0.0697549 2.88628 54 108 73
1.32304 -0.072644 3.12928 91 127 110
-0.559479 -0.0673734 3.07601 95 148 135
-0.646577 -0.0604975 3.08296 62 88 74
-0.97859 -0.0514238 2.88352 50 93 60
-0.452957 -0.0552824 3.07957 64 105 84
0.154508 -0.0520754 3.10474 129 195 184
0.179579 -0.0548498 3.10419 120 175 172
1.29599 -0.0548593 3.14041 77 118 86
1.33729 -0.0560327 3.1469 148 215 186
1.58326 -0.0565708 3.15024 165 242 204
-0.638058 -0.0509807 3.07378 68 114 92
-0.152718 -0.0540912 3.08637 83 131 103
-0.98015 -0.0376847 2.88372 111 192 147
1.49389 -0.0373068 3.13273 116 152 128
-0.78064 -0.0304471 3.00927 127 183 148
-0.718329 -0.0346927 3.00818 62 92 73
1.3182 -0.0361161 3.14392 67 89 65
-1.03082 -0.0326937 2.87954 96 126 101
-0.511581 -0.0307984 3.08399 89 132 121
0.309382 -0.0264289 3.10725 72 146 104
-1.02191 -0.0206604 2.88143 138 220 178
0.201824 -0.0224745 3.09934 96 165 132
1.26953 -0.0253036 3.14209 109 144 104
-1.58297 -0.0192378 3.04654 119 168 160
0.343191 -0.0212777 3.10465 189 253 218
1.3802 -0.00859679 3.14931 81 129 101
1.4168 -0.0115829 3.15068 88 139 125
-0.629519 0.000489199 3.07881 65 100 74
-0.749133 0.00243019 3.02238 97 129 104
0.279378 0.00823692 3.10353 83 111 82
0.673502 0.0101933 2.86244 46 65 56
1.24139 0.00887127 3.13643 102 127 93
-1.50497 0.017171 3.05871 100 142 131
0.259448 0.0165947 3.10894 170 230 200
-0.654029 0.0230503 3.07705 70 106 90
1.72511 0.0306891 3.16176 120 176 141
0.288511 0.0357252 3.11866 64 124 90
1.36195 0.0337126 3.15276 80 106 90
-0.976401 0.0384367 2.88179 121 197 163
1.75711 0.0475606 3.1819 113 179 154
0.185633 0.0506925 3.10773 162 248 218
1.56182 0.0507225 3.15837 107 170 138
-1.42557 0.0544755 3.03433 80 112 95
1.58527 0.0653372 3.15129 143 227 185
0.137395 0.0662624 3.10868 83 142 111
1.30603 0.0692469 3.15196 122 200 153
-0.461095 0.0809503 3.09873 255 253 253
-0.00517442 0.0841031 3.1128 116 177 163
1.67327 0.0797309 3.14791 165 252 194
-0.0623277 0.0920629 3.10314 102 161 141
0.565097 0.0858124 2.88971 127 196 175
1.70667 0.0922436 3.16113 80 121 90
-0.7551 0.0968028 3.03999 145 180 154
-0.0576608 0.107923 3.08317 99 156 123
1.44842 0.113116 3.15608 117 178 158
-0.0593579 0.116524 3.10708 73 109 87
0.284009 0.119106 3.1201 168 220 202
-0.778705 0.119228 3.03746 71 102 75
-0.67138 0.118873 3.09113 150 218 193
1.29223 0.123206 3.16003 128 219 174
-0.195044 0.127694 3.10817 90 133 112
0.156145 0.126679 3.11367 75 136 110
-0.0729012 0.128234 3.09754 201 255 228
0.255655 0.13098 3.11227 175 252 208
-0.946025 0.133247 2.9244 49 83 53
0.363768 0.139487 3.1104 26 50 26
-0.107249 0.142062 3.10903 99 151 114
0.100803 0.145773 3.11096 96 158 140
-0.0613583 0.148049 3.09785 49 110 76
0.31809 0.156991 3.12135 129 204 158
-0.108414 0.162992 3.10751 81 125 102
-0.0759947 0.169778 3.1108 87 146 118
1.29655 0.170769 3.17202 153 252 204
1.2737 0.175619 3.16812 81 125 88
1.43365 0.176589 3.16283 95 164 131
0.292975 0.18112 3.12074 135 201 176
1.299 0.182771 3.15488 74 151 100
1.76279 0.182748 3.17977 93 160 145
-0.066145 0.183382 3.11018 165 239 221
1.28634 0.186499 3.16096 78 156 109
-0.406285 0.201458 3.10464 110 168 127
1.37662 0.211006 3.16251 94 171 127
1.44981 0.215912 3.16165 117 208 163
-0.413888 0.225187 3.10749 102 151 123
-0.27377 0.234031 3.11084 77 112 85
0.0567931 0.241508 3.12525 83 145 129
1.27487 0.265294 3.17292 107 177 146
-0.379999 0.263428 3.11522 81 139 104
-0.169986 0.266836 3.11793 77 129 105
-0.329561 0.27445 3.10873 97 147 115
-0.16115 0.273007 3.10927 72 129 108
-1.28655 0.280488 3.07752 79 109 84
-0.365362 0.281407 3.12527 83 153 113
1.22458 0.315056 3.17057 89 135 123
-1.043 0.32701 3.05584 160 215 182
-0.581313 0.360874 3.11535 116 190 162
-0.434422 0.365158 3.1196 79 129 97
-0.783926 0.367872 3.10116 86 139 112
-0.585843 0.385394 3.11585 79 125 102
-0.612334 0.393841 3.11232 69 127 92
-0.596666 0.393179 3.11613 150 209 171
-0.872219 0.399667 3.10764 84 141 116
-0.763557 0.401958 3.10917 156 226 190
-0.575993 0.40123 3.12286 140 211 171
-0.646639 0.410682 3.11991 48 99 65
-0.594118 0.409646 3.10957 135 198 159
-0.569735 0.409676 3.12284 77 115 93
-0.670507 0.413743 3.11157 80 139 108
-0.873533 0.425457 3.11146 41 78 46
-0.550538 0.431448 3.12233 56 82 58
-0.1235 0.435697 3.13604 109 190 165
-0.717418 0.439777 3.11471 42 73 52
-0.561469 0.438653 3.11661 98 166 119
-0.531679 0.44803 3.13375 135 219 194
-0.69471 0.444158 3.1042 51 92 64
-0.735151 0.450755 3.10717 151 224 184
-0.361956 0.452284 3.12494 109 179 156
-0.829561 0.454978 3.09451 117 184 147
-0.529617 0.460489 3.13034 57 92 65
-1.5135 0.462917 3.12221 47 118 91
-0.967659 0.454505 3.07798 160 226 191
-0.909556 0.468636 3.09865 41 86 67
-0.750853 0.47331 3.10559 78 118 93
-0.731826 0.478596 3.11552 44 99 74
-0.662124 0.474865 3.11078 163 235 192
1.49299 0.487109 3.18692 108 187 148
-0.930358 0.475471 3.09294 163 228 207
-0.328413 0.49193 3.13811 95 168 146
-0.10773 0.500685 3.1429 88 155 123
-0.940983 0.499645 3.0901 108 179 139
-0.328092 0.502423 3.13836 100 155 138
-0.614829 0.505263 3.10937 38 96 55
-0.992265 0.510828 3.10343 68 117 109
-0.579933 0.515512 3.12943 159 222 206
-0.653959 0.515296 3.10918 176 239 199
-0.256461 0.518881 3.13372 81 148 117
0.0428055 0.526033 3.15172 80 153 137
0.293565 0.534618 3.15678 100 175 159
1.47411 0.53876 3.18124 105 180 142
-1.00822 0.531344 3.10537 62 115 88
1.19318 0.541019 3.16459 98 166 143
-0.718104 0.543087 3.10838 188 249 215
-0.272189 0.546738 3.13377 90 154 119
-0.84541 0.556179 3.11377 123 173 149
1.38475 0.572347 3.16963 148 210 170
-0.736219 0.562925 3.11814 50 76 58
0.437213 0.571972 3.16141 76 127 100
1.96817 0.596352 3.19967 97 167 127
0.409435 0.596046 3.155 65 131 102
1.38573 0.599523 3.16376 82 116 85
-0.695952 0.599446 3.13445 62 102 74
1.52441 0.608175 3.18503 151 217 175
-1.26384 -1.16214 2.80635 58 87 78
-0.370112 -1.19271 2.88 78 127 95
-1.31144 -1.15548 2.80148 89 122 115
1.23537 -1.20789 2.97349 129 200 184
-1.55274 -1.09332 2.73899 74 102 72
-0.301245 -1.15613 2.89729 111 169 145
-1.57536 -1.06666 2.74437 78 103 83
-1.2879 -1.10355 2.83404 51 79 60
-1.49827 -1.04794 2.74175 61 76 48
-1.22742 -1.08218 2.82415 96 148 118
-1.19364 -1.08128 2.84604 165 235 198
-0.436928 -1.09956 2.89593 66 95 70
-0.387151 -1.06784 2.91307 73 125 107
-1.22508 -1.02112 2.82496 111 192 153
-1.58188 -0.988574 2.75267 175 226 192
-1.08262 -1.01872 2.83104 78 131 117
-0.0351803 -1.03912 2.9201 105 159 136
-0.401926 -1.00624 2.92981 156 211 194
-0.559384 -0.985005 2.90913 108 156 127
-0.572534 -0.964379 2.90649 151 216 191
-0.499559 -0.971725 2.9303 70 83 61
-1.46818 -0.941815 2.86256 58 80 68
-1.44688 -0.947295 2.87598 82 105 97
-0.40078 -0.958494 2.91558 66 105 79
-1.37479 -0.936636 2.8568 59 107 81
-1.13435 -0.935973 2.87965 100 156 137
-0.955883 -0.930721 2.86304 162 232 196
-0.630559 -0.950686 2.90675 66 96 77
-1.41774 -0.920765 2.86005 57 76 51
-0.924148 -0.92151 2.87369 34 55 46
-0.482932 -0.925469 2.92133 51 57 46
-1.42484 -0.904686 2.8685 50 88 58
-1.23725 -0.90216 2.85572 138 222 174
-0.940268 -0.902309 2.86405 87 123 101
-0.0501222 -0.933998 2.96 101 169 138
-0.188375 -0.910999 2.93487 100 161 135
0.755664 -0.939167 3.01064 136 206 183
-1.02182 -0.887775 2.8705 73 127 110
-0.341437 -0.909866 2.95427 156 224 193
-0.226474 -0.913482 2.95382 151 209 204
-0.0713362 -0.914561 2.9592 101 143 125
-1.09985 -0.874454 2.89268 53 60 55
-1.42332 -0.867778 2.87145 84 101 92
-0.201103 -0.889249 2.96122 143 207 195
-0.941726 -0.857465 2.87894 95 148 121
-0.565323 -0.856277 2.88936 40 61 39
-0.737388 -0.855085 2.8928 143 217 193
-0.235705 -0.868297 2.95039 58 75 66
-1.10355 -0.846369 2.90201 165 212 210
-0.195919 -0.855996 2.94764 86 113 104
0.861988 -0.881377 3.02912 120 190 167
-0.546082 -0.834868 2.88688 49 68 43
-1.46442 -0.810758 2.8674 46 87 59
-0.287912 -0.813976 2.93423 114 153 127
-1.10453 -0.809011 2.90758 150 195 178
-0.245399 -0.811437 2.94645 144 207 181
-0.109628 -0.817164 2.97092 93 127 110
-1.39556 -0.779685 2.88052 55 94 62
0.433627 -0.817495 3.01382 85 126 118
-1.5037 -0.769332 2.88464 70 100 81
-1.53956 -0.763786 2.87723 130 211 166
-1.04602 -0.779729 2.93074 138 211 173
-1.38549 -0.759682 2.85925 62 84 56
-0.902685 -0.768959 2.91275 64 102 80
1.08216 -0.809434 3.06653 93 141 115
