ply
format ascii 1.0
element vertex 851
property float x
property float y
property float z
property uchar blue
property uchar green
property uchar red
end_header
0.945897 0.742039 4.25315 131 155 153
1.20755 -1.46409 4.13525 158 174 191
0.0417304 0.00290115 4.01901 168 222 179
-0.544833 0.454383 4.14844 103 152 136
-0.442976 0.457402 4.15782 65 94 79
1.33012 0.487299 4.16331 166 211 185
1.0572 0.651596 4.22498 85 112 103
0.99581 0.866626 4.24536 188 227 202
0.42071 1.00236 4.35417 121 155 184
0.791978 -1.75831 4.20377 165 176 196
-1.63027 -1.58949 4.50013 123 157 156
-0.3662 -1.38607 3.98613 136 190 155
1.5238 -1.16584 4.06091 114 142 142
1.2762 -1.16996 4.11635 135 160 162
-1.16962 -1.11859 4.0022 188 229 198
0.313985 -0.958299 3.88615 83 97 79
1.35541 -0.967051 4.10553 121 157 151
-0.508597 -0.943147 4.11582 147 194 168
0.145492 -0.809436 4.06648 107 130 116
-1.65291 -0.844154 4.2607 109 165 136
-1.5602 -0.831536 4.27912 100 146 127
-2.04262 -0.851228 4.50847 137 186 172
1.27904 -0.684451 3.92055 155 210 171
1.02496 -0.677942 3.89997 151 180 171
2.14459 -0.697976 4.01243 173 191 190
1.27352 -0.665599 3.9403 154 215 189
1.1485 -0.614114 3.91499 93 122 107
1.1711 -0.609921 3.91058 175 234 206
1.2208 -0.600239 3.90784 84 113 88
1.18873 -0.600837 3.9151 91 130 109
1.20858 -0.597479 3.90856 129 173 144
1.16899 -0.522935 3.88237 80 115 89
1.1253 -0.519435 3.89068 95 131 107
-1.85579 -0.595307 4.48269 148 223 191
1.106 -0.511799 3.8971 181 228 195
-1.5501 -0.482872 4.22814 152 168 157
0.106797 -0.457604 4.00543 54 98 85
-1.94012 -0.502244 4.47241 138 200 178
-1.57708 -0.47588 4.24889 159 169 163
-0.191345 -0.432622 4.01627 91 130 114
0.180831 -0.426851 3.97058 177 231 202
-0.201516 -0.414625 4.02868 85 139 126
-1.98261 -0.440471 4.48292 107 143 113
-0.00762899 -0.387545 3.9984 47 56 46
-0.0832501 -0.326974 3.98851 94 122 103
-0.377182 -0.283896 4.08268 99 119 114
-1.74262 -0.273638 4.25206 171 219 195
2.54104 -0.257076 3.99283 131 153 151
-0.403048 -0.249271 4.0911 50 70 57
1.49544 -0.155727 3.98155 148 194 171
0.140936 -0.105975 3.96091 172 235 215
-2.25242 -0.0988006 4.12466 114 140 127
1.76 0.0295268 4.08591 110 143 129
-1.21346 0.0908933 3.99649 112 153 122
1.43557 0.220334 4.15941 116 174 169
0.0310308 0.216726 4.02984 143 212 185
1.34873 0.284226 4.17171 111 143 172
0.136964 0.330109 4.04418 152 191 169
1.47163 0.377428 4.15685 119 173 168
0.250826 0.371091 4.07102 106 135 112
0.268397 0.391133 4.06895 81 109 86
0.198421 0.39277 4.04426 103 150 128
0.113766 0.412598 4.05397 95 141 118
0.29235 0.463225 4.04378 170 205 179
1.33075 0.487811 4.16474 180 225 199
-0.591183 0.550054 4.21904 117 174 149
0.278885 0.612806 4.05631 77 106 91
0.348503 0.637646 4.0245 73 102 79
0.809065 0.725594 4.26708 156 225 205
1.45248 0.719948 4.19918 193 224 223
1.09271 0.759657 4.22494 166 183 180
1.0209 0.824579 4.23287 128 134 133
0.531119 0.898755 4.32989 112 161 147
-0.656444 0.880059 4.18834 74 117 102
0.649553 0.907481 4.31188 127 149 147
1.17121 0.889991 4.22514 146 160 159
1.20518 0.923491 4.25051 141 162 170
0.618342 0.959438 4.32087 133 182 166
0.464761 1.0557 4.35317 121 161 159
0.338174 1.07367 4.38003 89 125 113
0.356387 1.08292 4.36308 142 199 184
0.334708 1.11882 4.38281 84 120 108
-0.229368 1.23207 4.43739 157 219 195
0.317215 1.27314 4.4093 111 138 134
-0.0116506 1.31785 4.46126 113 167 154
-1.97206 -1.82932 4.32134 162 231 198
-1.93779 -1.7215 4.31477 114 138 130
0.431879 -1.64247 4.22686 140 156 173
0.798699 -1.61402 4.17645 148 164 170
-0.537713 -1.5673 4.08497 154 205 185
0.558446 -1.60345 4.20275 150 176 182
0.916515 -1.58043 4.14396 148 176 177
0.502499 -1.57946 4.21483 127 141 163
0.477362 -1.5495 4.22433 190 212 218
-0.698225 -1.50279 4.12003 126 172 160
-0.454683 -1.33862 3.93518 122 164 129
1.41693 -1.38053 4.07608 146 152 159
0.662105 -1.30334 3.95582 159 209 191
0.705771 -1.25544 3.93301 73 77 66
0.128431 -1.17473 4.04211 62 90 84
1.44686 -1.15193 4.05755 126 172 166
-2.52087 -1.26526 4.60673 126 147 144
0.226238 -1.09966 4.00752 44 64 45
1.34983 -1.05336 4.10195 145 170 172
0.31439 -0.95832 3.88447 83 97 79
2.14249 -0.970336 4.01568 205 236 233
1.25698 -0.963222 4.10606 135 155 156
0.439864 -0.886635 3.87246 128 173 147
-0.489213 -0.9337 4.10108 129 183 166
1.86024 -0.912899 4.04481 153 174 171
-0.407946 -0.916188 4.08045 191 233 222
-2.70665 -0.982488 4.57978 190 214 214
-2.14509 -0.968696 4.53922 149 192 195
-0.522273 -0.842449 4.11395 144 192 163
-2.07487 -0.917269 4.53207 152 174 185
-1.63372 -0.858671 4.27192 134 187 167
2.08441 -0.792677 4.01826 193 231 225
2.11556 -0.7904 4.02738 108 116 106
-2.05091 -0.876475 4.52977 124 168 161
1.78472 -0.745002 4.04809 115 137 135
2.13995 -0.698776 4.00183 149 163 161
0.732886 -0.631477 3.82417 163 231 184
-0.503745 -0.663918 4.04396 149 216 189
1.43559 -0.605657 3.94353 129 166 150
1.00133 -0.574347 3.87588 90 111 86
-0.451503 -0.590026 3.99932 193 255 231
-0.507172 -0.576584 4.01438 182 250 225
1.12064 -0.553116 3.90237 50 78 65
0.0630264 -0.56499 3.9811 163 213 189
-2.07544 -0.613321 4.52737 107 155 149
1.74963 -0.520888 4.0461 132 154 166
0.16539 -0.484761 3.9777 62 97 71
-0.281096 -0.448953 4.04239 200 249 229
-2.03928 -0.486807 4.47868 79 101 76
-1.52082 -0.457654 4.24665 151 146 131
2.26177 -0.393784 4.02059 84 98 80
0.0743914 -0.389018 3.97999 94 111 97
1.84255 -0.382113 4.03108 108 138 133
1.99771 -0.366668 4.0275 135 164 149
-1.87843 -0.344374 4.39141 110 119 109
1.51162 -0.251779 3.97798 107 147 135
-0.155819 -0.246792 4.00114 151 216 200
0.118723 -0.234918 3.99038 115 158 137
-1.85998 -0.199009 4.25365 150 175 161
-1.86097 -0.197572 4.26135 124 152 139
1.94985 -0.149114 4.08132 148 164 180
-0.774595 -0.0424767 4.14489 164 212 200
-1.96538 -0.0358524 4.24434 142 174 157
-0.830178 0.00951874 4.18277 108 140 121
1.66629 0.0328941 4.1049 146 183 181
1.783 0.0463684 4.06745 132 185 171
1.89529 0.0606165 4.06518 160 176 193
0.191609 0.0843938 3.97661 144 193 161
-0.0322336 0.0885952 4.02698 163 199 177
-0.00301103 0.233495 4.03519 156 235 221
-0.323937 0.250171 4.12663 78 113 99
-0.139064 0.312461 4.08048 137 195 167
1.35064 0.338099 4.16543 94 116 111
0.229906 0.360711 4.08567 57 76 57
2.08527 0.361371 4.10338 118 151 147
0.0745478 0.359714 4.01925 98 132 115
1.23712 0.378437 4.19445 126 158 187
0.407738 0.416112 4.05379 165 229 199
0.126188 0.423093 4.05119 138 205 176
0.128948 0.439476 4.05159 105 132 116
0.697177 0.463214 4.04933 81 116 89
1.31622 0.500103 4.17025 184 226 195
-0.693946 0.531064 4.25866 146 197 177
0.108828 0.513639 4.06853 65 113 95
-0.61005 0.534638 4.21472 93 167 131
1.41101 0.542343 4.20369 195 221 215
1.67309 0.540722 4.17026 162 196 195
1.74393 0.574261 4.1492 218 243 239
1.35901 0.58403 4.18091 86 83 75
0.2845 0.586844 4.05494 65 81 64
1.24629 0.617224 4.20851 129 151 139
1.44856 0.62046 4.19019 116 130 126
0.84396 0.648093 4.26599 106 149 138
-2.53514 0.713776 4.64099 62 120 92
0.279875 0.622566 4.06603 90 124 114
0.239674 0.638284 4.09585 94 150 127
1.49083 0.662013 4.19433 190 223 226
0.207727 0.684659 4.10541 107 158 138
0.855735 0.724071 4.26014 191 249 224
1.22051 0.724841 4.22312 99 131 130
0.826868 0.740902 4.24545 170 234 205
0.935813 0.744134 4.25015 113 128 130
0.939091 0.742517 4.24618 145 166 167
0.7291 0.77301 4.29991 181 213 249
0.834509 0.772927 4.25573 168 199 192
0.774931 0.776317 4.26718 127 155 142
1.52783 0.767323 4.20875 113 158 149
0.0757951 0.767562 4.09955 72 120 96
0.703741 0.814374 4.31893 75 88 86
1.05531 0.794437 4.23405 123 136 134
0.753943 0.818521 4.2455 179 211 194
2.14356 0.810582 4.16698 181 213 208
0.72601 0.84419 4.29447 103 134 127
0.641964 0.850687 4.30884 85 102 99
0.63793 0.87003 4.32222 146 204 186
0.644932 0.88551 4.31101 111 160 146
0.585873 0.890099 4.31591 87 121 134
2.09481 0.874735 4.17817 155 189 178
0.468387 0.927252 4.33681 111 157 145
1.9957 0.895576 4.1819 112 138 125
0.502897 0.938329 4.3534 179 223 230
0.593877 0.933742 4.3204 111 134 126
0.639519 0.935684 4.32023 134 178 172
1.81527 0.91703 4.19648 157 179 177
0.669325 0.961078 4.32237 99 129 116
0.694266 0.97813 4.31653 88 94 89
0.806041 0.973948 4.28853 143 173 168
-0.538213 0.961581 4.21661 155 222 193
0.766211 0.980926 4.31096 153 205 182
0.695535 0.983834 4.29679 95 115 116
0.986445 0.995225 4.28324 173 198 202
1.93804 1.00565 4.18847 103 126 122
0.365675 1.09597 4.36667 93 132 124
0.683248 1.08572 4.2914 90 123 109
0.312046 1.1154 4.39361 159 205 183
0.555614 1.1069 4.32658 134 157 152
0.391024 1.12146 4.34517 158 210 200
1.97209 1.11655 4.22183 131 165 148
0.211237 1.17219 4.39754 101 118 115
0.404539 1.17432 4.3671 196 233 229
1.92663 1.15101 4.25757 96 110 104
1.87068 1.17997 4.23929 171 206 210
0.552059 1.22317 4.3453 163 219 190
0.352331 1.26301 4.39108 98 145 136
0.0855149 1.29645 4.44747 92 136 130
0.324991 1.28303 4.4006 115 151 145
-1.15832 -1.83793 4.42019 68 94 76
1.10799 -1.6807 4.15798 116 126 136
0.627924 -1.69991 4.22396 180 204 216
0.832833 -1.68908 4.2036 160 186 192
0.682489 -1.67635 4.19063 221 237 243
1.38362 -1.64214 4.1124 150 176 188
-1.31992 -1.75076 4.43104 169 194 204
0.679334 -1.65615 4.20119 143 162 175
-1.09076 -1.71315 4.37614 123 157 150
-0.807894 -1.6011 4.11672 168 232 210
-0.666041 -1.55919 4.08946 172 241 208
-1.38754 -1.68482 4.43672 202 227 223
0.666582 -1.5876 4.18177 128 144 151
0.497401 -1.59458 4.2115 232 246 252
1.55994 -1.53021 4.08826 117 177 166
-1.8777 -1.59415 4.30349 110 146 124
0.550431 -1.55408 4.22633 169 180 184
0.476689 -1.54958 4.225 194 216 222
1.21139 -1.46756 4.13941 154 173 188
1.41842 -1.38081 4.07904 146 152 159
1.03953 -1.3876 4.11251 114 162 156
0.680217 -1.32216 3.93878 83 97 93
1.40167 -1.37294 4.10662 217 243 237
2.50707 -1.26098 3.98035 148 185 183
1.38795 -1.27861 4.08447 159 200 215
1.60408 -1.25477 4.05862 97 106 103
0.545422 -1.19829 3.97815 84 98 87
1.58378 -1.2153 4.06609 133 171 171
-0.395879 -1.17687 4.03441 66 83 74
1.52104 -1.16462 4.05877 116 144 144
0.556734 -1.10686 3.96574 174 219 193
1.60556 -1.1265 4.05794 92 109 96
-2.4724 -1.25045 4.58109 220 237 240
1.61058 -1.10799 4.06219 164 191 187
1.46703 -1.09184 4.07025 116 168 158
1.26242 -1.07307 4.08957 114 159 133
-2.72567 -1.14435 4.58394 119 123 124
1.50943 -0.997256 4.06989 207 240 226
1.47861 -0.992971 4.06091 76 116 98
0.416493 -0.911405 3.89684 72 99 56
1.59832 -0.922812 3.9621 105 144 123
0.442397 -0.886415 3.8803 125 172 146
-2.15343 -0.967603 4.55385 155 198 201
1.83981 -0.825503 4.02137 154 187 183
-1.41718 -0.859838 4.25697 132 168 154
-1.59013 -0.860981 4.27871 160 207 199
0.107353 -0.811983 4.04413 62 72 66
-1.5663 -0.8576 4.28732 78 104 88
-1.60313 -0.847628 4.26027 79 106 90
-1.57743 -0.818274 4.25426 104 121 110
-1.63695 -0.815221 4.25895 149 189 171
-2.329 -0.840137 4.54975 150 163 179
-2.37641 -0.824357 4.57434 129 141 135
-0.534764 -0.723106 4.0749 116 167 147
0.695889 -0.672033 3.82443 165 216 182
0.993615 -0.688362 3.9136 117 135 134
1.00656 -0.669377 3.90683 191 217 211
-0.526691 -0.689017 4.08135 137 188 168
1.27647 -0.661816 3.92427 170 243 203
-1.99136 -0.743772 4.48021 112 169 148
-0.50375 -0.663693 4.04669 149 216 189
2.12684 -0.656548 3.99523 187 218 217
1.15315 -0.636786 3.9081 57 68 60
0.26577 -0.649927 4.04488 158 212 175
1.01985 -0.631566 3.92118 75 86 78
1.76146 -0.642894 4.04344 127 154 151
0.926593 -0.604408 3.86652 95 118 110
1.20598 -0.601827 3.91958 136 189 162
1.21906 -0.593136 3.90835 46 62 51
0.879955 -0.580699 3.84704 95 132 112
1.29959 -0.589338 3.89237 141 208 179
-0.523066 -0.600467 3.99934 60 93 79
0.249838 -0.59583 4.03883 104 151 118
-0.477062 -0.584934 4.01711 83 114 99
-0.494153 -0.580299 4.0291 172 242 206
-0.481605 -0.582624 4.03937 72 108 91
0.0791972 -0.566401 3.97078 70 107 81
0.158347 -0.525796 3.96681 90 129 114
1.506 -0.515496 3.9617 157 213 192
-1.80723 -0.540853 4.39134 154 181 171
-0.26424 -0.49168 4.03017 191 246 227
1.10361 -0.468981 3.87482 92 114 86
-1.88167 -0.50287 4.47332 108 130 105
-1.53377 -0.479092 4.25279 192 205 191
-0.103563 -0.416136 4.00768 173 240 211
0.0849442 -0.414156 4.00035 82 121 106
-1.77207 -0.439626 4.37547 80 92 80
1.8785 -0.404192 4.06546 100 124 116
-0.223417 -0.389697 4.01857 178 252 226
-0.666742 -0.39661 4.15533 96 125 100
2.00343 -0.365129 4.03729 132 155 140
-0.217359 -0.350959 4.05682 163 233 202
-0.400404 -0.346935 4.04915 172 220 192
2.3319 -0.346894 4.02365 119 165 143
-0.0371208 -0.33144 3.9392 141 201 170
-0.269122 -0.338076 4.07225 72 102 91
-0.19826 -0.338481 4.06008 60 79 62
-0.102455 -0.322504 3.97983 162 218 197
-1.71895 -0.339427 4.28537 118 145 135
-1.38637 -0.331048 4.22695 77 79 57
-0.0744589 -0.316222 3.97425 148 186 168
-0.078814 -0.297936 3.96894 61 90 74
-0.053179 -0.293131 3.95533 151 228 190
-0.248476 -0.29688 4.07604 82 117 103
-0.280314 -0.293575 4.0896 88 116 110
-0.123835 -0.281294 3.99723 89 116 100
-0.0686258 -0.28192 3.97729 60 89 74
-1.83586 -0.221762 4.25992 71 84 68
1.8759 -0.21057 4.06966 154 183 222
-2.24739 -0.145645 4.11555 186 222 205
1.48616 -0.148136 3.98411 73 129 110
0.101709 -0.119964 3.96775 183 224 197
0.101115 -0.114922 3.99047 167 214 192
-0.762302 -0.108836 4.18731 125 132 129
0.109165 -0.089107 3.96419 140 200 176
0.144695 -0.0844966 3.98829 73 105 94
-0.301685 -0.0682586 4.00215 186 223 213
-0.738776 -0.0461435 4.14504 55 62 47
1.8719 -0.0324403 4.06684 118 131 129
1.79283 -0.0165069 4.04086 137 151 149
-1.84896 0.00353427 4.23627 98 116 109
-1.201 0.00276489 4.04444 171 220 192
0.0101921 0.00354099 4.02043 94 141 125
1.69688 0.0228023 4.11957 87 112 98
1.89645 0.03328 4.0602 141 167 167
1.18478 0.0342229 4.02995 88 120 101
1.6872 0.0712804 4.09703 178 219 211
-0.122809 0.082999 4.04197 46 57 47
-1.23047 0.0945592 4.0004 164 205 173
2.16457 0.0822532 3.64797 65 109 86
1.87973 0.099173 4.04563 137 168 161
1.6978 0.127386 4.09375 110 148 142
1.84933 0.160505 4.09473 207 226 233
-0.392396 0.164813 4.08178 80 112 101
0.0325202 0.160744 4.01365 72 93 78
1.83582 0.175683 4.08891 171 205 198
0.0358421 0.209304 4.03507 121 183 161
-0.0370738 0.249035 4.02678 112 190 166
1.41601 0.268463 4.16003 110 161 147
-0.264647 0.316533 4.08805 181 222 195
1.35085 0.336669 4.16525 99 122 114
-0.181962 0.345324 4.1076 105 162 137
1.31515 0.344289 4.17908 95 120 110
0.119968 0.340142 4.03891 159 208 186
0.184372 0.360718 4.03934 162 211 191
0.0749297 0.360618 4.02192 89 132 111
1.23095 0.372477 4.17192 179 207 241
0.0339521 0.371989 4.03105 98 133 113
1.25975 0.382878 4.17985 107 129 134
0.0619632 0.392739 4.03955 70 116 97
-0.302658 0.419075 4.10539 155 211 190
0.124832 0.429137 4.06805 145 209 180
0.192703 0.44628 4.06305 32 49 38
0.284075 0.455198 4.02635 123 179 156
0.362778 0.454365 4.0501 76 102 84
-2.50654 0.524603 4.62696 89 151 129
0.601792 0.474081 4.11577 47 58 48
-0.598656 0.496677 4.20388 63 99 83
1.14196 0.497602 4.21291 142 185 174
0.284951 0.484354 4.06028 69 84 70
0.0102177 0.496072 4.04742 88 116 93
-0.562698 0.532907 4.20052 187 226 200
1.38227 0.53467 4.185 98 99 89
1.05395 0.559807 4.22332 104 134 121
1.40965 0.55156 4.19253 117 119 120
0.605359 0.550776 4.1317 155 206 172
1.25348 0.562275 4.19718 127 147 124
1.64906 0.564822 4.15641 140 171 172
1.3603 0.585124 4.18379 86 83 75
-0.573758 0.584326 4.17775 76 92 68
0.992051 0.600832 4.24451 111 170 156
1.29422 0.588586 4.19359 97 99 79
-0.462387 0.613854 4.1839 103 138 118
0.0323063 0.624762 4.07235 150 176 162
1.28681 0.672696 4.21102 171 215 202
1.4366 0.674446 4.2105 164 205 200
0.282204 0.663035 4.07297 101 134 119
0.912137 0.707342 4.25356 155 176 174
1.37677 0.70024 4.1987 134 162 156
0.827935 0.742516 4.24939 168 228 198
0.930699 0.746658 4.25369 147 165 166
1.39836 0.753941 4.21635 136 162 156
0.0732459 0.74324 4.07487 173 238 212
1.18028 0.790277 4.22128 149 161 167
0.703321 0.813273 4.31631 81 92 90
1.08173 0.7946 4.2242 116 130 126
0.215557 0.783189 4.08409 100 152 129
0.66512 0.826303 4.30599 96 104 111
1.01436 0.810821 4.22799 163 176 174
1.36158 0.812518 4.22483 109 132 128
0.644741 0.836454 4.32229 207 232 255
-1.00441 0.837473 4.24824 118 141 133
1.26322 0.84333 4.22161 108 141 137
2.10276 0.834609 4.17282 197 218 219
0.547337 0.898935 4.34373 161 228 219
0.58642 0.910055 4.31605 180 249 216
0.621439 0.911432 4.31688 127 170 161
1.17189 0.895272 4.23971 136 148 148
1.95905 0.894101 4.19522 169 200 191
2.11918 0.888743 4.17422 154 190 176
0.969343 0.908667 4.25677 134 164 165
0.500554 0.939076 4.35509 186 230 231
0.595285 0.935539 4.32442 109 140 133
1.81701 0.918698 4.20013 157 179 177
0.600338 0.951116 4.32712 166 206 201
0.598404 0.951803 4.32865 162 202 200
2.01571 0.918521 4.17284 192 217 221
-0.694077 0.937659 4.22673 171 213 188
1.8955 0.943385 4.20778 91 98 85
0.48718 0.987724 4.35164 93 124 109
0.698096 0.979962 4.31157 83 94 91
0.6767 0.989997 4.29896 203 241 229
0.974555 0.984561 4.28147 119 128 137
1.1369 0.978883 4.24589 134 162 163
1.27434 0.978086 4.25638 155 180 184
1.32135 0.980329 4.26404 148 176 187
0.502536 0.997359 4.33003 102 148 135
0.878898 0.990979 4.28344 110 116 105
-0.783793 0.981734 4.2002 97 147 123
0.879867 1 4.28479 93 100 93
2.2374 0.983352 4.17616 132 165 151
0.405297 1.03306 4.37842 103 133 128
2.22691 0.997546 4.17599 165 212 203
1.78959 1.02512 4.24095 162 197 193
1.762 1.02183 4.2236 146 176 171
0.689611 1.08736 4.31675 89 115 99
1.19819 1.0971 4.28249 135 146 154
0.568808 1.14436 4.34141 200 233 226
1.93927 1.13428 4.2511 144 178 168
0.338371 1.17259 4.38515 134 156 161
0.486342 1.1679 4.34003 183 221 215
1.92565 1.15004 4.25565 96 110 104
0.529602 1.20855 4.36002 103 126 122
-0.218147 1.23725 4.42999 121 161 156
0.413528 1.23682 4.37616 115 145 140
0.210489 1.26428 4.42962 131 169 169
0.406869 1.27188 4.41305 160 198 192
1.0443 -1.72223 4.16201 131 157 157
-0.675145 -1.67923 4.08122 173 222 206
-1.95933 -1.75628 4.29107 92 114 109
1.14357 -1.69665 4.14716 128 150 155
1.42489 -1.68884 4.12388 140 150 157
-1.18644 -1.80637 4.42971 88 109 100
1.20854 -1.66741 4.10878 166 178 188
-2.02602 -1.71944 4.34342 106 143 123
0.843831 -1.64597 4.16565 128 126 125
0.882765 -1.64726 4.15289 127 127 127
-0.821479 -1.60455 4.12159 149 211 189
0.815251 -1.62606 4.17615 215 238 240
0.579517 -1.61082 4.18689 117 124 127
-1.34221 -1.69378 4.44585 110 111 107
0.25775 -1.61275 4.2219 104 108 113
-0.412267 -1.51253 4.00095 94 106 88
0.497609 -1.59873 4.21325 232 248 255
0.740841 -1.58026 4.1584 186 216 221
-1.36632 -1.66487 4.44287 182 202 207
0.51982 -1.54539 4.13251 172 204 215
1.55515 -1.52981 4.08938 141 206 191
-0.437341 -1.49897 4.02981 144 216 193
0.445304 -1.56692 4.23405 136 155 162
0.535882 -1.55638 4.2155 162 174 180
0.987072 -1.53289 4.15712 126 133 136
-1.91782 -1.57572 4.29461 146 219 169
0.412719 -1.52859 4.22979 230 246 252
-0.429558 -1.44348 4.0291 59 81 56
-1.53608 -1.58575 4.45098 184 225 217
1.28084 -1.46373 4.11345 145 157 159
-1.70604 -1.57724 4.50323 119 162 153
-0.484881 -1.39587 4.00349 81 107 83
1.56513 -1.38672 4.07869 171 180 193
1.02201 -1.38082 4.07924 108 148 143
-1.28866 -1.42543 4.23501 135 150 146
1.23908 -1.36056 4.09986 128 136 149
-0.370628 -1.31797 3.97515 196 243 221
0.393457 -1.32261 4.02901 169 215 203
1.35407 -1.3636 4.137 158 168 178
0.444689 -1.31729 4.03092 92 97 95
0.228972 -1.31367 4.04413 89 94 85
1.35453 -1.31994 4.09298 134 152 153
1.41105 -1.31298 4.0693 121 175 176
1.36328 -1.32208 4.12036 149 165 171
0.238615 -1.28165 4.03107 147 184 164
0.192334 -1.26579 3.99346 168 227 212
1.45527 -1.21718 4.06637 134 160 147
-0.917946 -1.19897 4.04114 58 57 43
0.17765 -1.17036 3.97591 148 209 189
1.43354 -1.22319 4.12485 112 141 132
0.840659 -1.11738 3.8609 101 134 113
1.46662 -1.18768 4.07841 97 146 126
1.93164 -1.17309 4.03328 145 185 183
-0.91871 -1.14067 4.00797 193 228 201
0.263237 -1.11685 4.00045 51 62 46
1.49741 -1.11906 4.0431 70 121 101
1.65262 -1.11951 4.05791 139 153 151
0.240404 -1.0915 3.97456 47 57 41
1.75502 -1.11294 4.04276 101 135 129
1.02126 -1.07456 3.94907 241 255 250
0.265137 -1.06852 3.97577 120 179 148
0.184913 -1.07511 4.02716 147 196 176
-2.61556 -1.21566 4.62508 238 250 250
0.286936 -1.04131 3.96905 70 79 58
0.311543 -1.02711 3.93493 99 125 102
-2.47291 -1.19453 4.57749 101 103 103
-1.59261 -1.16838 4.47361 107 138 131
0.313689 -1.02732 3.96442 111 152 120
0.363983 -1.0302 3.97129 153 166 150
-2.74745 -1.14551 4.62061 99 103 104
-2.64471 -1.13138 4.5868 150 170 171
2.28288 -0.992205 4.01272 170 188 187
1.51043 -0.997255 4.07188 207 240 226
1.54373 -0.996715 4.07038 152 178 184
2.15313 -0.981145 3.99861 126 150 150
1.47639 -0.990147 4.06777 86 129 108
2.16996 -0.980968 4.03446 145 179 178
-0.0340396 -0.955262 3.99256 80 92 86
1.39285 -0.97126 4.08737 110 124 123
1.55666 -0.972285 4.06277 92 95 93
1.56892 -0.944836 3.95326 76 95 74
0.52718 -0.912506 3.85801 102 141 119
-1.76717 -1.04092 4.43896 115 123 123
-0.422297 -0.950615 4.09255 110 155 129
0.415854 -0.911494 3.89285 105 139 99
0.516017 -0.890114 3.8168 148 206 182
1.53248 -0.951152 4.07157 201 233 228
-1.43486 -0.988251 4.27004 111 140 131
0.612805 -0.899743 3.89272 170 206 182
1.57678 -0.914319 3.95369 96 119 104
-2.69764 -1.04413 4.56485 109 114 115
-0.0877438 -0.929733 4.05024 147 192 176
0.498565 -0.892028 3.88134 84 97 75
-1.5 -0.961396 4.29929 158 204 185
-2.73131 -1.01713 4.59032 154 175 173
0.49643 -0.858253 3.88451 111 152 124
-0.372652 -0.874214 4.07648 175 228 208
2.48242 -0.858755 3.98321 140 187 185
-2.3513 -0.972564 4.55603 122 127 128
-1.4934 -0.903279 4.27143 187 229 212
1.82365 -0.853614 4.02554 158 193 189
0.140423 -0.835974 4.07701 52 66 55
-1.45217 -0.869041 4.27006 186 233 224
-2.40941 -0.919039 4.57828 180 192 192
0.095756 -0.807215 4.08339 125 146 143
0.482495 -0.760302 3.84426 143 181 151
0.157752 -0.795404 4.06803 70 80 63
-1.62997 -0.826161 4.30059 181 227 208
0.524732 -0.742952 3.87321 155 182 156
-0.257888 -0.743435 3.96165 92 120 101
-1.54522 -0.797167 4.2425 178 231 217
0.627617 -0.721607 3.85934 165 230 191
1.60371 -0.759578 4.03009 113 161 149
-2.25719 -0.825042 4.54041 162 197 201
-0.270211 -0.719687 3.93385 151 213 177
-2.33155 -0.806088 4.55323 95 94 96
0.012141 -0.696999 3.99185 55 66 56
0.083605 -0.704611 4.00893 37 43 38
0.149836 -0.713636 4.0436 133 174 146
1.83449 -0.708545 4.03448 144 162 161
2.23722 -0.695432 4.00276 170 210 199
-1.5639 -0.757628 4.31078 147 211 189
-0.0209225 -0.69078 4.01873 92 109 105
1.00112 -0.672445 3.90061 182 212 207
2.13592 -0.679997 4.00632 198 221 217
2.43632 -0.675517 3.97546 109 129 124
1.05623 -0.638452 3.88002 147 184 164
0.0276281 -0.654552 4.01125 155 211 190
0.230138 -0.644069 4.02857 75 87 57
2.07602 -0.626814 4.03313 167 194 190
-0.565637 -0.628613 4.08151 106 126 113
0.0732796 -0.616752 4.0108 156 195 174
1.03724 -0.599141 3.88482 120 137 123
-0.523801 -0.600197 4.00202 60 93 79
1.07917 -0.57645 3.89488 119 144 124
2.16809 -0.582952 3.9934 99 104 102
1.20639 -0.56392 3.91452 158 215 190
-1.4462 -0.627836 4.35548 59 89 78
2.12093 -0.57827 4.0053 116 140 138
-1.55701 -0.603118 4.31537 54 57 41
-1.44674 -0.600214 4.347 152 201 187
-0.558924 -0.552908 4.00444 116 155 134
2.20167 -0.552233 3.96513 109 119 119
-1.34045 -0.598835 4.27561 191 216 212
-0.559928 -0.554008 3.99447 125 164 143
-1.40628 -0.584369 4.29724 65 84 81
0.115479 -0.537412 3.98391 95 119 89
2.10538 -0.535343 3.99574 121 132 130
-1.43563 -0.568246 4.30917 172 215 200
-0.108381 -0.527376 3.99162 188 244 225
0.163617 -0.512967 3.94435 156 220 191
1.15017 -0.503102 3.91035 168 226 198
1.67315 -0.518036 4.02977 141 183 172
2.2278 -0.494772 3.94523 231 255 254
-0.199395 -0.490889 4.03644 119 169 145
-0.513071 -0.48529 4.02151 75 117 94
-0.00835587 -0.478777 4.00294 57 89 78
-1.93655 -0.528047 4.49338 105 137 120
-0.0729887 -0.472762 3.99846 174 233 218
0.0632535 -0.477371 3.97082 202 255 241
2.04237 -0.468894 4.03558 176 206 207
-1.03406 -0.469522 4.06549 110 170 136
2.02569 -0.451645 4.04074 102 118 107
-0.0405057 -0.441835 4.01546 58 79 70
-1.47748 -0.458512 4.25316 144 177 163
0.0814096 -0.425708 3.96613 50 82 71
1.86676 -0.436141 4.04349 87 114 105
-1.68044 -0.447431 4.28719 185 201 194
1.9683 -0.431798 4.03156 118 154 138
2.2606 -0.428488 4.01274 105 114 111
-0.00984422 -0.412671 4.00827 145 216 183
1.14686 -0.399383 3.90045 101 125 107
1.96137 -0.407107 4.02377 156 206 196
-2.05753 -0.438762 4.46537 137 182 165
2.28015 -0.397786 4.01745 158 199 191
1.84715 -0.382688 4.05273 135 179 173
2.28433 -0.380151 3.96978 94 108 102
-2.2049 -0.407591 4.33322 180 245 206
-2.03516 -0.423499 4.50294 50 52 40
-0.523339 -0.389832 4.08637 55 82 73
1.91212 -0.372535 3.98755 149 180 171
2.25673 -0.376756 4.00831 118 139 130
-1.56617 -0.395446 4.28853 62 56 43
-0.78949 -0.375512 4.19794 181 216 206
-2.11347 -0.393182 4.47539 144 182 176
-1.00923 -0.354299 4.14496 117 150 135
-0.776729 -0.360852 4.15496 193 234 219
-0.217692 -0.351381 4.05417 163 233 202
2.31972 -0.345192 4.0091 105 145 120
1.2558 -0.323436 3.93849 168 227 196
2.38987 -0.31772 4.044 187 219 242
-0.306147 -0.311417 4.06547 202 236 229
-0.125983 -0.301315 3.9771 176 213 193
1.92286 -0.303546 4.01883 142 178 178
-0.812545 -0.313492 4.1965 192 223 222
-2.15383 -0.32705 4.50485 143 192 170
1.26648 -0.280112 3.93121 86 114 91
1.94959 -0.28164 4.02445 89 118 103
-0.104768 -0.273097 4.00436 198 250 232
-0.0459621 -0.270501 3.94438 169 248 229
1.95081 -0.251124 4.04577 155 193 223
2.1762 -0.246961 4.04981 132 143 151
1.9139 -0.238161 4.0872 154 197 200
-0.2541 -0.220133 4.04278 50 62 50
-0.319581 -0.197219 4.03345 162 241 220
2.0031 -0.181445 4.07043 100 127 123
-2.24247 -0.173699 4.12155 103 127 115
-1.36033 -0.168106 3.94382 216 251 237
1.83855 -0.172678 4.07577 130 167 163
-1.85578 -0.170735 4.23026 187 214 205
-1.39582 -0.169231 3.94483 127 154 121
-2.24917 -0.146808 4.10472 200 235 221
-0.829519 -0.151324 4.22956 147 171 171
-1.87608 -0.129379 4.21082 201 214 212
1.73592 -0.117631 4.09465 135 178 205
-0.120387 -0.0996679 3.98689 175 236 216
-0.778615 -0.0973068 4.16225 124 148 138
-0.0750772 -0.0929832 4.00157 81 142 116
0.0868789 -0.0757983 3.97113 108 147 126
-0.791315 -0.0627987 4.1685 44 49 40
-0.113783 -0.0571023 4.0221 87 112 102
-1.11673 -0.0548226 4.06938 165 230 214
-0.281348 -0.0541338 4.03618 91 104 96
1.87226 -0.0506661 4.03808 203 225 223
1.8921 -0.0174463 4.05409 112 117 115
0.0397727 -0.00614039 4.0275 186 245 224
1.70187 -0.00606079 4.11103 204 240 248
-1.19392 0.00487635 4.03554 184 230 207
-0.290721 0.00535294 3.99786 202 229 220
1.68275 0.0200131 4.09667 109 126 122
-0.810242 0.0462395 4.15248 89 109 97
0.0166228 0.0390838 4.01617 56 70 58
1.32408 0.0396762 4.05016 59 76 67
1.50288 0.0624776 4.1194 109 157 145
1.64509 0.0665604 4.10876 101 119 106
-0.121524 0.0813636 4.03588 51 61 48
-0.0880284 0.0849629 4.0369 189 251 235
1.68598 0.0800278 4.10462 180 223 208
-0.997654 0.0938976 4.13959 141 166 140
-0.977808 0.0948139 4.16903 47 54 41
2.16585 0.0823154 3.64817 68 105 85
2.24177 0.0807559 3.57962 115 157 139
-1.02458 0.0997005 4.14204 44 59 51
1.59229 0.108256 4.14682 115 171 148
1.89762 0.117125 4.09476 124 147 143
-0.659472 0.13973 4.03273 123 174 160
-0.380699 0.198055 4.09995 166 221 204
-0.187902 0.222542 4.10027 65 89 77
0.0175106 0.227138 4.0385 92 102 90
0.192664 0.232901 4.08197 81 126 100
-0.211056 0.259059 4.13022 49 66 55
0.0574207 0.249714 4.05014 44 51 46
0.171165 0.261785 4.07061 125 187 157
2.03516 0.28913 4.09967 129 160 159
0.0581264 0.286294 4.0275 178 218 206
2.05929 0.294291 4.05176 99 127 121
2.03808 0.323441 4.08647 124 161 159
0.0449585 0.332811 4.01453 72 84 66
1.30715 0.345937 4.18053 99 125 112
-0.480074 0.390446 4.09925 181 215 198
0.138754 0.413072 4.05974 90 122 103
1.44987 0.424243 4.16635 149 200 193
-0.563066 0.438648 4.16599 174 211 191
0.213066 0.433365 4.03761 192 244 226
1.26024 0.451994 4.1902 119 127 117
1.37724 0.460064 4.17725 207 243 237
0.227507 0.455189 4.04543 41 78 58
0.311902 0.452461 4.04028 49 58 38
0.591238 0.457581 4.06959 64 85 70
1.32897 0.471057 4.15873 124 152 132
-0.538458 0.486721 4.18018 177 240 220
1.38255 0.490104 4.16647 117 143 127
1.37477 0.478461 4.13389 95 133 115
0.360866 0.478889 4.00506 178 217 192
1.33984 0.505401 4.16303 198 248 218
0.382049 0.499273 4.02491 91 104 88
1.10056 0.523815 4.23421 120 167 159
0.615394 0.524184 4.08094 40 53 39
1.31702 0.536232 4.17989 196 233 199
1.36615 0.535348 4.17565 111 121 108
1.34778 0.542911 4.18424 154 171 158
-0.465549 0.547512 4.17873 124 198 180
0.326982 0.531019 4.05434 177 229 206
1.28247 0.557014 4.19315 154 180 166
1.73174 0.563534 4.16034 137 137 149
-0.568024 0.588747 4.19412 70 82 52
1.21154 0.596658 4.22691 146 170 162
1.25244 0.609466 4.22342 152 181 165
1.33494 0.598545 4.19034 156 197 189
1.71013 0.597518 4.15526 112 125 127
-2.51969 0.711928 4.63143 57 93 71
0.0328179 0.624242 4.07104 146 175 159
0.0792892 0.626312 4.06592 149 222 196
-0.446784 0.663628 4.19224 192 226 202
0.316442 0.643048 4.03368 165 218 198
1.03939 0.676063 4.23983 109 143 136
1.42578 0.672803 4.20928 159 198 196
1.49182 0.684785 4.20095 144 165 167
-0.0200563 0.677575 4.08237 153 214 178
0.0288367 0.687474 4.10621 172 234 204
0.116781 0.684306 4.10079 86 110 86
1.43501 0.707415 4.2207 106 114 107
1.44517 0.719967 4.198 192 223 226
-1.0446 0.744933 4.2619 178 205 202
0.852263 0.747852 4.25652 86 106 93
1.26668 0.741261 4.21662 171 213 202
0.0871365 0.721472 4.0744 66 85 64
1.48056 0.746547 4.2239 91 97 86
-1.04905 0.762743 4.25666 161 183 171
1.39464 0.752278 4.21237 129 155 149
1.92623 0.749489 4.17418 140 157 154
2.01013 0.744323 4.15497 116 141 131
-0.315981 0.765743 4.1599 155 232 211
2.11791 0.764522 4.1508 116 135 120
0.853137 0.79316 4.23842 143 168 164
1.37361 0.796448 4.2119 152 194 187
1.09394 0.806186 4.23643 153 186 182
0.635634 0.830256 4.30594 206 241 254
0.668051 0.846715 4.34094 87 113 100
0.0707146 0.809463 4.11756 198 243 224
0.996055 0.832847 4.2557 229 241 241
1.04813 0.842177 4.23676 204 224 225
1.90073 0.829633 4.18569 113 149 137
0.656368 0.86617 4.31093 94 120 102
1.77017 0.842891 4.19331 120 155 141
1.2653 0.867198 4.21645 119 151 150
1.42393 0.873037 4.2438 195 226 229
1.80724 0.859395 4.19693 115 143 130
0.548236 0.898332 4.34235 173 237 232
1.8957 0.860183 4.17427 177 216 214
-0.978311 0.897206 4.25387 79 90 82
0.54662 0.898936 4.34374 149 219 206
1.8361 0.871878 4.18664 171 211 200
0.55156 0.914408 4.32532 89 103 102
0.978558 0.911022 4.27649 146 175 172
-1.24109 0.927416 4.30924 109 147 125
0.522408 0.943679 4.34788 84 98 86
1.04009 0.93645 4.25205 132 166 156
1.99522 0.93047 4.17054 146 181 171
2.08648 0.940647 4.17542 143 176 169
0.512893 0.980561 4.31747 151 203 186
0.758043 0.982594 4.31992 156 205 183
0.776117 0.967982 4.253 119 142 128
1.25934 0.976992 4.24469 152 181 186
1.13731 0.98629 4.26979 139 169 170
0.677669 0.999745 4.31405 195 218 214
0.82306 1.00858 4.29668 183 204 202
0.898923 1.00023 4.24981 149 165 164
2.06735 0.988139 4.19969 142 171 162
-0.755256 0.99828 4.21386 213 246 232
0.719489 1.0191 4.30268 189 219 214
1.17669 1.00229 4.25791 130 150 155
1.96174 1.00533 4.21213 157 197 186
2.01675 0.994122 4.19746 127 152 142
-0.821231 0.998705 4.19 55 72 51
1.80919 1.00571 4.20998 133 173 162
2.13211 1.00348 4.21184 141 195 178
0.749226 1.0482 4.30378 98 116 103
0.709576 1.05041 4.31464 92 102 96
0.469417 1.06835 4.34619 209 240 239
0.917961 1.04328 4.2408 76 79 77
1.79755 1.04172 4.23352 118 133 125
0.357634 1.09058 4.35021 103 140 132
1.27392 1.07896 4.26525 147 165 172
2.03818 1.0649 4.22435 141 174 153
0.590259 1.10527 4.33806 97 114 105
1.12406 1.08514 4.27462 137 162 166
0.120471 1.1347 4.42395 107 135 146
0.280218 1.12081 4.38248 88 104 93
1.85374 1.08503 4.22991 96 103 88
-0.0263233 1.15824 4.42425 123 166 163
0.565591 1.12244 4.31253 198 232 225
2.00113 1.09367 4.20126 80 83 67
2.09379 1.10109 4.20568 77 82 67
0.306541 1.14789 4.3767 149 199 181
0.570716 1.15002 4.36859 196 230 223
0.645543 1.13223 4.31377 149 196 180
-2.40722 1.24801 4.68042 59 57 47
0.331453 1.16246 4.37345 149 172 167
0.691845 1.14403 4.31503 99 143 126
1.09485 1.1433 4.2885 123 144 145
1.92502 1.12847 4.23795 144 179 169
0.169567 1.20624 4.41401 83 98 101
