ply
format ascii 1.0
element vertex 247
property float x
property float y
property float z
property uchar blue
property uchar green
property uchar red
end_header
0.073799 -0.189708 1.99972 106 159 149
0.278825 0.131391 2.02229 151 211 201
0.776171 -0.475651 1.83245 79 137 126
-0.229885 -0.458352 2.0026 94 148 141
0.836866 -0.346302 1.84171 135 182 160
0.841366 -0.292707 1.85217 136 188 165
0.239836 -0.233195 1.96352 92 131 129
0.599747 -0.190595 1.91059 96 150 137
0.549677 -0.156863 1.92319 92 151 136
0.70251 -0.0182084 1.92795 59 109 97
0.275044 0.116179 2.01809 82 139 130
0.278195 0.132077 2.02164 151 214 204
0.496893 0.146906 1.98338 79 145 133
0.283537 -0.712486 1.86906 88 100 110
0.710176 -0.690044 1.81185 204 247 236
0.248121 -0.714807 1.88173 96 150 145
0.376601 -0.70768 1.86221 95 155 144
0.177094 -0.628653 1.90768 77 148 138
-0.736066 -0.580336 2.05791 93 155 131
0.862262 -0.488647 1.81176 82 147 125
0.814763 -0.478771 1.82294 83 112 103
0.815042 -0.478287 1.8246 81 112 103
0.953306 -0.471069 1.79906 99 151 134
0.651507 -0.428319 1.86201 97 161 149
0.81226 -0.398072 1.8419 77 128 124
1.11716 -0.383356 1.783 131 192 158
0.779082 -0.39475 1.84536 98 139 132
0.840248 -0.375719 1.83425 90 132 121
0.829343 -0.346767 1.84593 90 144 121
0.730488 -0.330028 1.8592 66 94 81
0.774038 -0.312948 1.85887 88 135 127
0.771528 -0.298588 1.86372 71 121 111
0.842878 -0.288643 1.85959 88 133 114
0.676579 -0.272472 1.88561 90 147 139
0.697312 -0.270117 1.87868 84 133 125
0.437645 -0.246997 1.9258 89 152 142
0.241522 -0.239221 1.95703 106 138 137
0.244704 -0.231253 1.96399 91 144 134
0.484203 -0.22581 1.92277 86 154 143
0.222329 -0.224781 1.9662 91 135 129
0.585 -0.213352 1.9088 75 137 131
0.405355 -0.183895 1.94367 101 154 144
0.166933 -0.159656 1.99084 108 177 162
-0.1189 -0.133658 2.05239 93 154 144
0.712476 -0.1225 1.90773 77 146 133
-0.0315256 -0.117079 2.03376 87 152 143
0.706257 -0.109403 1.91237 78 137 122
-0.0483003 -0.109929 2.0351 76 127 113
-0.135367 -0.0893382 2.06031 200 240 238
0.443482 -0.0767352 1.95528 96 164 153
0.0391716 -0.0495966 2.03222 104 143 135
-0.394171 -0.00340674 2.1225 88 159 142
-0.156896 0.00646594 2.08445 115 156 151
0.766318 0.0138472 1.91887 64 128 106
0.769031 0.0282481 1.91831 78 130 123
0.608058 0.0413242 1.95027 87 141 134
-0.319511 0.0503545 2.12308 102 171 160
0.457522 0.053899 1.97447 87 124 114
0.281175 0.0833938 2.01268 130 176 170
-0.787885 0.106024 2.21559 96 177 162
-0.590472 0.127969 2.17745 76 136 126
0.685 0.123374 1.94662 107 173 154
0.119533 0.133382 2.05845 136 184 160
0.496979 0.147502 1.98441 88 149 135
0.528075 0.150008 1.98321 79 148 128
0.0855536 0.159507 2.06662 122 180 162
0.0937485 0.159566 2.06456 104 165 137
-0.443383 0.267673 2.18424 81 138 123
0.794758 -0.645416 1.8095 115 168 158
0.447286 -0.600572 1.86126 101 168 163
0.916636 -0.55562 1.79351 90 141 114
-0.90468 -0.625003 2.07447 106 169 159
0.770723 -0.536046 1.82885 77 131 114
-0.735794 -0.580431 2.05746 93 155 131
0.825041 -0.495682 1.81864 68 107 91
0.906285 -0.475735 1.80642 92 130 108
0.82146 -0.459766 1.82302 139 195 172
0.849519 -0.457511 1.82156 81 135 118
0.992199 -0.439366 1.80084 77 133 104
1.07143 -0.42018 1.78691 102 145 124
0.651617 -0.42814 1.86259 97 161 149
-0.73459 -0.472293 2.08241 84 156 134
0.0811366 -0.422555 1.94761 68 85 71
0.779149 -0.394713 1.84548 98 139 132
1.04245 -0.383765 1.79807 86 133 117
0.714433 -0.391554 1.8575 132 192 182
0.826588 -0.385511 1.83722 99 145 132
0.836236 -0.379321 1.83392 143 195 177
0.820886 -0.367133 1.83862 79 123 100
0.824129 -0.360265 1.84208 152 206 176
0.820009 -0.356079 1.84521 66 95 86
1.00201 -0.34993 1.81542 94 143 123
0.885161 -0.312908 1.83969 85 145 127
1.09445 -0.293892 1.79997 86 135 115
0.911915 -0.294753 1.83967 89 145 132
0.866635 -0.288749 1.84963 113 163 153
1.13625 -0.2738 1.79653 61 102 74
0.696887 -0.270751 1.87706 89 133 126
0.221721 -0.271012 1.95345 104 155 148
0.897465 -0.253909 1.85045 94 149 134
0.241342 -0.26281 1.9521 141 181 179
-0.644672 -0.169442 2.12791 109 164 149
-0.117265 -0.156279 2.04538 115 172 169
0.710609 -0.112933 1.90776 137 199 181
-0.031491 -0.116931 2.0341 87 152 143
0.706425 -0.108781 1.91369 90 149 134
-0.0486551 -0.108347 2.0387 77 128 114
0.85186 -0.0965031 1.88153 88 143 134
0.0358763 -0.0734102 2.0272 134 193 179
0.0394001 -0.066535 2.02979 94 149 134
0.704107 -0.053504 1.91969 83 142 127
0.610888 -0.0458127 1.93605 98 151 142
-0.319155 0.0502387 2.12287 100 168 157
-0.235734 0.0601346 2.10996 111 182 166
-0.635901 0.173887 2.18928 157 219 195
0.0947797 0.1779 2.06601 109 161 151
0.0881695 0.179645 2.06879 170 215 212
0.799514 -0.634099 1.80312 129 168 160
0.745938 -0.631262 1.81298 95 148 134
0.774332 -0.61141 1.80985 74 129 114
0.238612 -0.628716 1.89668 91 127 135
0.177402 -0.627404 1.90924 83 151 140
1.03546 -0.579281 1.77006 77 124 115
0.427647 -0.577126 1.87097 80 135 120
0.753635 -0.530395 1.82869 102 157 142
-0.145219 -0.565087 1.97029 96 127 124
0.831635 -0.513849 1.81109 85 130 114
-0.736039 -0.580278 2.05822 93 155 131
0.833193 -0.505625 1.81259 153 206 179
0.778402 -0.476618 1.83177 73 119 107
0.802911 -0.473578 1.8266 80 114 97
1.00347 -0.460676 1.7938 143 214 181
0.921252 -0.462174 1.80566 91 133 115
0.822816 -0.460873 1.82282 140 199 178
1.04352 -0.451608 1.78452 97 139 128
-0.638841 -0.508407 2.05029 95 153 128
0.819048 -0.450874 1.82593 74 110 93
0.855699 -0.451673 1.81606 89 130 115
0.784553 -0.441716 1.83425 96 151 136
1.03993 -0.424291 1.79243 107 160 147
0.799777 -0.432691 1.83632 96 140 127
-0.686718 -0.478573 2.07066 78 107 92
1.00298 -0.411701 1.79822 95 148 121
-0.691688 -0.475727 2.08176 95 150 135
0.841308 -0.410033 1.82881 64 107 94
0.812667 -0.399826 1.83784 81 121 116
0.726414 -0.386199 1.85709 93 151 146
0.814378 -0.37547 1.84156 92 137 118
1.13077 -0.340206 1.78566 76 151 113
1.01382 -0.341755 1.8104 190 228 222
0.844374 -0.338285 1.84546 105 142 132
0.705043 -0.326864 1.86958 118 164 158
0.424274 -0.320538 1.91518 93 143 131
0.493898 -0.295396 1.90788 109 162 153
1.07875 -0.27885 1.81292 109 156 134
0.701295 -0.266729 1.87963 140 194 181
0.194478 -0.273466 1.963 99 156 147
0.706566 -0.258581 1.88136 66 92 78
1.13639 -0.236751 1.8074 109 142 127
0.548201 -0.246418 1.91174 90 135 119
0.725109 -0.223085 1.88373 119 191 179
1.06174 -0.186134 1.82752 74 132 104
0.989903 -0.182981 1.84146 91 156 140
0.0752449 -0.185667 2.00489 95 149 136
-0.614045 -0.173124 2.1244 95 149 136
-0.645178 -0.169988 2.13308 109 163 150
0.0189639 -0.150192 2.01864 72 135 119
-1.0629 -0.151307 2.19444 117 156 148
0.712573 -0.121125 1.90683 87 155 144
-0.00695861 -0.0796329 2.03741 92 146 133
0.673853 -0.0591687 1.92403 102 164 150
-0.674612 -0.0509007 2.15534 100 143 134
0.700174 -0.0310364 1.92621 76 158 129
0.749933 -0.0244242 1.91243 86 135 127
0.82219 0.014352 1.90453 93 162 149
0.485509 0.105233 1.97729 91 152 138
0.554362 0.108753 1.97243 90 154 142
0.121172 0.116216 2.05057 83 128 112
0.118433 0.129214 2.05259 123 182 168
0.0787531 0.14834 2.06288 147 218 201
-0.311907 0.157431 2.14646 112 188 164
0.10677 0.165129 2.06073 97 161 139
-0.400374 0.218709 2.1632 78 147 127
-1.25164 0.265204 2.31264 109 136 126
0.86332 -0.633546 1.7937 118 163 167
0.872404 -0.616462 1.79062 96 158 140
0.4275 -0.626668 1.85784 171 224 214
0.750476 -0.599656 1.81689 101 161 143
0.397476 -0.60599 1.87391 86 139 126
0.480219 -0.583524 1.85804 92 149 141
0.907112 -0.557569 1.79648 94 144 110
0.897114 -0.542462 1.79996 124 178 155
0.777878 -0.543784 1.81818 55 89 72
0.868401 -0.537143 1.80602 102 152 134
1.01093 -0.510792 1.78936 107 158 124
-0.931013 -0.600436 2.08072 91 156 135
0.828994 -0.513789 1.80659 98 140 123
0.828963 -0.513265 1.80847 104 143 127
1.08705 -0.474144 1.77605 112 168 147
0.861341 -0.479318 1.81314 64 101 81
1.04314 -0.452148 1.78891 107 150 139
-0.646506 -0.505787 2.05493 95 156 128
0.847535 -0.443558 1.81959 56 92 78
0.736872 -0.448651 1.83937 115 158 149
0.933128 -0.43231 1.80942 88 123 109
1.00357 -0.424848 1.8004 90 138 110
1.1062 -0.412248 1.78064 85 142 111
-0.735002 -0.473575 2.08084 95 161 136
0.744685 -0.414862 1.84721 76 121 105
1.04562 -0.386214 1.80416 79 127 109
1.0446 -0.386832 1.80235 82 131 111
-0.205474 -0.422568 2.00426 95 142 126
1.02309 -0.367276 1.80229 133 169 157
0.860583 -0.370717 1.82906 96 132 115
0.815569 -0.356911 1.84316 93 132 117
0.787289 -0.320902 1.85881 96 152 139
0.71875 -0.315412 1.86491 94 132 114
0.843577 -0.311016 1.84928 80 105 91
0.730749 -0.306778 1.86097 95 125 112
0.720931 -0.301066 1.8678 164 218 205
0.910228 -0.291049 1.83636 73 125 107
0.839484 -0.289441 1.85275 102 144 127
0.703189 -0.275139 1.87791 99 133 116
0.690049 -0.27549 1.89093 107 166 152
0.778887 -0.267731 1.86738 74 113 98
0.706906 -0.258467 1.88166 57 83 69
0.709039 -0.249265 1.88438 122 178 167
-0.723864 -0.278118 2.11286 86 128 105
0.71938 -0.245861 1.88362 58 77 60
0.735523 -0.236326 1.87928 162 215 206
0.729033 -0.226351 1.87452 67 112 103
0.548085 -0.218592 1.91769 96 149 140
1.01714 -0.184139 1.84037 127 180 167
-0.920935 -0.184414 2.17074 76 104 84
-1.05744 -0.153072 2.19431 109 146 130
-1.04034 -0.152826 2.19167 91 104 82
0.0475473 -0.0562038 2.03127 164 215 208
0.095516 -0.0559186 2.02368 101 145 128
0.0400793 -0.0397704 2.03464 102 144 137
-0.1597 0.00428994 2.08084 124 169 166
0.706877 0.00736712 1.92442 98 160 144
0.116141 0.129077 2.05189 143 205 191
-1.15474 0.151488 2.2824 108 162 149
-0.923561 0.179664 2.2537 114 174 156
-0.630375 0.182502 2.19684 109 143 132
-0.289745 0.187959 2.1321 113 175 161
-1.25237 0.266618 2.31177 107 146 131
