ply
format ascii 1.0
element vertex 926
property float x
property float y
property float z
property uchar blue
property uchar green
property uchar red
end_header
0.671314 -1.48968 3.0075 158 217 203
0.397613 -1.40147 3.03133 88 148 137
-0.317684 -1.22686 3.07831 97 156 136
0.185087 -1.16728 3.05207 121 173 166
-0.467685 -1.12053 3.08125 105 157 147
-0.628625 -1.02025 3.08745 108 151 142
0.450757 -0.971912 3.03757 82 118 106
0.192431 -0.775728 3.04898 78 118 106
0.263499 -0.731134 3.04315 75 127 109
-0.579581 -0.738658 3.08367 136 182 176
0.359002 -0.727106 3.05708 121 142 120
0.307118 -0.687002 3.04471 136 198 180
0.0597346 -0.528904 3.0433 97 155 154
0.567788 -0.44156 3.0232 130 162 138
0.405298 -0.374397 3.03053 120 159 151
0.706743 -0.344179 2.82164 119 173 150
0.690384 -0.331055 2.83257 102 135 120
0.4169 -0.350842 3.03462 156 213 205
0.900048 -0.253597 2.82416 161 211 187
0.807745 -0.249606 2.82634 146 196 178
0.367422 -0.224821 3.02733 152 210 199
0.396706 -0.218709 3.02652 136 190 173
-0.248417 -0.109625 3.02626 96 156 150
0.390908 -0.0252945 3.02498 141 199 175
-0.441564 -0.0229153 3.0205 87 158 132
0.443521 0.0345249 3.02096 85 98 100
1.17909 0.0405519 2.89221 113 161 132
1.17412 0.0688837 2.88113 51 72 50
0.192637 0.0727988 3.0152 144 186 179
0.312833 0.0892566 3.01628 124 181 156
0.563173 0.137304 2.77969 176 200 188
-0.0503055 -1.57903 3.05436 116 173 164
0.160183 -1.35968 3.04625 83 136 122
0.0304753 -1.32029 3.05593 102 151 137
-0.139027 -1.30636 3.06783 100 173 151
-0.261676 -1.22075 3.0659 117 176 156
-0.879821 -1.20557 3.10972 159 201 190
-0.00250018 -1.11989 3.05241 105 163 145
-0.0546725 -1.10988 3.05805 122 171 163
0.396252 -1.08815 3.04118 93 146 133
0.417332 -0.917387 3.03544 122 176 169
-0.481835 -0.916971 3.0769 102 158 137
-0.447937 -0.8556 3.0782 116 177 167
0.747622 -0.729822 2.68653 62 130 95
-0.579682 -0.738625 3.08408 136 182 176
0.231052 -0.704218 3.04478 163 223 213
-0.445565 -0.544655 3.05993 99 149 139
0.200612 -0.527933 3.03949 107 169 163
0.155916 -0.479605 3.03698 88 158 145
0.282598 -0.417542 3.0381 69 101 90
0.379573 -0.306879 3.03429 84 133 119
0.826213 -0.276731 2.81855 123 188 179
-0.53708 -0.285032 3.04347 76 140 121
0.807134 -0.255541 2.81833 161 233 221
0.839563 -0.213379 2.84922 168 220 203
0.840353 -0.202798 2.848 108 159 151
0.868282 -0.198361 2.8472 138 191 182
1.26305 -0.164825 2.73733 45 64 49
0.338488 -0.168691 3.02822 94 159 144
0.41418 -0.0837188 3.02618 124 169 150
-0.195263 -0.0750826 3.02521 112 175 166
0.410464 0.0590999 3.01642 70 109 94
0.190691 0.0733088 3.01359 151 184 180
1.17549 0.0749389 2.88123 36 78 61
0.313782 0.0893906 3.018 124 181 156
0.41437 0.123427 3.00884 114 137 129
1.10803 0.128897 2.87574 124 198 170
0.37468 0.142786 3.00813 141 194 184
-0.869263 -1.7335 3.1161 125 166 168
-0.378381 -1.70916 3.07042 86 141 116
-0.248057 -1.70298 3.06195 101 155 132
-0.884192 -1.73147 3.1151 106 153 151
-0.291872 -1.70435 3.07004 90 129 108
0.376512 -1.67775 3.02144 92 136 130
-0.197479 -1.69133 3.05653 65 111 92
0.428199 -1.65824 2.99915 47 88 60
0.411731 -1.65334 3.01395 125 186 166
-0.236689 -1.63114 3.05853 83 138 113
-1.03982 -1.6693 3.1342 105 158 148
0.4797 -1.60327 3.01177 85 141 120
-1.21819 -1.66286 3.1483 125 179 172
0.395312 -1.58661 3.02324 73 112 104
0.400062 -1.57583 3.01967 100 154 141
-0.239133 -1.57755 3.06335 90 156 131
-0.23931 -1.56681 3.06335 100 159 138
-0.22122 -1.56348 3.06381 111 163 140
-0.246733 -1.51468 3.06723 95 151 122
0.333962 -1.48299 3.029 107 158 151
0.755155 -1.41221 3.00402 110 150 139
0.65499 -1.3625 3.00505 103 144 136
0.849262 -1.35717 3.00765 104 144 142
0.866108 -1.34634 3.00938 97 164 149
0.159954 -1.35965 3.04597 83 136 122
1.09434 -1.33386 2.99232 90 159 148
0.364613 -1.34916 3.03977 155 201 189
-0.21321 -1.3521 3.06927 82 136 113
-0.0775264 -1.33848 3.05914 88 161 139
0.309995 -1.30473 3.03985 115 172 157
0.718582 -1.28719 3.00789 99 143 136
0.0875445 -1.29637 3.05576 92 161 148
0.0507626 -1.27534 3.05104 108 167 152
1.28313 -1.24653 2.98286 105 149 150
1.4444 -1.24257 2.98097 160 199 197
0.18274 -1.26922 3.04956 102 164 146
1.31932 -1.23887 2.98248 150 201 197
-0.113289 -1.25921 3.05986 96 156 138
0.015627 -1.25648 3.0573 100 164 145
-1.00719 -1.26226 3.12034 143 175 170
0.557716 -1.22402 3.03039 105 148 135
0.0150966 -1.22924 3.05669 94 159 143
0.320289 -1.20476 3.04578 99 144 135
1.37644 -1.18016 2.98733 136 165 174
0.0201023 -1.20454 3.05799 91 151 133
-0.322588 -1.21047 3.07623 152 219 192
-0.147888 -1.20509 3.06322 113 175 161
-0.173973 -1.19278 3.0681 79 153 129
-0.689305 -1.18619 3.09676 150 199 191
-0.577655 -1.17762 3.09613 149 210 196
-0.980888 -1.17434 3.11859 115 143 137
-0.290224 -1.15412 3.0694 98 155 140
1.39713 -1.12675 2.99473 176 205 210
-0.898942 -1.15048 3.1012 112 139 149
-0.68594 -1.14527 3.09549 121 160 168
-0.361457 -1.13499 3.07365 99 174 152
-0.90234 -1.14692 3.12082 140 181 190
-0.734621 -1.14095 3.10374 149 203 190
-0.394954 -1.12554 3.07432 76 128 104
1.38775 -1.0892 2.99104 99 133 132
-0.364457 -1.11613 3.07664 106 172 143
-0.749885 -1.10082 3.10379 130 186 175
-0.61864 -1.0937 3.0937 101 144 135
1.42645 -1.05496 2.98508 59 100 85
-0.758119 -1.09036 3.10225 123 183 172
-0.409411 -1.07465 3.07752 87 132 113
-0.410402 -1.07474 3.07997 100 146 127
-0.392527 -1.0712 3.07389 98 163 142
-0.846257 -1.0729 3.10779 153 198 195
-0.414901 -1.05777 3.07216 101 170 137
-0.34789 -1.05667 3.07563 91 140 120
-0.0324799 -1.04339 3.05926 91 153 137
-0.356671 -1.02855 3.06989 86 149 117
1.3608 -0.999237 2.98237 114 187 165
-0.051198 -1.01841 3.0662 98 160 142
0.474958 -1.00031 3.03609 139 184 175
0.564574 -0.99725 3.03873 107 133 119
-0.484735 -1.00534 3.0778 141 210 183
-0.708688 -1.00632 3.093 141 181 169
-0.497548 -1.00452 3.08697 114 170 157
1.51704 -0.942317 2.91738 110 131 106
-0.749565 -0.994841 3.09489 121 136 132
-0.700671 -0.991499 3.08677 159 215 204
1.40533 -0.939607 2.97015 51 91 80
-0.803985 -0.971811 3.09595 130 156 168
-0.747563 -0.96535 3.09584 165 207 206
-0.485501 -0.952651 3.07902 99 147 135
-0.859433 -0.955355 3.09799 102 143 138
1.39003 -0.919219 2.98242 38 68 57
-0.471655 -0.939167 3.07687 107 160 140
1.42532 -0.906328 2.96525 71 107 85
-0.842858 -0.935722 3.09162 98 148 136
-0.309315 -0.9297 3.06935 107 169 145
0.410174 -0.919309 3.03742 91 142 134
0.417263 -0.917353 3.03715 143 197 190
-0.899968 -0.924409 3.09618 147 181 181
-0.901254 -0.924287 3.10108 131 169 169
-0.235906 -0.904496 3.06475 91 147 124
-0.822996 -0.90168 3.09483 163 204 207
0.378697 -0.868114 3.04426 148 203 194
0.417766 -0.864388 3.03704 116 140 130
-0.422514 -0.866138 3.06748 97 149 131
0.434753 -0.846505 3.03801 101 128 118
-0.0109422 -0.83557 3.0525 93 167 149
0.228083 -0.817535 3.04847 111 158 149
-0.597149 -0.824325 3.08446 116 167 163
-0.367398 -0.82065 3.07522 101 162 148
-0.107829 -0.801375 3.06174 81 130 122
0.388441 -0.78897 3.04719 137 198 184
-0.424552 -0.783261 3.0715 93 149 128
0.368404 -0.765932 3.04362 134 186 169
0.251683 -0.743148 3.04241 104 156 146
0.268089 -0.745978 3.04165 86 129 116
0.370725 -0.737059 3.04583 131 169 151
-0.280041 -0.738704 3.06287 94 159 134
0.352322 -0.730666 3.04864 93 137 120
0.358306 -0.729811 3.04615 153 205 182
0.201312 -0.719395 3.04751 108 166 155
0.256958 -0.715632 3.04949 79 118 103
1.58999 -0.662802 2.91039 77 118 97
0.319243 -0.676446 3.04219 89 122 107
0.286853 -0.664414 3.04421 77 137 113
0.343699 -0.6332 3.03919 61 106 87
-0.463841 -0.628501 3.06587 108 170 148
-0.480266 -0.617554 3.06766 97 155 131
0.192397 -0.542368 3.04145 90 147 138
-0.443701 -0.545607 3.06171 97 143 130
0.467662 -0.516066 3.04495 114 173 158
0.4593 -0.501334 3.04236 108 156 144
-0.343085 -0.498899 3.05948 114 159 150
0.473013 -0.494496 3.03631 86 119 112
-0.404048 -0.457629 3.05348 97 158 144
0.487585 -0.446524 3.04022 119 149 138
0.483954 -0.438165 3.03898 66 88 69
0.34404 -0.378273 3.03543 96 129 114
0.379872 -0.37286 3.03403 130 189 181
0.402057 -0.367424 3.03497 136 197 183
0.685128 -0.343561 2.83644 143 174 145
-0.0136901 -0.357403 3.03703 93 154 140
-0.553814 -0.355815 3.0462 97 164 157
0.231841 -0.349114 3.03757 89 127 115
0.804595 -0.302608 2.82137 115 181 170
0.865719 -0.294675 2.82605 73 123 105
0.379787 -0.306847 3.0344 84 135 121
0.758409 -0.277109 2.81416 144 201 192
0.489887 -0.292622 3.02939 112 143 136
0.837239 -0.274647 2.81863 120 181 161
0.766576 -0.27138 2.81469 118 180 174
0.480256 -0.289985 3.03364 126 153 143
0.798932 -0.263623 2.81237 68 121 108
0.391545 -0.277554 3.03297 58 113 98
0.367039 -0.269968 3.0319 140 190 178
0.834573 -0.249687 2.82688 45 75 64
0.021821 -0.256691 3.02754 80 158 141
1.28684 -0.212695 2.71447 57 105 81
1.27654 -0.21022 2.71183 132 205 167
0.841172 -0.209802 2.84363 84 140 127
0.855845 -0.211504 2.84655 53 122 107
0.888733 -0.207974 2.84918 126 182 169
0.868485 -0.198462 2.84679 138 191 182
0.980307 -0.189228 2.88549 58 86 66
0.410471 -0.170316 3.03037 90 113 98
1.24696 -0.148444 2.75097 86 111 83
-0.359937 -0.160156 3.0324 109 158 150
1.37475 -0.141208 2.74549 129 197 162
-0.29305 -0.145444 3.03058 168 224 225
-0.296935 -0.142476 3.03169 170 221 213
0.369749 -0.125604 3.02413 95 160 144
0.406223 -0.117916 3.02326 127 192 171
-0.173928 -0.111968 3.02895 109 164 145
0.330087 -0.106948 3.03064 160 218 207
-0.145111 -0.0823489 3.02393 111 173 159
0.364671 -0.0634019 3.02329 82 140 115
0.304356 -0.0617952 3.02644 98 169 153
0.405627 -0.0550207 3.02533 123 171 159
0.209853 -0.0511329 3.03059 91 159 152
0.997677 -0.0364853 2.87402 44 71 45
-0.442053 -0.0223418 3.0223 87 155 130
0.382869 0.0160145 3.02734 111 152 131
0.410596 0.0393818 3.01852 129 164 150
0.311099 0.0498099 3.0188 95 156 142
0.336677 0.0540678 3.02559 91 150 136
1.17709 0.0610803 2.8822 88 133 106
1.15573 0.068769 2.88673 113 178 146
0.24771 0.0756579 3.01979 92 140 122
0.428356 0.0771405 3.02073 164 203 205
0.384844 0.0786293 3.0211 97 114 100
1.19888 0.0861621 2.88379 47 85 63
0.126853 0.0993232 3.01209 152 206 206
0.383512 0.115548 3.01517 98 132 121
1.13744 0.110714 2.87436 117 180 138
1.30338 0.114939 2.86975 93 138 105
0.276991 0.128782 3.01145 125 183 165
0.477591 0.126049 2.98912 89 128 103
1.1086 0.129363 2.87692 128 203 175
1.1524 0.127717 2.86526 68 124 89
1.19391 0.129824 2.86337 53 91 61
1.27168 0.128225 2.86156 123 191 160
-0.44608 0.140117 3.00357 104 184 161
0.230349 0.150905 3.00646 77 123 110
0.191377 0.169836 3.0081 93 149 130
0.36484 0.173666 3.0083 75 113 101
0.361447 0.185489 3.01135 133 198 182
0.332431 0.205447 3.00655 106 149 138
-0.377207 0.208977 3.00036 98 167 156
0.43644 -1.65134 3.00621 51 104 71
0.384136 -1.65101 3.01756 88 138 128
0.389188 -1.62868 3.02355 156 222 203
0.46408 -1.61311 3.00455 106 132 116
0.474051 -1.6042 3.00699 105 163 135
0.456072 -1.60734 3.0138 104 140 124
-1.02335 -1.65644 3.12848 110 144 143
-0.956253 -1.65591 3.12528 130 162 161
0.332423 -1.60298 3.02463 100 151 137
0.472245 -1.59307 3.00983 141 225 191
-1.00328 -1.64746 3.12327 102 144 143
0.395298 -1.5863 3.02172 85 119 109
0.461786 -1.5848 3.01589 96 150 133
-0.966587 -1.59762 3.12812 162 224 212
0.257349 -1.53108 3.03456 108 174 162
0.423873 -1.51546 3.02528 110 159 151
0.574199 -1.50432 3.01009 86 138 128
0.765601 -1.49371 2.98554 93 140 138
-0.246946 -1.51478 3.06782 105 166 132
0.577497 -1.48332 3.01139 95 160 144
1.20253 -1.4384 2.96655 55 73 66
0.850904 -1.43865 2.98714 118 155 159
0.147561 -1.45946 3.03922 107 178 151
0.800125 -1.41376 3.00584 110 163 160
0.76392 -1.4035 3.00008 103 152 144
1.51188 -1.37704 2.95613 100 140 139
0.771807 -1.39417 2.99788 126 173 171
-0.209836 -1.34242 3.06902 101 157 134
0.718582 -1.28719 3.00789 99 143 136
0.0876532 -1.29629 3.05498 95 160 145
1.30812 -1.26217 2.98071 79 110 101
0.748226 -1.26722 3.00366 89 158 148
1.38263 -1.23333 2.98408 107 143 149
-0.113805 -1.25942 3.06209 101 156 139
-0.158277 -1.24062 3.06248 128 172 159
0.693704 -1.22062 3.01712 71 127 116
0.332199 -1.22314 3.04258 105 165 147
-0.150127 -1.22232 3.05719 94 150 127
0.0805101 -1.21837 3.05097 77 125 107
-0.119411 -1.20331 3.06334 103 165 143
-0.83758 -1.19982 3.10704 160 219 211
0.526134 -1.1673 3.03495 107 159 152
-0.293284 -1.17397 3.0684 90 149 121
-0.293037 -1.17421 3.073 107 165 140
-1.0162 -1.18364 3.12158 95 127 116
-0.795796 -1.17649 3.09999 114 135 127
-0.261633 -1.15809 3.06846 86 143 122
-0.843493 -1.15643 3.1132 131 171 160
-0.287824 -1.14171 3.07668 102 166 136
-1.02532 -1.15554 3.11783 94 123 114
-0.89532 -1.14406 3.11232 195 231 237
-1.03136 -1.13427 3.10874 113 144 137
-0.812012 -1.12609 3.1037 104 120 113
-0.3652 -1.11618 3.07708 98 164 135
-0.732166 -1.11566 3.10428 120 148 135
-0.891218 -1.10861 3.10523 141 173 172
0.395045 -1.08732 3.03812 93 146 133
-1.07749 -1.11089 3.11982 134 175 170
0.0532872 -1.08396 3.05042 123 185 167
-0.749108 -1.10081 3.10434 127 189 177
-0.904032 -1.10013 3.11239 88 113 99
-0.736118 -1.08877 3.10415 148 191 182
-0.89162 -1.08009 3.11383 153 203 203
0.545997 -1.05506 3.03558 103 172 161
-0.466846 -1.06899 3.07728 103 161 150
0.266638 -1.05472 3.04832 118 170 160
-0.716579 -1.07148 3.09989 143 202 188
-0.329885 -1.06112 3.07088 107 176 143
-0.609513 -1.06347 3.09316 99 152 138
-0.414439 -1.05771 3.06941 103 173 137
-0.347865 -1.05667 3.07547 91 140 120
-0.910321 -1.06638 3.11288 112 122 122
-0.769655 -1.05684 3.10071 139 199 188
-0.170461 -1.04368 3.06897 115 149 148
-0.864398 -1.05356 3.1079 161 205 198
0.354941 -1.02645 3.04029 171 225 218
-0.673694 -1.03175 3.09326 119 155 149
1.39566 -0.994221 2.97927 71 119 107
1.41647 -0.996508 2.98084 67 96 87
1.43232 -0.99048 2.96413 147 217 177
0.48545 -1.00934 3.03551 93 130 120
0.490756 -1.01025 3.0358 90 127 119
-0.3299 -1.01767 3.0678 74 153 110
-0.725083 -1.0249 3.09477 160 208 202
-0.351673 -1.01456 3.0708 86 157 114
-0.628734 -1.02044 3.08883 120 161 154
-0.382352 -1.01175 3.07618 95 152 119
0.564741 -0.997254 3.04036 104 130 114
-0.659462 -1.01154 3.09362 96 139 126
-0.678581 -1.00626 3.09253 149 201 191
1.42545 -0.963517 2.95657 155 221 179
1.44502 -0.966049 2.95454 134 198 162
-0.632334 -1.00823 3.09517 149 215 204
-0.41675 -0.988702 3.06964 100 148 130
-0.752487 -0.98959 3.10067 106 137 136
-0.8965 -0.989663 3.10036 157 217 211
-0.874954 -0.987923 3.09416 149 206 197
1.35438 -0.949268 2.97534 82 152 122
-0.191662 -0.969257 3.06787 93 156 130
-0.429044 -0.966576 3.07716 102 154 137
-0.762995 -0.970946 3.09824 141 203 187
-0.34066 -0.952087 3.06764 100 163 137
-0.900939 -0.949285 3.10117 143 187 186
-0.664795 -0.943603 3.09072 109 155 142
-0.808083 -0.93851 3.09393 114 141 151
-0.697443 -0.928853 3.08298 103 134 127
1.40223 -0.890145 2.98008 76 124 106
-0.89953 -0.924564 3.09553 141 175 175
-0.746096 -0.922899 3.0955 106 130 128
0.415913 -0.900346 3.04233 146 201 192
-0.896044 -0.908713 3.09848 100 147 144
-0.846567 -0.903253 3.09946 103 146 143
-0.422817 -0.887303 3.06551 114 182 159
0.378334 -0.868154 3.04357 144 201 192
0.392103 -0.833765 3.05104 101 141 139
-0.476867 -0.837573 3.07372 107 167 156
-0.451824 -0.803914 3.0762 109 172 156
0.389247 -0.790365 3.05568 132 197 182
0.27182 -0.781742 3.04814 95 157 143
0.348834 -0.729101 3.04677 88 122 105
0.252757 -0.723958 3.04604 147 205 200
0.316118 -0.719629 3.05002 152 216 220
1.58983 -0.662812 2.91035 82 120 102
0.35072 -0.673896 3.04561 69 76 63
0.286468 -0.664164 3.0454 78 144 119
0.298197 -0.639163 3.05028 87 131 114
0.343771 -0.63295 3.04132 58 103 86
-0.495704 -0.640025 3.07048 118 176 151
0.395991 -0.553689 3.0374 93 143 125
0.47848 -0.542695 3.04101 91 143 125
0.357325 -0.525142 3.03985 144 210 191
0.446459 -0.508617 3.03958 51 89 71
0.45575 -0.49982 3.04039 103 152 138
0.163945 -0.471551 3.04754 69 134 118
0.539055 -0.456894 3.03473 119 143 141
-0.404048 -0.457629 3.05348 97 158 144
0.367936 -0.45683 3.04008 115 173 155
0.489176 -0.446999 3.03692 119 150 141
0.565061 -0.439496 3.01482 106 137 116
0.388256 -0.441142 3.04114 134 183 169
0.481792 -0.437574 3.03664 66 88 69
0.488575 -0.432468 3.02724 157 212 203
0.434214 -0.431536 3.03433 122 172 154
0.515079 -0.407121 3.03473 57 84 80
0.346018 -0.401163 3.03336 121 167 161
0.265077 -0.380792 3.04173 58 102 85
0.333791 -0.367322 3.04212 67 91 79
0.370235 -0.359766 3.0373 133 187 174
0.442738 -0.344542 3.0368 144 206 192
0.293224 -0.315884 3.03358 109 168 154
-0.151325 -0.313323 3.03428 77 146 131
0.838393 -0.274219 2.82019 118 181 161
-0.537315 -0.28556 3.04351 79 141 123
0.411034 -0.268422 3.03385 106 167 153
0.333793 -0.265249 3.03238 95 148 139
0.381183 -0.261247 3.0265 153 225 213
0.886729 -0.241353 2.83034 35 62 53
0.385105 -0.234862 3.02924 78 124 112
0.967084 -0.215729 2.88479 50 78 55
1.26453 -0.20097 2.70904 126 187 153
0.35749 -0.196381 3.02523 102 157 148
-0.360106 -0.16017 3.03237 109 158 150
-0.271858 -0.153583 3.02467 73 112 96
-0.275085 -0.151607 3.03212 96 132 116
0.233126 -0.117219 3.02285 90 159 149
0.423966 -0.108768 3.0369 110 167 152
0.384949 -0.0906811 3.02391 124 189 167
0.432747 -0.0580855 3.02551 68 117 97
0.402212 -0.0537873 3.02634 126 188 172
0.420711 -0.0534589 3.02645 138 200 182
0.982927 -0.0488187 2.8817 96 150 120
0.987954 -0.040549 2.88058 117 181 152
1.01307 -0.0375025 2.87587 35 54 29
1.20563 0.0325822 2.88089 95 147 107
1.17283 0.041852 2.88653 118 176 148
0.370828 0.0444625 3.01787 122 183 163
1.14914 0.0421684 2.87625 29 46 32
1.17772 0.0518243 2.89029 36 52 35
0.457084 0.0600619 3.01053 176 225 193
1.17915 0.0617393 2.89072 86 131 105
0.403025 0.06861 3.02621 124 180 159
0.426799 0.0714422 3.00698 171 210 212
0.308374 0.0795983 3.02211 145 203 192
0.134679 0.0910542 3.02098 71 115 109
1.24586 0.0885946 2.86602 55 88 67
0.143722 0.0987561 3.01084 135 214 200
0.3802 0.0998743 3.01697 105 141 127
1.27274 0.100153 2.87111 86 136 112
0.411653 0.123895 3.00989 102 131 122
0.277001 0.127718 3.00858 131 188 173
1.12839 0.132891 2.87275 140 214 172
1.16683 0.134095 2.87072 147 241 184
1.14839 0.136295 2.86551 146 224 177
0.357802 0.144767 3.01385 80 111 102
0.366001 0.162447 3.01554 89 124 120
0.269948 0.164081 3.01194 144 205 191
0.201403 0.169061 3.00701 122 189 174
0.361837 0.18575 3.01198 131 194 178
0.392584 0.184874 3.00883 125 156 149
0.392584 0.193313 3.00906 65 77 65
0.206182 0.215524 3.00435 79 131 108
0.384568 -1.65131 3.01898 87 139 129
-1.19409 -1.71056 3.1379 155 212 204
-1.17762 -1.71211 3.13492 102 149 141
0.452222 -1.64119 3.0126 170 223 210
-1.16166 -1.69706 3.13821 104 138 131
-0.828906 -1.68979 3.11393 94 139 136
0.389302 -1.62898 3.02496 156 222 203
0.46549 -1.61446 3.01122 92 125 110
0.462854 -1.61218 3.01671 75 109 92
-1.21515 -1.67264 3.14496 114 135 137
0.474403 -1.60519 3.01182 107 162 135
0.441503 -1.60011 3.01619 158 219 199
-1.02612 -1.65776 3.13467 126 161 157
-0.872079 -1.64909 3.11711 116 152 146
0.329346 -1.6018 3.01985 96 151 134
-1.00251 -1.65252 3.12994 104 148 141
-0.877824 -1.63705 3.11578 113 158 149
-0.268133 -1.60827 3.06787 96 163 148
-0.0107229 -1.59243 3.05107 100 157 132
-0.0858086 -1.57956 3.0584 84 134 110
-0.956585 -1.58419 3.12127 118 166 148
1.6861 -1.48338 2.92602 74 105 104
0.177829 -1.51823 3.02314 111 171 153
0.767875 -1.49495 2.9931 98 149 145
1.68329 -1.46116 2.93456 100 130 131
1.31076 -1.47418 2.96299 74 131 123
1.6917 -1.45404 2.93641 156 194 188
0.851451 -1.43851 2.98633 111 145 151
0.222419 -1.44035 3.04017 91 166 150
0.749376 -1.40521 3.00234 93 133 122
0.993034 -1.40267 2.99021 100 146 140
1.45024 -1.37738 2.957 103 127 139
0.0112449 -1.4107 3.0572 99 163 127
-0.212328 -1.41063 3.06965 94 159 133
0.750316 -1.36711 3.00146 98 149 142
0.859747 -1.36745 2.99925 162 210 204
0.878013 -1.36062 3.01054 102 143 135
0.347272 -1.36538 3.03136 94 134 116
1.11254 -1.32353 2.99339 67 120 110
-0.0831412 -1.33933 3.06715 96 159 139
1.26397 -1.2941 2.98959 108 168 157
1.16151 -1.29332 3.00069 97 112 114
1.38025 -1.25338 2.98309 67 101 101
1.35425 -1.23614 2.98072 90 118 119
1.29074 -1.22676 2.98291 100 136 144
0.687555 -1.22292 3.01554 71 132 118
1.40802 -1.21134 2.98415 128 166 170
0.334058 -1.22117 3.04159 98 160 142
1.38056 -1.19831 2.98223 126 151 153
-0.829256 -1.23369 3.11112 99 129 124
0.689685 -1.18373 3.01891 169 221 214
-0.821974 -1.21473 3.10743 100 124 114
0.6248 -1.17986 3.02521 99 160 140
1.3984 -1.16564 2.9905 160 198 200
-0.860311 -1.19716 3.11312 90 114 102
-0.792289 -1.1835 3.103 106 123 119
-1.01722 -1.18383 3.12484 93 125 114
-0.573029 -1.17049 3.08224 86 135 119
-0.87237 -1.17316 3.11973 124 191 176
1.38565 -1.1255 2.99388 206 227 229
-0.778696 -1.16302 3.10605 97 118 110
-0.870804 -1.15348 3.10906 92 123 108
-1.02489 -1.15555 3.11857 94 121 117
-0.288413 -1.1419 3.08061 97 167 137
-0.243252 -1.13855 3.06983 73 127 110
-0.82135 -1.15139 3.11144 92 122 111
1.47374 -1.10302 2.97383 106 167 147
-0.894679 -1.14404 3.11239 198 229 232
0.260586 -1.1172 3.04868 90 151 137
1.53176 -1.06706 2.9379 110 157 141
-0.870817 -1.12834 3.11283 133 179 173
-0.813906 -1.12631 3.10854 100 114 108
-0.936273 -1.1175 3.10958 94 126 121
-0.892102 -1.10874 3.10928 146 174 174
1.50883 -1.04541 2.93163 114 153 138
1.52044 -1.04335 2.93324 43 66 61
-0.74989 -1.10093 3.10841 115 168 155
-0.617442 -1.098 3.09783 97 140 127
-0.596767 -1.08506 3.09255 118 172 167
0.685421 -1.00553 2.8619 66 89 67
1.45016 -1.04107 2.96609 54 87 73
-0.920886 -1.08259 3.10497 96 119 111
-0.714257 -1.07143 3.10025 152 206 193
-0.328952 -1.06106 3.06919 122 194 158
-0.623188 -1.0676 3.09772 103 157 144
1.4517 -1.01883 2.9748 52 69 55
-0.90988 -1.05936 3.10263 89 105 104
-0.690704 -1.05458 3.10008 106 141 131
-0.655556 -1.04598 3.09986 97 138 123
1.41524 -0.996141 2.96924 71 93 88
-0.946153 -1.03718 3.11036 143 199 200
-0.851133 -1.03681 3.109 188 226 231
-0.686864 -1.02996 3.09661 164 196 209
-0.65601 -1.02887 3.09812 136 202 183
0.48432 -1.00891 3.02672 99 139 128
-0.630683 -1.0205 3.09759 105 155 145
-0.383287 -1.01091 3.07749 98 162 127
0.5118 -1.00012 3.03916 146 203 200
0.475538 -0.985088 3.03781 69 94 74
0.513141 -0.984011 3.03429 90 137 121
1.41327 -0.956209 2.97162 65 120 95
-0.704419 -0.991629 3.0938 146 202 189
-0.752891 -0.98965 3.09696 109 124 116
-0.797959 -0.98606 3.10293 205 238 247
-0.625818 -0.980478 3.09444 103 136 129
1.49273 -0.919631 2.92946 114 153 137
-0.763772 -0.970896 3.1026 147 209 193
0.482685 -0.955459 3.04467 116 149 135
1.36817 -0.931978 2.97595 70 116 97
-0.891002 -0.971618 3.10471 163 216 213
1.39245 -0.930181 2.9782 41 77 53
0.434341 -0.94709 3.04065 83 110 100
-0.910712 -0.957195 3.10377 199 232 241
-0.87073 -0.954946 3.10284 160 206 200
-0.750619 -0.946243 3.09598 177 223 230
-0.661893 -0.941815 3.09455 107 153 140
1.58942 -0.877189 2.88013 73 136 116
0.0198342 -0.927213 3.0563 104 151 142
0.414083 -0.919711 3.03368 94 137 128
1.42876 -0.902796 2.97625 86 128 97
-0.846662 -0.933554 3.09166 87 130 117
-0.74314 -0.923252 3.09469 98 123 119
-0.834262 -0.923988 3.10123 91 114 106
-0.762414 -0.92052 3.09657 151 200 208
-0.23588 -0.90491 3.06454 94 151 126
-0.809423 -0.901731 3.08923 102 116 115
-0.790306 -0.907614 3.10435 113 128 120
0.789643 -0.818716 2.79425 46 70 58
0.779465 -0.813894 2.79989 128 189 161
-0.819115 -0.895199 3.09772 98 132 122
-0.768716 -0.887825 3.09454 102 142 141
-0.752477 -0.883919 3.09527 170 221 217
0.414869 -0.864 3.04879 120 147 131
0.378186 -0.855709 3.04388 106 149 136
-0.439704 -0.864659 3.08004 110 160 136
0.388775 -0.848137 3.0327 134 187 178
0.422156 -0.838142 3.0398 119 169 157
0.391743 -0.834283 3.04205 87 124 122
0.284122 -0.830917 3.04791 88 142 125
0.31227 -0.825126 3.04459 96 151 142
0.402111 -0.818239 3.04186 175 229 222
1.42504 -0.789423 2.94907 158 217 189
0.185824 -0.776184 3.05061 85 128 113
0.359428 -0.768469 3.04157 159 216 207
1.43136 -0.735718 2.94013 51 77 61
0.279887 -0.755694 3.04369 89 133 102
0.377056 -0.749307 3.05805 105 144 129
-0.571029 -0.738356 3.07841 102 157 138
0.379669 -0.729558 3.04565 113 139 123
0.25407 -0.72351 3.05061 153 213 202
-0.406981 -0.730128 3.07028 93 157 138
0.276688 -0.714851 3.04609 46 77 62
0.317441 -0.686849 3.04571 74 102 89
1.44588 -0.668972 2.94339 44 56 38
1.6108 -0.658127 2.90763 105 154 132
0.331503 -0.664173 3.04056 114 158 145
0.183899 -0.633227 3.04468 65 154 134
0.351618 -0.627092 3.03923 109 152 141
0.329291 -0.573069 3.03783 123 177 160
0.496492 -0.570621 3.04399 102 137 123
0.420363 -0.567659 3.04045 103 148 121
-0.364077 -0.562072 3.05533 92 159 127
0.487024 -0.554241 3.0375 60 82 70
0.331461 -0.551195 3.04266 47 86 70
0.388887 -0.548243 3.03744 129 185 164
-0.438194 -0.547873 3.06361 85 147 125
0.356263 -0.525259 3.03935 120 185 169
0.485903 -0.524572 3.04056 54 76 64
0.293535 -0.520384 3.04794 104 166 152
0.39528 -0.502476 3.03726 68 104 87
0.46426 -0.494541 3.04133 48 84 67
0.363156 -0.483711 3.04067 60 81 59
0.335331 -0.479646 3.0391 108 153 136
0.369112 -0.455992 3.04465 131 186 169
0.410199 -0.447559 3.03144 153 203 193
0.845641 -0.409266 2.77431 65 101 79
0.463454 -0.437299 3.04396 107 153 141
0.477316 -0.437998 3.03341 55 73 56
0.344829 -0.414247 3.03662 72 92 80
0.539167 -0.407989 3.03448 69 77 70
0.740825 -0.379378 2.81575 171 234 195
0.484114 -0.399077 3.03512 126 195 180
0.373293 -0.383818 3.03425 69 92 78
0.324671 -0.375536 3.03653 126 173 164
0.410027 -0.377161 3.02489 75 121 108
0.481323 -0.375077 3.02972 81 103 91
0.51872 -0.369225 3.00217 88 110 98
0.228464 -0.37069 3.03697 90 130 118
0.299935 -0.366084 3.03259 86 129 118
0.376058 -0.363664 3.04189 134 191 182
0.234271 -0.350959 3.03013 92 122 109
0.235631 -0.339464 3.03947 88 122 111
0.315309 -0.324607 3.02283 83 116 102
0.839471 -0.29786 2.81261 85 122 102
0.84382 -0.295142 2.82334 62 96 90
1.32538 -0.275999 2.69784 66 88 69
0.291163 -0.300131 3.03141 65 117 100
0.300043 -0.288577 3.0375 135 208 192
1.03969 -0.249738 2.85819 123 173 141
1.20487 -0.235027 2.74228 129 183 148
0.383127 -0.259376 3.0415 158 226 215
1.04568 -0.236522 2.8578 42 52 35
0.387745 -0.232913 3.03672 81 132 124
1.2744 -0.20807 2.70921 128 201 161
0.441725 -0.228141 3.0302 102 145 134
0.39376 -0.205441 3.03322 74 115 100
1.25976 -0.183765 2.71677 122 184 148
0.337238 -0.196709 3.02857 100 153 133
0.953041 -0.18192 2.86255 152 217 178
1.24335 -0.170364 2.73858 115 158 125
0.406111 -0.182983 3.02564 106 162 143
0.989826 -0.173965 2.87841 26 41 20
0.368123 -0.181591 3.03342 157 216 208
0.416799 -0.17376 3.02515 50 68 45
1.39634 -0.154053 2.74615 39 65 51
0.420866 -0.160249 3.01828 105 146 125
-0.268567 -0.153959 3.02923 96 135 120
1.40034 -0.14002 2.7328 131 190 159
0.251588 -0.139657 3.02978 97 150 141
0.386442 -0.120561 3.02489 169 224 215
0.390547 -0.102848 3.02871 79 121 104
0.46754 -0.0980973 3.04578 91 117 103
0.442773 -0.0913477 3.03382 148 217 204
-0.179815 -0.0724476 3.02586 96 160 148
0.385015 -0.0687266 3.02154 177 237 203
0.371897 -0.0634978 3.01048 150 216 181
0.396077 -0.0661202 3.03193 80 118 96
0.421079 -0.0533609 3.02673 118 181 161
1.05482 -0.0434656 2.85538 143 199 164
0.435178 -0.0261872 3.02288 105 163 152
1.16526 0.0193812 2.88591 139 201 161
0.36225 0.0341363 3.02477 79 109 96
1.20657 0.0338333 2.88523 100 156 115
1.36248 0.0328787 2.86112 45 64 39
1.17404 0.0421778 2.89223 100 165 133
1.1498 0.0425669 2.87733 37 50 36
1.44726 0.0452964 2.88858 46 83 63
1.13947 0.0448589 2.88466 108 189 140
0.380266 0.0562006 3.0176 119 174 157
1.14931 0.0603925 2.88317 58 105 79
1.43888 0.0574143 2.8825 155 240 195
0.403861 0.0670048 3.02077 99 156 135
1.09921 0.0650483 2.85722 68 115 83
1.18302 0.0716869 2.88833 28 36 26
1.2619 0.0862573 2.89295 57 83 65
0.134317 0.0903327 3.01901 77 121 115
1.14503 0.0905414 2.87367 70 117 85
1.22561 0.0917844 2.88632 112 169 144
0.302979 0.105829 3.01728 129 189 181
0.127319 0.113102 3.01239 86 136 126
1.21618 0.111782 2.85903 138 205 178
0.379038 0.121173 3.01609 115 160 151
1.13839 0.124196 2.87116 45 73 54
0.419961 0.131532 2.99972 60 70 54
1.12862 0.132932 2.87284 140 214 172
0.374204 0.147964 3.01507 137 190 180
0.265434 0.149523 3.01217 148 208 190
0.332892 0.167329 3.01368 136 201 186
0.279906 0.16691 3.0123 85 135 117
-0.277593 0.192449 3.00475 109 159 149
0.24429 0.190222 3.00675 88 137 121
0.464254 -1.61232 3.01763 99 136 120
1.41354 -1.53345 2.93872 69 86 75
0.180991 -1.5546 3.03431 106 175 155
-0.959637 -1.58839 3.13212 111 159 141
1.03558 -1.51521 2.98082 99 160 146
0.818974 -1.51242 2.98829 175 216 209
1.67894 -1.47703 2.92505 66 87 88
1.11132 -1.48402 2.97876 86 117 108
0.796481 -1.48786 2.99228 85 122 118
1.13347 -1.4774 2.97297 72 88 81
0.838532 -1.46992 2.99779 101 129 123
0.728101 -1.42932 3.00096 99 142 133
0.84599 -1.39992 2.99913 92 143 135
1.41786 -1.3588 2.97362 104 126 132
0.74524 -1.36827 3.00769 102 158 147
0.872176 -1.35741 3.00151 108 151 140
0.848672 -1.34508 2.98872 108 154 148
0.347866 -1.35843 3.04204 93 137 120
1.17594 -1.30361 2.98848 155 217 217
1.33552 -1.29277 2.98205 65 94 91
1.15583 -1.28595 2.98916 99 116 119
1.46593 -1.27718 2.9727 101 139 143
0.424028 -1.28332 3.03423 71 116 100
1.31863 -1.26042 2.98553 87 116 107
1.34939 -1.25471 2.98164 49 63 61
1.47081 -1.24749 2.97567 145 189 190
1.51082 -1.24623 2.97406 77 90 98
1.26295 -1.23605 2.98458 95 123 123
1.63104 -1.22994 2.97884 97 115 116
0.686049 -1.22513 3.01511 80 136 123
-0.862724 -1.19747 3.11726 103 141 129
-0.69352 -1.19515 3.09883 80 91 81
-0.840519 -1.18561 3.10381 151 207 202
-0.262509 -1.16199 3.06649 89 148 127
1.43875 -1.12622 2.9815 155 205 203
-0.842828 -1.16956 3.11869 81 111 98
-0.715838 -1.16112 3.10029 76 100 88
1.52575 -1.09961 2.94006 35 61 48
-0.89266 -1.14651 3.10902 193 229 235
-0.84251 -1.15055 3.11499 127 173 161
-0.773603 -1.14078 3.10979 89 127 115
-1.02959 -1.13958 3.11579 91 119 113
-0.748994 -1.13573 3.11068 136 196 185
-0.978522 -1.12907 3.12233 168 217 215
-0.922139 -1.11677 3.11348 161 201 199
1.44631 -1.07046 2.97737 126 179 146
-0.697636 -1.10471 3.10155 98 139 134
-0.984258 -1.09886 3.09239 119 167 155
-0.733636 -1.10113 3.09741 80 99 82
1.3989 -1.05172 2.98352 130 186 163
1.60006 -1.01346 2.8759 46 82 58
-0.921642 -1.08692 3.10217 103 127 117
-0.843033 -1.09187 3.1086 80 116 102
0.683049 -1.0098 2.87161 67 90 68
1.61979 -0.999129 2.84594 112 161 133
-1.02151 -1.082 3.11313 122 156 149
-0.614838 -1.0627 3.09269 124 177 164
-0.900522 -1.06198 3.11208 212 237 247
1.44272 -1.00647 2.94778 48 66 49
-0.910606 -1.05659 3.10447 83 110 107
1.40886 -1.00007 2.95613 80 117 107
-0.950211 -1.0452 3.10369 115 156 149
1.53201 -0.987513 2.9613 161 212 192
0.485715 -1.00895 3.03604 82 119 109
0.558901 -1.00937 3.03057 85 143 125
1.47885 -0.975725 2.9432 136 204 179
1.66723 -0.938281 2.8504 42 56 44
-0.357086 -1.00752 3.07727 85 123 101
0.461007 -0.989916 3.03631 79 110 89
0.544176 -0.994862 3.03899 63 96 75
0.499555 -0.981563 3.0376 118 174 163
-0.0462361 -0.986608 3.06426 86 145 125
1.43217 -0.954251 2.96449 58 90 65
0.527334 -0.971544 3.03945 91 139 115
-0.843721 -0.977188 3.09875 81 121 109
-0.427278 -0.96975 3.08484 96 144 126
0.436583 -0.95194 3.0414 94 115 107
1.4118 -0.931581 2.97593 152 215 175
1.49503 -0.919501 2.93491 108 145 129
-0.692543 -0.947684 3.08651 201 230 239
1.41003 -0.908171 2.95961 53 80 60
-0.750953 -0.946306 3.09404 167 214 222
0.717251 -0.850432 2.7789 141 192 165
-0.492214 -0.9101 3.07545 106 157 137
0.410135 -0.900297 3.03927 145 202 193
1.40948 -0.875508 2.98082 157 233 199
1.40706 -0.875626 2.97945 150 230 193
-0.817718 -0.895337 3.09333 107 133 127
0.387357 -0.885409 3.05207 102 137 123
0.744652 -0.804085 2.78559 130 180 150
-0.796522 -0.889993 3.0934 193 223 234
-0.729663 -0.886228 3.08939 99 128 119
1.44156 -0.840351 2.96612 160 229 196
-0.44046 -0.865272 3.07794 116 167 140
1.46942 -0.834661 2.96143 127 187 157
1.38609 -0.832425 2.97553 95 126 117
0.420228 -0.819329 3.03713 138 191 182
0.356135 -0.786741 3.05451 115 148 134
1.42423 -0.755717 2.9356 54 64 52
-0.426453 -0.780849 3.07518 105 168 148
0.354528 -0.765792 3.04161 127 180 170
0.278582 -0.753454 3.04108 65 110 83
0.356354 -0.736589 3.0452 137 199 187
1.43523 -0.707549 2.94724 41 54 40
1.46553 -0.708349 2.9201 92 153 115
0.208853 -0.719834 3.04933 107 160 147
0.275787 -0.715227 3.04228 60 87 71
0.326007 -0.715151 3.05195 71 97 91
-0.282333 -0.708211 3.05583 108 174 155
1.44892 -0.669211 2.93284 43 54 38
0.32338 -0.686768 3.04311 78 86 75
0.306333 -0.675012 3.04267 124 189 168
0.328141 -0.663986 3.04422 103 141 129
0.360753 -0.657485 3.04347 99 139 128
0.30451 -0.634764 3.03684 69 105 91
0.328621 -0.620805 3.04318 132 200 193
0.301111 -0.574968 3.04522 92 137 121
0.325528 -0.567524 3.04479 108 168 157
0.417532 -0.56718 3.04113 77 119 96
0.493116 -0.568918 3.04024 92 124 113
0.466595 -0.550372 3.04375 96 151 142
0.365383 -0.548407 3.04139 64 103 78
0.389191 -0.547879 3.0399 131 187 166
0.434363 -0.547233 3.04152 116 169 159
0.484729 -0.532321 3.0391 59 73 61
0.414248 -0.524218 3.04159 118 174 163
0.178995 -0.506313 3.04295 141 197 192
0.468074 -0.500316 3.04507 74 100 86
0.555384 -0.473285 3.01311 52 74 49
0.828714 -0.428574 2.75784 198 248 236
0.39385 -0.464019 3.04 56 83 67
0.538958 -0.454418 3.03225 125 143 142
0.564406 -0.437194 3.02206 123 149 133
0.266011 -0.423627 3.04412 73 116 101
0.466571 -0.414271 3.03691 50 85 65
0.722409 -0.380367 2.82578 50 77 57
0.273824 -0.404734 3.03931 127 194 179
0.347138 -0.404429 3.03855 109 153 152
0.546796 -0.392675 3.00404 96 128 117
0.252715 -0.383216 3.03928 73 118 99
0.30907 -0.380694 3.05205 71 95 83
0.366569 -0.382864 3.03381 72 93 78
0.40459 -0.381852 3.03638 57 90 76
0.318453 -0.373565 3.04166 132 179 170
0.864174 -0.345714 2.80376 149 211 195
0.377245 -0.364888 3.03567 148 200 193
0.460145 -0.363366 3.03411 141 207 196
0.846717 -0.329131 2.8208 48 62 51
0.235722 -0.341223 3.03883 85 117 106
0.310726 -0.326711 3.03145 77 112 98
0.263405 -0.317801 3.03621 94 127 120
0.365261 -0.317974 3.03554 75 107 96
0.440278 -0.291062 3.03939 65 85 73
0.76313 -0.269113 2.82926 154 195 187
0.312917 -0.280492 3.03395 87 119 108
1.26481 -0.252896 2.7276 120 178 149
1.27954 -0.246173 2.71872 69 106 86
0.483715 -0.270178 3.03888 95 121 108
0.888449 -0.255457 2.84754 28 43 35
1.27026 -0.227585 2.68425 145 210 178
0.989775 -0.234257 2.86562 132 193 157
0.835563 -0.221107 2.84815 165 220 217
0.978824 -0.204505 2.88159 152 215 176
1.2304 -0.196282 2.72258 58 75 54
0.919472 -0.200481 2.88343 42 69 49
1.39947 -0.173001 2.73148 113 166 133
1.1034 -0.17332 2.87743 93 122 99
0.966254 -0.169401 2.86159 169 224 199
1.41694 -0.14928 2.73044 73 109 92
0.417818 -0.156772 3.02674 121 183 167
0.393239 -0.137736 3.03052 92 147 128
1.34719 -0.127152 2.74853 129 200 173
0.410546 -0.0767774 3.0229 69 101 76
0.445029 -0.0721152 3.02253 114 176 162
1.03152 -0.0506391 2.87484 55 58 36
0.433693 -0.0467583 3.02575 67 91 79
1.29112 -0.00353841 2.87414 99 127 104
1.05884 0.0239249 2.8567 177 225 199
1.16318 0.0197992 2.88621 122 185 145
1.23142 0.0199739 2.86739 103 146 113
0.362458 0.0334047 3.02257 78 109 94
1.36591 0.0354107 2.86814 41 61 38
0.432013 0.0440778 3.01391 145 174 178
1.14981 0.0460393 2.88534 49 80 59
0.254021 0.0623866 3.01632 141 205 199
0.185823 0.0862697 3.01399 71 112 104
1.22584 0.0771062 2.89526 36 45 32
1.28906 0.0880193 2.88244 44 61 40
0.29977 0.110202 3.0136 119 184 175
0.125998 0.116155 3.01552 83 124 116
1.23789 0.107543 2.85068 113 184 157
