ply
format ascii 1.0
element vertex 955
property float x
property float y
property float z
property uchar blue
property uchar green
property uchar red
end_header
0.680197 -0.845838 3.34028 139 181 163
1.5503 -0.731204 3.35905 114 156 155
-0.243185 -0.630192 3.32559 100 148 120
0.871302 -0.457897 3.38093 104 144 139
0.674628 -0.334541 3.39396 103 151 133
-0.307741 -0.314637 3.25362 65 112 96
0.300767 -0.0614362 3.3081 71 129 105
0.218277 0.0904806 3.26061 151 211 187
0.331659 0.160179 3.3011 72 126 109
1.36509 0.568104 4.78171 151 209 181
0.160933 -1.54803 3.31265 165 194 198
0.255175 -1.53656 3.31086 171 202 205
0.444504 -1.23941 3.30386 81 98 101
0.434899 -1.22997 3.30567 182 223 216
0.44172 -1.14789 3.31489 127 162 172
0.714847 -0.89209 3.33216 103 134 133
1.06991 -0.884427 3.33716 86 116 117
1.05122 -0.830183 3.32624 141 170 161
0.667499 -0.816349 3.34357 104 132 132
0.702581 -0.772115 3.32006 119 143 133
0.698364 -0.749804 3.3302 162 208 196
1.2727 -0.748453 3.34672 88 117 124
-0.0646154 -0.70781 3.33799 102 136 130
-0.0743393 -0.644939 3.33681 105 158 131
0.164469 -0.588096 3.33439 96 142 129
0.649373 -0.582148 3.36078 120 169 161
0.111514 -0.503719 3.34762 179 221 214
0.764188 -0.446054 3.37916 173 208 204
0.0749184 -0.331622 3.24289 141 215 181
0.840634 -0.333518 3.3945 176 209 205
0.0452455 -0.304832 3.22926 80 160 129
0.801891 -0.297456 3.39512 86 126 114
0.0580746 -0.270034 3.23704 135 212 178
0.77199 -0.219423 3.40706 116 155 153
0.0303146 -0.172155 3.26342 83 131 105
0.718106 -0.144197 3.4152 65 106 98
0.182014 -0.0664421 3.28343 75 155 132
0.647866 -0.0365469 3.41091 106 136 137
-0.210856 -0.0278895 3.20548 124 196 166
0.0944284 -0.00943741 3.2458 74 129 120
0.0951231 -0.00222157 3.2395 169 222 213
0.108018 0.0163173 3.23984 77 131 108
0.194126 0.0347455 3.26204 86 138 121
0.154209 0.108876 3.28978 94 181 143
0.427704 0.120793 3.37028 78 143 118
0.844976 0.136928 3.44749 81 133 115
0.871749 0.188099 3.43644 136 202 177
0.490866 0.19503 3.43325 137 176 204
0.755179 0.1945 3.4317 81 140 119
0.66224 -1.88367 3.26907 97 153 148
0.126911 -1.66179 3.30576 135 192 183
0.0493074 -1.5888 3.31231 164 207 196
0.171192 -1.55647 3.31365 120 144 136
-0.016874 -1.56223 3.32817 113 149 157
0.840808 -1.5314 3.28143 122 163 172
0.0510618 -1.54237 3.32296 140 178 190
0.0786719 -1.533 3.32126 114 162 168
0.175336 -1.50982 3.31234 191 232 234
0.286026 -1.49025 3.30796 152 186 202
0.265722 -1.47314 3.32677 168 211 208
0.319913 -1.4373 3.31213 159 198 206
0.176263 -1.41427 3.32383 167 206 204
0.363432 -1.38437 3.30587 157 191 184
0.447026 -1.27089 3.28969 130 174 161
0.48886 -1.27019 3.28773 122 166 153
0.35125 -1.26677 3.31314 127 186 182
0.497717 -1.25401 3.29629 84 127 114
0.383526 -1.26092 3.31703 97 124 114
0.935618 -1.25031 3.29688 237 252 255
0.439377 -1.23519 3.31308 186 227 230
0.46147 -1.21463 3.31286 123 150 146
0.476851 -1.20573 3.29713 88 108 89
0.452178 -1.20594 3.30501 176 209 212
0.819437 -1.20881 3.32006 108 133 135
1.59478 -1.15678 3.28485 123 163 158
1.8357 -1.15503 3.27696 200 230 231
0.441609 -1.15052 3.31313 124 156 161
0.442865 -1.15085 3.32048 125 161 169
0.523233 -1.10485 3.32877 123 175 188
0.206267 -1.09234 3.32141 230 251 253
0.810025 -1.04883 3.31526 114 145 144
1.12328 -1.04839 3.3187 173 226 216
0.7788 -1.03509 3.32851 98 106 105
0.848356 -1.02129 3.30646 105 133 134
0.77186 -1.02043 3.32539 161 208 200
0.814823 -1.01801 3.32587 184 215 214
0.54674 -1.01439 3.33282 141 181 186
0.983821 -1.00137 3.31638 93 142 134
0.980013 -0.995388 3.3203 166 223 208
1.44681 -0.989743 3.31714 109 141 140
1.84063 -0.978214 3.29878 81 124 113
0.905776 -0.968068 3.31251 106 147 139
1.11437 -0.942002 3.30555 122 161 136
1.04589 -0.933055 3.33011 146 192 180
1.07609 -0.9071 3.32475 134 167 163
0.714574 -0.892115 3.33157 103 134 133
1.08397 -0.886051 3.32444 102 129 120
1.39337 -0.886109 3.32627 108 151 136
0.653218 -0.884413 3.34006 157 222 206
0.703336 -0.877009 3.33933 102 148 135
1.1709 -0.851206 3.31961 137 211 193
0.437113 -0.853687 3.34183 190 236 237
1.74469 -0.844831 3.32654 108 144 114
1.05929 -0.837643 3.32963 91 114 109
1.05088 -0.830263 3.32447 142 172 161
1.03955 -0.824685 3.33303 142 202 184
1.15661 -0.825399 3.33559 79 101 99
1.17343 -0.821714 3.3214 137 192 165
0.713113 -0.801056 3.31204 78 137 122
1.17621 -0.800369 3.32725 164 201 197
1.69743 -0.802987 3.34753 110 149 151
1.48854 -0.793121 3.34908 196 234 228
1.76556 -0.774425 3.35825 155 204 196
0.149684 -0.764707 3.342 234 253 255
0.757643 -0.755876 3.30609 143 185 162
1.79291 -0.751691 3.36138 76 110 116
1.52868 -0.744519 3.35252 116 166 156
1.5287 -0.744679 3.34971 90 146 133
-0.311297 -0.734883 3.31931 101 149 120
1.44762 -0.738475 3.35299 91 126 116
-0.29574 -0.724843 3.31409 72 125 98
1.60322 -0.73014 3.35794 54 70 59
0.62935 -0.727811 3.35408 106 163 155
0.645653 -0.725051 3.35101 91 132 125
0.798351 -0.716088 3.31244 69 105 88
0.0611082 -0.718828 3.33743 112 164 157
0.092717 -0.71616 3.33579 105 152 144
1.98779 -0.719624 3.36502 89 121 126
1.55618 -0.708693 3.35717 95 141 129
1.71173 -0.672755 3.36378 89 133 126
-0.214162 -0.657708 3.30054 138 211 173
1.68221 -0.667852 3.36584 91 143 133
-0.05547 -0.653995 3.33142 114 158 151
-0.0743193 -0.644874 3.33741 92 147 122
1.98205 -0.646932 3.37794 104 141 125
1.07113 -0.639819 3.35426 101 147 141
1.62379 -0.631304 3.36744 111 150 142
1.67251 -0.632044 3.37601 139 177 179
1.84969 -0.626418 3.37025 153 202 188
1.61293 -0.609134 3.36752 99 142 133
0.397385 -0.599275 3.36803 92 153 143
0.0918697 -0.590548 3.33016 95 144 128
0.701328 -0.58628 3.3611 75 105 86
-0.125266 -0.577207 3.3311 88 155 124
1.67725 -0.580819 3.38757 139 162 164
-0.301859 -0.553989 3.26727 87 156 129
1.48939 -0.571675 3.37622 146 166 171
1.09742 -0.570287 3.37374 126 166 164
-0.324345 -0.548955 3.27254 99 163 144
0.117462 -0.560432 3.33973 147 174 178
1.11089 -0.564244 3.36855 123 157 157
1.23748 -0.537808 3.37528 99 132 135
0.775667 -0.528793 3.36691 116 159 150
2.05213 -0.535516 3.40452 94 120 114
1.68266 -0.532322 3.39975 111 143 148
1.01448 -0.521293 3.38063 104 144 133
-0.183219 -0.501309 3.31963 92 129 119
0.663128 -0.506553 3.37178 111 163 153
1.95478 -0.505692 3.41556 92 122 127
1.36997 -0.496034 3.38858 87 112 108
1.91598 -0.493533 3.417 73 90 87
2.0671 -0.490574 3.42835 101 144 141
1.70697 -0.482182 3.4039 203 228 232
0.750049 -0.476354 3.37436 77 140 114
1.02395 -0.465532 3.36303 148 210 188
1.84209 -0.472345 3.41694 189 218 223
0.78566 -0.461667 3.37626 98 133 129
0.75828 -0.454773 3.37652 166 190 190
0.691133 -0.442059 3.38148 100 155 152
0.761373 -0.419399 3.37462 157 227 204
1.73994 -0.42519 3.41709 54 91 81
0.246793 -0.409485 3.34973 106 142 142
0.779691 -0.405137 3.38682 81 129 117
0.00486395 -0.372732 3.23134 83 149 130
0.870252 -0.385191 3.38665 94 134 123
0.837478 -0.362296 3.394 99 123 121
-0.00477004 -0.339512 3.21428 92 164 141
0.0926596 -0.33863 3.24779 151 223 187
1.76068 -0.35456 3.4048 113 192 159
-0.0136667 -0.329849 3.21723 71 135 113
1.72801 -0.34781 3.39734 112 198 156
0.0749227 -0.32769 3.24616 86 160 126
0.817226 -0.342456 3.39111 124 155 154
0.351909 -0.337244 3.37113 130 160 161
0.840071 -0.333378 3.39537 189 222 218
0.371595 -0.314821 3.35584 131 174 161
0.795963 -0.309731 3.4004 166 221 204
-0.288987 -0.29106 3.25553 115 154 122
0.848373 -0.306399 3.40593 143 183 171
0.80311 -0.296736 3.39854 86 126 114
0.129803 -0.276968 3.20872 57 103 84
0.353678 -0.292377 3.3742 112 152 147
0.0757332 -0.278482 3.24636 137 200 168
0.292749 -0.281908 3.34767 112 162 162
0.0706136 -0.263642 3.25304 66 114 90
0.375931 -0.272723 3.37678 166 199 202
0.731699 -0.266894 3.39201 104 138 132
0.381759 -0.265666 3.38108 107 138 139
0.39163 -0.264093 3.38023 165 204 196
-0.0127707 -0.242881 3.2197 146 233 197
0.815706 -0.256524 3.4055 61 126 104
0.930764 -0.248647 3.41573 175 219 212
0.141452 -0.227247 3.18274 113 180 153
0.583798 -0.216411 3.40033 68 100 95
0.709228 -0.215412 3.40803 166 212 206
1.04662 -0.214557 3.42727 169 210 202
-0.184973 -0.196159 3.1778 129 213 184
-0.0251278 -0.191415 3.23961 87 160 134
1.82245 -0.201438 3.42724 158 197 171
0.104541 -0.180405 3.1624 159 226 195
0.746164 -0.187369 3.40449 110 136 142
0.0299693 -0.1715 3.2659 81 136 111
-0.0557659 -0.148382 3.23298 86 163 129
-0.146366 -0.145473 3.22413 57 109 85
0.789967 -0.152791 3.40245 98 139 124
0.565134 -0.151078 3.39657 114 156 155
-0.0591368 -0.141987 3.24438 52 111 80
0.438883 -0.12305 3.40152 94 150 139
0.692244 -0.105648 3.41803 185 231 218
0.470296 -0.099942 3.40605 127 179 172
1.06817 -0.0930879 3.41691 60 112 95
0.458345 -0.0796756 3.39664 133 195 183
0.543804 -0.0804873 3.40671 93 131 125
1.6863 -0.0795199 3.45016 108 139 130
1.59198 -0.068257 3.4621 138 191 171
0.299206 -0.0612817 3.30989 62 116 93
0.314332 -0.0626589 3.30957 74 142 117
0.653521 -0.0540614 3.413 128 167 169
0.312017 -0.0517071 3.31123 97 169 149
0.648253 -0.0358544 3.41338 103 134 137
0.247432 -0.0213817 3.29984 104 163 125
0.0942312 -0.00905464 3.24708 75 127 117
0.317474 -0.00964391 3.28808 87 157 144
0.307038 -0.0006781 3.29444 172 222 220
1.65508 0.0139379 3.44429 77 106 90
0.0870799 0.0244012 3.25642 117 159 141
0.114737 0.0245108 3.24256 126 197 170
0.13124 0.02623 3.24188 64 98 87
0.184022 0.0242479 3.25686 164 248 213
0.098149 0.0341615 3.25227 121 199 162
0.637637 0.0429488 3.42511 96 121 117
0.666658 0.0599704 3.42552 150 206 195
0.190722 0.0687791 3.27623 47 74 54
1.92734 0.0782979 3.52251 145 208 169
0.66959 0.0937676 3.4244 143 206 186
0.154264 0.109027 3.29023 94 181 143
1.79539 0.130626 3.51227 70 105 101
0.792455 0.135419 3.42403 144 193 165
0.680622 0.142677 3.41697 107 133 120
0.905989 0.154468 3.44661 88 101 85
0.281402 0.149699 3.30096 158 229 212
0.808162 0.163093 3.44211 102 133 124
0.850709 0.173875 3.43813 150 199 179
0.791652 0.18269 3.43331 62 97 83
0.662908 -1.88422 3.27111 101 157 152
1.23894 -1.74072 3.2123 73 155 137
0.889592 -1.68365 3.26348 121 161 166
0.148643 -1.65639 3.29569 139 218 185
0.74049 -1.60259 3.27709 107 160 151
0.742841 -1.58788 3.28914 111 175 170
0.120441 -1.59073 3.30873 122 155 151
0.0489066 -1.58872 3.31178 170 213 202
0.0592119 -1.58835 3.3144 91 114 106
-0.0166139 -1.56201 3.32697 111 146 150
0.0678201 -1.54205 3.31673 112 168 169
0.173359 -1.5114 3.31604 186 225 227
1.3353 -1.47934 3.24198 107 152 155
-0.192564 -1.51369 3.33968 248 253 255
1.25388 -1.47163 3.25522 109 163 163
0.248489 -1.48307 3.31859 171 207 215
0.237941 -1.43423 3.31605 188 219 220
0.0207768 -1.4302 3.32712 112 135 127
0.19138 -1.42829 3.3201 153 196 193
0.218487 -1.41977 3.32057 171 209 213
0.234709 -1.42328 3.33214 86 112 106
0.174296 -1.41345 3.32394 167 209 208
0.308221 -1.40889 3.31614 90 115 111
0.363231 -1.38475 3.30897 161 195 188
0.75151 -1.31411 3.29459 122 162 157
0.209811 -1.31806 3.32223 93 123 124
0.468389 -1.28922 3.27625 165 214 194
1.23395 -1.26856 3.28234 142 174 179
0.995927 -1.26421 3.29541 134 185 188
0.383853 -1.25385 3.31077 107 144 136
0.425465 -1.24944 3.30009 167 212 196
0.369845 -1.24829 3.31307 213 245 244
0.446372 -1.23996 3.30377 70 80 87
0.423635 -1.21914 3.30879 183 223 222
0.453353 -1.208 3.31495 187 216 220
0.819017 -1.2041 3.31059 112 138 144
0.537727 -1.20312 3.31361 70 110 92
1.59049 -1.15543 3.29105 125 167 166
1.83004 -1.14624 3.27878 109 123 121
0.433733 -1.14705 3.32235 214 242 249
0.807701 -1.12558 3.30756 97 105 105
0.967808 -1.11507 3.3043 130 170 168
0.203816 -1.09293 3.32302 209 234 236
1.53208 -1.08408 3.29702 222 243 245
1.59766 -1.06358 3.29746 151 173 178
1.56592 -1.0563 3.28943 149 177 184
0.998478 -1.03963 3.31759 183 222 220
1.01643 -1.04101 3.31485 167 211 205
0.774087 -1.03108 3.32938 93 98 107
0.962703 -1.00406 3.31795 124 165 158
1.03465 -0.993609 3.30579 49 63 51
1.72945 -0.988172 3.29886 96 107 104
1.52946 -0.979502 3.2994 105 129 117
1.01544 -0.978789 3.31865 73 88 84
0.905271 -0.968086 3.31141 109 150 142
1.74717 -0.966991 3.29796 85 103 96
0.899373 -0.957371 3.31126 157 216 196
1.07548 -0.946777 3.32128 136 175 160
1.05296 -0.936876 3.33119 129 171 160
1.11236 -0.926836 3.30604 128 176 152
1.63744 -0.92925 3.31428 154 203 201
1.70742 -0.929855 3.32116 97 134 130
0.711982 -0.933262 3.3526 90 138 126
1.05991 -0.917878 3.33217 155 196 191
1.79493 -0.907588 3.31105 142 178 172
1.62691 -0.891813 3.32215 116 151 155
1.56085 -0.890025 3.32759 153 188 184
1.28255 -0.884734 3.31217 134 188 165
1.39612 -0.883334 3.32659 104 128 128
1.04518 -0.877414 3.32802 109 144 134
1.27532 -0.870634 3.32211 55 101 79
0.676078 -0.874627 3.34118 121 162 154
0.701059 -0.875125 3.34226 106 147 139
1.71846 -0.870017 3.3407 80 102 97
1.42755 -0.865889 3.3282 156 221 189
1.91429 -0.846689 3.32758 122 151 156
0.674584 -0.847591 3.33673 94 120 107
1.57067 -0.83065 3.31862 147 203 190
1.7221 -0.82106 3.33677 138 186 174
0.604125 -0.810225 3.34673 107 170 160
1.15997 -0.810927 3.32835 159 188 192
1.48603 -0.804685 3.33754 168 202 201
1.17511 -0.800397 3.33238 178 208 213
1.3397 -0.802814 3.33418 169 220 206
1.25767 -0.796247 3.33568 169 227 202
1.619 -0.796544 3.345 45 64 55
1.48747 -0.79321 3.34802 202 238 232
1.04015 -0.78333 3.33334 128 190 172
0.704448 -0.780002 3.32234 102 140 122
1.08915 -0.781068 3.33862 93 118 114
1.75323 -0.786844 3.36077 157 199 192
1.75591 -0.778695 3.36344 115 140 144
1.76792 -0.774129 3.3627 157 208 200
1.68804 -0.762355 3.35108 100 134 134
1.46156 -0.75088 3.34062 112 129 138
1.70629 -0.747344 3.3568 97 127 122
1.46908 -0.733078 3.33847 82 109 105
1.81892 -0.728434 3.35921 92 140 128
-0.253664 -0.715537 3.30942 105 145 134
0.0602635 -0.718925 3.33672 124 175 168
0.660137 -0.712717 3.3573 77 111 101
-0.223133 -0.697508 3.29291 119 177 142
0.157788 -0.700321 3.3356 136 181 178
1.70202 -0.695385 3.37516 97 121 121
1.557 -0.685903 3.36825 102 129 133
1.59761 -0.675429 3.37674 106 132 138
-0.0936393 -0.644227 3.33247 101 169 146
1.52926 -0.628229 3.36264 191 230 222
-0.162427 -0.618923 3.3289 154 214 184
1.74453 -0.629823 3.37716 124 184 176
1.85022 -0.626338 3.37092 153 202 188
1.27311 -0.610248 3.3757 80 119 111
1.61293 -0.609133 3.36753 99 142 133
1.73042 -0.609563 3.37607 163 215 205
0.153288 -0.589118 3.32901 123 163 152
0.703822 -0.595477 3.36019 154 203 189
-0.163227 -0.583063 3.32337 104 139 129
-0.0708728 -0.573043 3.3379 87 114 105
0.612578 -0.57625 3.36964 94 147 138
1.676 -0.580071 3.38396 139 162 164
2.04561 -0.571954 3.3935 134 192 181
0.827555 -0.552513 3.3539 163 227 205
-0.198107 -0.535724 3.31141 104 156 133
0.739638 -0.539909 3.36103 88 115 105
1.29661 -0.541591 3.37699 154 203 195
2.04904 -0.547882 3.40921 146 203 188
1.02582 -0.524169 3.37775 177 214 206
-0.340647 -0.502024 3.24727 126 196 160
1.104 -0.519794 3.37018 170 229 209
0.674497 -0.512098 3.36122 183 223 222
0.81285 -0.500932 3.3776 99 143 136
0.650951 -0.489329 3.37197 95 112 109
1.94456 -0.495515 3.4012 160 194 184
1.35931 -0.485695 3.38106 100 121 122
1.91619 -0.491312 3.41767 71 91 86
1.03044 -0.480013 3.36205 57 99 82
0.747253 -0.478309 3.37013 82 140 115
0.643737 -0.471063 3.37659 106 146 145
0.761808 -0.47169 3.37539 190 234 233
0.171527 -0.455703 3.34363 163 214 200
0.869964 -0.462476 3.39639 178 219 221
0.729872 -0.452029 3.38258 68 95 91
0.682467 -0.447979 3.384 156 210 205
0.838921 -0.443419 3.3824 134 159 163
1.70688 -0.44734 3.41428 130 147 156
0.705073 -0.430759 3.38184 110 145 149
0.785819 -0.431331 3.39251 85 165 142
0.74764 -0.426615 3.38869 165 222 221
0.895621 -0.415959 3.35117 60 72 66
0.892259 -0.412389 3.37866 115 147 130
0.765088 -0.409124 3.38677 94 129 115
0.755829 -0.401597 3.37889 89 125 119
0.852218 -0.391986 3.38659 124 155 156
0.779258 -0.390894 3.38977 167 216 208
0.661661 -0.381049 3.39066 125 163 165
2.06404 -0.385641 3.4502 105 157 150
0.0954409 -0.329648 3.24269 68 119 91
0.852507 -0.347002 3.39039 188 216 216
0.718445 -0.342165 3.3804 115 133 132
0.852379 -0.336094 3.38971 98 108 102
0.1104 -0.302066 3.21708 104 152 126
0.352654 -0.310222 3.36181 144 174 169
0.0990722 -0.294596 3.22593 121 179 154
0.0679205 -0.288451 3.24974 68 127 99
0.10683 -0.285915 3.2249 62 102 74
0.823113 -0.280438 3.39965 65 107 82
0.793215 -0.283013 3.40816 130 189 175
1.29904 -0.281657 3.42523 122 138 131
-0.0718787 -0.235231 3.23379 88 166 142
0.784426 -0.248161 3.39271 114 157 160
0.928953 -0.24766 3.41934 168 216 210
-0.0333993 -0.230614 3.24308 71 131 100
-0.0324196 -0.214456 3.23011 66 121 94
0.576113 -0.222995 3.40163 141 188 186
0.710234 -0.214758 3.4108 166 209 206
1.03007 -0.211453 3.4269 177 217 212
1.02706 -0.202573 3.41707 78 121 112
0.114443 -0.179725 3.16318 76 114 92
0.818221 -0.172582 3.40035 100 160 142
0.848186 -0.152592 3.40273 177 243 224
-0.0590329 -0.142046 3.24414 52 111 80
-0.0157976 -0.13864 3.23806 61 156 119
1.84943 -0.0967811 3.45965 144 209 170
0.566473 -0.088926 3.40864 105 166 156
-0.0664528 -0.0821852 3.25832 56 77 55
0.543176 -0.0806561 3.40616 93 131 125
1.68736 -0.0812449 3.44828 117 143 137
1.58867 -0.0531128 3.46945 154 211 180
0.530264 -0.0470915 3.41154 92 148 149
1.8545 -0.0414335 3.47521 97 134 126
0.646722 -0.034176 3.41257 99 136 132
0.845205 -0.0223493 3.41661 153 213 189
0.0863461 -0.0124383 3.25851 128 178 160
0.810523 -0.00285776 3.40558 131 185 155
1.59123 0.000691041 3.46472 63 87 77
0.135121 0.0144166 3.24884 97 147 135
0.750456 0.0220439 3.41286 170 235 213
0.0869481 0.0231456 3.25242 118 160 142
0.119475 0.0221837 3.24045 171 242 225
0.755489 0.0252152 3.40833 115 182 145
0.188036 0.0365392 3.26858 50 88 70
0.254154 0.0475262 3.28503 180 246 217
0.61225 0.0476214 3.42957 104 143 141
0.207825 0.0510681 3.26527 58 126 103
1.39284 0.0765546 3.45645 80 132 114
1.62219 0.0793798 3.48866 43 58 50
0.254645 0.0910751 3.28364 111 176 151
0.69677 0.0933797 3.42106 84 128 115
0.526486 0.115546 3.43644 103 147 141
0.526375 0.115348 3.43583 103 147 141
0.80609 0.127602 3.44689 59 89 76
0.652857 0.130393 3.42655 192 233 218
0.804693 0.165519 3.43346 117 151 141
0.732352 0.16638 3.43222 69 107 101
0.851049 0.173921 3.43823 150 199 179
1.22994 -1.69062 3.22586 152 213 203
0.243578 -1.66705 3.26288 128 156 150
0.0687902 -1.67445 3.31365 115 153 141
0.987271 -1.63959 3.26063 167 228 218
0.0528985 -1.62139 3.31509 129 190 180
0.96727 -1.589 3.26453 90 143 140
0.044509 -1.59787 3.30847 109 150 143
0.145962 -1.58417 3.3045 89 125 113
0.147854 -1.57411 3.31565 155 202 194
-0.00179766 -1.55403 3.32129 210 239 248
0.032065 -1.54932 3.31718 112 148 148
1.33889 -1.50079 3.23969 98 149 141
1.33595 -1.47924 3.24157 107 155 157
0.914321 -1.48319 3.28288 133 164 167
1.6455 -1.4298 3.23121 72 108 96
0.186742 -1.44679 3.32404 111 125 121
0.216433 -1.44637 3.32322 189 223 229
0.234811 -1.41943 3.32153 89 108 105
0.258077 -1.41794 3.31968 107 152 155
0.186387 -1.4146 3.33014 84 109 99
1.07242 -1.36308 3.27924 122 178 167
0.216145 -1.36695 3.32012 166 220 213
0.354052 -1.33036 3.31077 104 127 122
0.210652 -1.31839 3.32591 101 131 132
0.122777 -1.31109 3.32771 180 215 219
0.332362 -1.28864 3.32641 116 176 166
0.511438 -1.27628 3.30081 128 156 150
0.360624 -1.26875 3.31443 98 132 121
0.993834 -1.26451 3.29437 122 175 172
0.384092 -1.25495 3.31295 109 144 134
0.488657 -1.24782 3.30186 170 227 206
0.545515 -1.24684 3.30431 245 249 250
0.462655 -1.23772 3.2995 177 210 206
0.412955 -1.23406 3.30506 184 222 216
0.492254 -1.22243 3.28686 103 130 127
0.505687 -1.2124 3.29729 161 195 189
0.532741 -1.20452 3.29976 160 225 199
0.810535 -1.20559 3.32145 137 168 169
1.85556 -1.15611 3.27804 119 150 165
1.58808 -1.15392 3.28621 118 161 158
1.82772 -1.15431 3.27645 213 238 240
1.85513 -1.1485 3.26727 193 230 226
0.804617 -1.13626 3.32686 118 120 131
0.984926 -1.06451 3.29335 126 163 159
1.02612 -1.06285 3.32252 106 128 133
1.18422 -1.04921 3.27672 174 251 217
0.776074 -1.03111 3.33503 84 101 110
1.59595 -1.02186 3.28693 145 194 180
1.70953 -1.02281 3.30072 115 123 123
1.47747 -1.01955 3.29808 170 213 210
0.933167 -1.01908 3.31649 106 128 126
0.939605 -1.01565 3.31233 108 135 132
1.02113 -1.01155 3.31534 64 72 71
1.68579 -1.00607 3.30703 74 94 89
0.76993 -1.0041 3.33228 100 123 115
1.07849 -0.988969 3.28446 107 152 135
1.11362 -0.995001 3.29917 75 90 92
1.54893 -0.980334 3.28393 98 117 108
1.61599 -0.982417 3.29205 141 174 159
1.11087 -0.976595 3.28911 163 197 187
0.718848 -0.981429 3.33419 101 171 154
0.842467 -0.976546 3.31486 94 131 129
0.751046 -0.978124 3.33066 112 159 150
1.7498 -0.966924 3.30115 88 107 98
0.735661 -0.939254 3.34725 83 104 101
1.03587 -0.92768 3.32661 88 107 104
0.997319 -0.912791 3.32739 95 124 109
1.09061 -0.916351 3.33264 53 71 64
1.16662 -0.896337 3.32564 167 196 187
1.5638 -0.893261 3.3358 155 190 186
1.59601 -0.885664 3.32804 185 221 221
1.7071 -0.888917 3.33774 159 206 197
1.8531 -0.886054 3.33478 91 120 117
1.40018 -0.883432 3.32595 92 111 108
1.71915 -0.879349 3.32118 70 90 78
0.700747 -0.874093 3.33822 106 147 139
1.68046 -0.869889 3.32116 108 140 139
0.674517 -0.87051 3.34361 132 179 170
0.695915 -0.865943 3.3492 171 216 200
1.76556 -0.853748 3.30178 80 109 100
1.40799 -0.858037 3.32843 97 146 130
1.71566 -0.856259 3.32913 137 183 177
0.814498 -0.839383 3.28222 161 211 199
1.53933 -0.857005 3.34635 116 157 150
1.21039 -0.84186 3.30881 169 217 189
1.67848 -0.84604 3.32666 100 143 140
0.738255 -0.837412 3.3265 67 86 83
0.842376 -0.810373 3.28543 207 239 222
1.10772 -0.812859 3.33882 96 112 118
0.604557 -0.809643 3.35055 113 173 165
1.16832 -0.800633 3.32514 163 195 200
1.26796 -0.806879 3.33967 59 99 88
1.59058 -0.801905 3.33851 147 191 184
1.69755 -0.802168 3.34309 112 151 153
1.23588 -0.795837 3.33685 158 208 206
1.03747 -0.791188 3.33122 154 217 191
1.07865 -0.793233 3.33944 140 175 171
-0.535392 -0.777157 3.33384 94 139 122
1.64973 -0.777577 3.34751 95 132 128
1.7534 -0.77933 3.35422 101 117 123
1.87344 -0.774073 3.34988 95 129 128
1.77209 -0.773735 3.36773 142 195 186
1.83343 -0.768539 3.34481 98 117 125
1.59205 -0.765611 3.3493 111 130 133
1.68883 -0.762258 3.35239 100 134 134
1.25653 -0.754219 3.35164 83 108 112
1.38942 -0.75276 3.3462 146 213 182
1.78908 -0.751193 3.35397 76 108 113
-0.387977 -0.726741 3.30725 95 150 123
-0.30803 -0.720794 3.31038 138 211 173
1.55033 -0.730194 3.34648 113 155 148
1.04122 -0.719649 3.34688 109 135 135
-0.0669977 -0.70705 3.3356 110 144 138
0.70932 -0.712287 3.34512 65 84 81
1.05464 -0.709159 3.34438 152 176 182
1.0745 -0.710099 3.35538 68 76 75
1.5001 -0.7072 3.37519 173 214 209
1.56343 -0.710125 3.36075 82 118 106
0.0317006 -0.697528 3.33454 122 175 165
1.09341 -0.699659 3.35387 141 186 177
-0.234964 -0.681872 3.31256 149 201 164
0.660322 -0.693274 3.35068 163 216 206
0.691021 -0.690817 3.34218 172 211 209
1.47708 -0.686014 3.36895 94 139 112
0.63495 -0.682873 3.36084 85 136 128
-0.220449 -0.661182 3.3027 141 216 178
1.64563 -0.671587 3.36925 72 101 98
1.72566 -0.670088 3.36532 178 236 208
1.629 -0.663188 3.36988 152 212 206
1.74572 -0.659278 3.37811 124 167 146
-0.174756 -0.633785 3.31921 181 231 199
1.5487 -0.634256 3.35405 75 102 93
1.08659 -0.634467 3.36789 209 235 235
-0.0990614 -0.619367 3.33678 78 107 81
1.10641 -0.630743 3.36261 91 105 104
1.62492 -0.630283 3.36872 114 155 147
1.7283 -0.63347 3.37464 85 122 114
1.15713 -0.621553 3.37237 104 117 119
0.00743907 -0.610902 3.33482 90 113 105
0.164467 -0.605909 3.33666 101 157 144
1.708 -0.614323 3.38578 103 114 122
0.724266 -0.601147 3.34184 175 228 219
0.124124 -0.593341 3.35524 99 148 134
1.82567 -0.597209 3.39823 91 116 112
-0.531859 -0.574913 3.2917 137 188 154
0.701509 -0.585676 3.36442 84 113 97
1.62787 -0.59342 3.37891 115 157 150
1.58797 -0.58394 3.36464 174 230 207
-0.360635 -0.563869 3.26476 78 125 109
1.56952 -0.577001 3.36551 99 118 121
0.703327 -0.561829 3.37463 105 153 141
1.49331 -0.564492 3.38716 94 112 119
-0.0344995 -0.550476 3.33184 58 94 77
-0.0159368 -0.552642 3.3346 88 144 121
0.798572 -0.551254 3.35591 172 207 210
1.23184 -0.546567 3.38004 96 114 121
0.738353 -0.538946 3.3724 79 103 95
1.0722 -0.540528 3.37749 173 221 209
1.29769 -0.541218 3.37975 159 209 199
1.8232 -0.542313 3.40291 85 167 145
1.18098 -0.53388 3.36951 91 150 130
1.56751 -0.528326 3.35318 99 132 111
1.1333 -0.527003 3.37122 67 82 78
1.92353 -0.529857 3.40504 132 171 156
-0.189694 -0.506776 3.30145 85 127 116
-0.159933 -0.509188 3.30959 55 92 66
-0.0758864 -0.513428 3.32677 127 182 165
0.766936 -0.520993 3.37737 196 227 228
1.25783 -0.514091 3.38899 83 114 99
1.3456 -0.501611 3.38243 101 124 119
0.737759 -0.488138 3.37342 65 136 109
1.47389 -0.494152 3.38715 108 160 142
0.651342 -0.488747 3.37593 97 118 110
0.85273 -0.485839 3.36985 57 87 74
1.50982 -0.493596 3.40483 143 196 186
1.91816 -0.488524 3.41808 72 84 86
0.64083 -0.477149 3.36648 101 136 132
1.47942 -0.471725 3.39651 166 220 197
-0.0267618 -0.45752 3.29205 101 128 112
0.677326 -0.468176 3.39437 143 205 189
0.685473 -0.459869 3.38488 89 110 107
1.95187 -0.462486 3.4164 160 212 202
0.730546 -0.451584 3.38532 82 109 106
1.80807 -0.444794 3.41581 162 216 199
1.14675 -0.435068 3.37976 128 221 170
0.889491 -0.435884 3.39337 132 167 170
1.72043 -0.431532 3.4261 188 224 224
0.398744 -0.42163 3.37114 108 176 159
0.285589 -0.414844 3.34207 96 145 137
1.28287 -0.417465 3.3854 176 214 208
0.690214 -0.408984 3.39864 90 138 126
0.881378 -0.399891 3.3908 131 180 166
1.9979 -0.410178 3.44809 85 129 123
0.40793 -0.382232 3.37286 73 129 116
0.662999 -0.380779 3.38847 121 159 161
2.07452 -0.389492 3.4532 98 136 130
0.874893 -0.375711 3.38881 155 215 191
0.827176 -0.36875 3.36203 90 141 133
0.854757 -0.368208 3.38217 111 141 128
2.06344 -0.373313 3.45463 135 205 188
1.89139 -0.351142 3.42267 96 127 120
0.718689 -0.342205 3.38014 104 125 122
2.07115 -0.346547 3.45707 110 170 160
2.0337 -0.33215 3.45006 182 225 214
0.0853135 -0.30639 3.23154 78 126 100
1.93802 -0.326366 3.42701 57 91 81
0.84003 -0.318679 3.39886 95 104 101
0.970969 -0.322316 3.40169 179 225 219
0.801685 -0.314542 3.39834 100 143 134
0.099743 -0.294051 3.22831 125 183 158
-0.0574248 -0.285288 3.22983 64 106 81
0.821908 -0.300953 3.40458 175 222 214
-0.173175 -0.273852 3.20602 63 82 61
0.792388 -0.284175 3.40253 130 185 170
0.817035 -0.279211 3.39609 68 111 90
-0.175672 -0.262345 3.21822 34 55 40
0.969828 -0.266813 3.41651 116 155 153
0.0503499 -0.242642 3.26105 78 140 118
0.121059 -0.23445 3.20732 50 54 43
0.88704 -0.249409 3.42487 102 154 137
-0.0337122 -0.230787 3.2424 75 136 102
-0.00821551 -0.231323 3.22482 55 117 95
0.143017 -0.221727 3.17769 136 211 183
2.04161 -0.225905 3.47366 99 128 133
1.43737 -0.218628 3.44695 100 136 122
1.34429 -0.205538 3.42622 149 188 173
0.598619 -0.200086 3.40206 63 103 98
1.33269 -0.200677 3.43046 87 120 116
1.02369 -0.190888 3.42127 84 126 125
0.410669 -0.175368 3.38381 95 104 108
0.0153731 -0.159795 3.26127 151 238 204
1.70367 -0.170093 3.41423 134 181 172
0.649327 -0.151838 3.41449 59 83 75
0.713583 -0.15441 3.41782 163 211 205
1.68176 -0.15435 3.43514 117 169 146
1.53799 -0.150016 3.44399 125 189 167
2.03537 -0.145498 3.4665 121 176 149
0.657763 -0.131543 3.41802 210 235 239
0.876491 -0.127182 3.41805 146 210 181
0.84834 -0.12549 3.41815 46 135 96
1.65606 -0.118455 3.44542 94 117 112
1.78088 -0.100515 3.43981 145 213 178
-0.0404533 -0.0838645 3.2641 45 67 43
0.567555 -0.0885373 3.40998 107 168 158
0.820323 -0.089651 3.42037 91 129 117
-0.0644659 -0.0827807 3.25592 66 90 72
0.589646 -0.0793396 3.40176 94 131 121
1.63499 -0.0806427 3.42728 99 122 114
1.58506 -0.0787862 3.46224 77 114 98
1.55529 -0.0572812 3.46738 79 122 107
0.565201 -0.0473157 3.41226 97 118 115
1.57968 -0.0412151 3.4644 78 112 106
1.63152 -0.0360175 3.42329 165 204 183
0.598071 -0.0292375 3.41635 253 255 254
0.66672 -0.0241766 3.41523 75 111 105
0.321087 -0.00846837 3.29539 113 179 168
0.560174 -0.00490207 3.41189 115 147 136
0.810885 -0.00258911 3.40648 131 185 155
0.301489 0.000474768 3.30131 92 141 133
1.5898 -6.05494e-05 3.46214 50 75 65
0.590552 0.00733616 3.40913 121 165 152
1.66917 0.013435 3.4543 124 166 148
0.0357882 0.0121505 3.25261 142 206 184
0.17657 0.0143116 3.25066 67 142 121
0.75003 0.0219545 3.41261 169 234 213
0.120331 0.0211701 3.24312 160 229 214
0.58003 0.0223015 3.41271 84 115 108
0.756188 0.0257846 3.41019 146 205 167
0.654318 0.0494226 3.42761 145 204 184
1.39423 0.0780003 3.46115 87 137 119
0.177635 0.0874931 3.27763 53 74 52
0.701821 0.0865637 3.4574 137 209 187
0.718857 0.0928277 3.41737 62 88 72
0.831812 0.095447 3.41984 107 134 118
0.672252 0.101406 3.42657 141 229 193
0.527274 0.116332 3.43882 98 147 139
0.865065 0.132814 3.42851 163 221 196
1.77425 0.156354 3.51966 49 97 69
1.92777 0.18327 3.51383 119 182 143
1.07578 -1.89513 3.20677 195 225 254
1.50294 -1.82739 3.16506 83 143 132
0.242308 -1.67607 3.26781 134 164 151
0.138699 -1.66521 3.29709 127 172 163
0.148981 -1.62252 3.31194 87 135 123
0.071312 -1.58903 3.30778 76 110 99
0.179605 -1.55697 3.32667 75 78 69
0.146538 -1.54353 3.302 160 197 201
0.12019 -1.52494 3.31876 199 231 237
0.0897812 -1.47811 3.31933 86 102 95
1.6284 -1.41866 3.24882 97 130 116
0.221631 -1.44352 3.31624 160 193 202
1.57344 -1.38063 3.25865 95 150 141
-0.0301697 -1.38101 3.32193 122 153 146
0.0298419 -1.37471 3.32697 129 163 152
0.0902862 -1.30178 3.32614 118 156 156
0.130631 -1.29498 3.32477 125 159 152
0.542189 -1.24651 3.2995 235 253 254
0.505914 -1.22431 3.29805 172 216 210
0.809454 -1.20265 3.30839 120 147 157
1.89737 -1.18469 3.25577 77 108 99
0.547492 -1.19697 3.31114 89 126 118
1.87463 -1.17297 3.26353 82 133 119
0.503151 -1.18864 3.31966 99 135 123
0.796676 -1.18421 3.32019 232 247 249
1.84647 -1.15554 3.26491 103 128 132
1.81918 -1.15729 3.27984 210 235 239
-0.423369 -1.16506 3.33829 250 252 252
1.85155 -1.14655 3.27844 199 230 229
1.81866 -1.14103 3.27925 79 119 114
1.81282 -1.13896 3.28652 86 136 126
1.75898 -1.10924 3.28118 126 147 144
1.74407 -1.10146 3.27782 93 130 114
1.07775 -1.07809 3.30563 137 180 171
1.44372 -1.0553 3.30624 106 146 134
1.7555 -1.05905 3.30239 126 157 150
0.773367 -1.03081 3.3256 93 98 107
1.5387 -1.01867 3.29022 235 248 250
1.70099 -1.01924 3.29304 107 115 115
1.73056 -1.01819 3.29372 199 224 220
1.5811 -1.01521 3.30407 130 159 156
1.64432 -1.01087 3.29356 180 219 211
1.0004 -1.00762 3.32783 149 187 187
1.71292 -0.998827 3.30639 151 200 180
1.63767 -0.987936 3.29468 74 94 82
0.880954 -0.987737 3.31363 183 223 218
1.54146 -0.973164 3.29219 80 92 86
1.46915 -0.962956 3.28576 64 85 82
1.00546 -0.960808 3.32471 174 223 215
1.73978 -0.951151 3.30222 168 203 199
0.76186 -0.954269 3.33183 185 227 226
1.16022 -0.933798 3.30494 131 181 169
1.65981 -0.936161 3.30662 155 199 198
1.01979 -0.917923 3.33129 155 207 197
1.0877 -0.91658 3.32263 68 80 68
1.02244 -0.917792 3.33321 160 211 203
0.625702 -0.901545 3.33973 96 153 144
1.69534 -0.888059 3.32664 205 230 234
1.84864 -0.885147 3.32824 98 125 122
1.71849 -0.879862 3.32877 68 95 85
1.59489 -0.879276 3.34927 163 203 201
0.75957 -0.857607 3.32066 40 57 54
1.07003 -0.851607 3.33775 169 212 201
1.71398 -0.853942 3.33748 147 190 181
0.686095 -0.85185 3.34085 93 119 103
0.808034 -0.82681 3.28639 81 114 107
1.85613 -0.839466 3.34596 173 219 213
1.1646 -0.801096 3.3341 161 199 199
1.15203 -0.780495 3.31266 173 224 216
1.61298 -0.792264 3.34395 45 59 53
1.76738 -0.79059 3.362 86 97 94
1.96006 -0.786991 3.35006 83 114 107
0.724071 -0.76737 3.32837 45 56 46
1.50578 -0.779338 3.35141 216 238 236
1.74902 -0.779886 3.35253 128 157 154
1.80677 -0.780754 3.35367 161 209 203
0.647992 -0.773398 3.35022 87 103 92
1.58669 -0.772328 3.34373 104 114 114
1.86792 -0.775325 3.34808 97 132 128
1.65816 -0.745666 3.3608 129 170 165
1.46106 -0.73763 3.34294 104 125 122
-0.309331 -0.733578 3.34239 127 182 155
0.694716 -0.72968 3.33747 188 215 212
1.59644 -0.732496 3.35465 78 93 85
0.0330883 -0.721749 3.334 128 164 158
1.30976 -0.722969 3.3361 67 100 93
1.65608 -0.720189 3.35579 179 220 215
1.4743 -0.717275 3.37242 93 124 115
1.56723 -0.712109 3.36603 89 120 111
-0.434998 -0.686368 3.31583 59 92 78
0.68409 -0.691597 3.3486 153 199 193
1.54997 -0.686236 3.36286 124 162 164
0.0803625 -0.676209 3.33851 107 135 135
1.41017 -0.680594 3.35988 93 117 109
1.64424 -0.6759 3.37743 77 110 103
1.77352 -0.655676 3.34973 61 100 84
1.96229 -0.668028 3.36088 71 92 84
0.280243 -0.634466 3.34145 104 171 150
0.656643 -0.639892 3.3573 76 121 105
1.73851 -0.642529 3.37414 69 83 77
-0.241245 -0.628499 3.32887 60 86 68
1.10531 -0.633351 3.3642 100 112 106
1.67468 -0.629989 3.37654 145 178 181
-0.140223 -0.606105 3.3184 63 110 88
-0.099813 -0.615452 3.33256 65 93 70
1.24572 -0.623612 3.37751 67 81 79
1.55583 -0.62571 3.37961 76 113 97
-0.217992 -0.611981 3.3265 52 76 66
1.70308 -0.61119 3.38229 120 145 149
1.92008 -0.618808 3.38554 85 89 94
1.65881 -0.610197 3.379 219 237 238
1.77995 -0.61094 3.37833 86 111 107
-0.170373 -0.58873 3.3381 96 150 133
1.82557 -0.597272 3.39762 90 117 113
0.705021 -0.582189 3.37755 105 142 134
0.078818 -0.569085 3.33727 190 235 219
1.03792 -0.57873 3.36321 80 106 92
1.63356 -0.577778 3.37222 147 213 188
1.85969 -0.572347 3.39473 68 102 92
0.654093 -0.560373 3.36445 114 151 141
1.072 -0.567852 3.40197 175 215 210
1.54805 -0.560674 3.37901 166 221 212
1.68356 -0.566211 3.37577 100 125 127
1.86863 -0.560411 3.40252 89 131 124
1.24209 -0.54626 3.36043 80 114 103
0.65403 -0.539208 3.36288 158 218 200
1.01118 -0.536486 3.38336 105 145 134
1.31376 -0.538096 3.38144 91 131 119
1.4841 -0.533088 3.40102 146 177 176
1.8156 -0.543402 3.39696 98 180 157
1.1362 -0.525292 3.39528 99 119 114
0.735864 -0.50847 3.36901 209 255 236
1.24854 -0.5108 3.37604 87 123 107
1.58483 -0.497369 3.34891 110 147 131
1.4583 -0.4971 3.38045 100 149 141
1.33551 -0.495229 3.41163 98 129 120
0.703139 -0.473366 3.37725 135 206 180
1.84083 -0.462722 3.41733 109 116 135
-0.606008 -0.4153 3.08442 80 141 103
0.859972 -0.455376 3.38673 176 214 214
1.9537 -0.461784 3.41954 163 216 203
0.747654 -0.441731 3.38425 92 113 104
1.14266 -0.441815 3.38055 102 181 142
1.85597 -0.438468 3.4089 153 212 192
0.859674 -0.422796 3.38193 143 175 174
0.680908 -0.407049 3.38678 133 179 173
-0.735483 -0.371441 3.06274 49 68 47
-0.725432 -0.363548 3.07958 39 56 35
0.760318 -0.40228 3.38451 93 123 118
1.28414 -0.385681 3.37638 81 99 92
0.864977 -0.374114 3.38158 139 200 172
0.831852 -0.362954 3.38782 149 188 190
1.29759 -0.349705 3.41337 111 164 144
0.128786 -0.32251 3.22706 94 153 125
0.915798 -0.339071 3.36897 59 77 64
0.0830094 -0.300653 3.23442 65 96 67
1.17326 -0.313333 3.4292 71 108 98
1.22321 -0.308773 3.41257 50 102 85
0.0492685 -0.285164 3.24115 157 247 218
0.148135 -0.272667 3.20709 101 160 132
1.26505 -0.302482 3.39865 99 113 107
-0.172104 -0.273187 3.20872 52 78 55
1.29228 -0.277553 3.43517 109 134 120
0.0576671 -0.251783 3.24755 60 86 62
0.572851 -0.254294 3.39012 108 151 140
1.29276 -0.241242 3.43448 56 67 51
0.836763 -0.221014 3.41078 68 156 116
2.03069 -0.225851 3.46826 115 142 146
0.596215 -0.199903 3.39847 73 110 106
0.57466 -0.191675 3.40659 95 138 129
0.876937 -0.127302 3.41749 154 210 191
-0.0810382 -0.100029 3.24765 69 124 105
0.653972 -0.0974471 3.41275 130 157 161
0.675522 -0.0957781 3.41019 195 228 214
-0.0201853 -0.0846294 3.28013 118 182 160
0.28381 -0.0644269 3.33534 62 91 76
0.307184 -0.0634542 3.30168 117 192 160
-0.0539616 -0.0566206 3.24815 25 41 30
0.284772 -0.0637254 3.33774 50 81 66
0.759471 -0.0432301 3.38893 91 127 111
0.745314 -0.030998 3.44308 118 176 158
1.91769 -0.0221724 3.48003 150 208 184
0.765487 -0.0136951 3.40679 143 212 185
0.845029 -0.00208913 3.43488 109 141 124
0.101708 -0.00469955 3.23225 181 231 227
1.55545 0.000964762 3.45675 155 227 191
1.68951 0.000681292 3.43194 53 85 60
1.70256 -0.00167543 3.43393 112 139 119
0.0339225 0.0113584 3.26209 134 196 178
0.881219 0.00646258 3.29423 134 164 135
1.69796 0.0186616 3.4217 108 167 129
1.84006 0.0225072 3.49017 151 181 176
0.582055 0.0225428 3.41327 91 118 115
0.748194 0.0224818 3.40901 151 223 201
1.59161 0.0261919 3.45397 72 111 89
1.71803 0.0300603 3.45995 122 181 150
0.205143 0.0346983 3.27499 165 233 216
0.725588 0.0413202 3.42992 99 125 112
0.749207 0.0453722 3.41076 54 79 59
0.748117 0.0459374 3.41279 55 94 72
1.99061 0.068712 3.5428 72 114 103
1.05365 0.0703372 3.32189 76 100 88
1.53903 0.0714275 3.4633 71 102 93
1.57739 0.0901815 3.49086 131 190 169
0.728709 0.105001 3.44732 85 133 104
1.7518 0.104649 3.50038 124 184 166
0.655643 0.112083 3.43917 101 121 122
