ply
format ascii 1.0
element vertex 1278
property float x
property float y
property float z
property uchar blue
property uchar green
property uchar red
end_header
0.637141 0.491203 3.07965 87 143 138
-0.0136532 0.505767 3.15635 100 166 141
1.22649 0.483979 3.02814 102 161 157
0.0008528 0.507065 3.15302 81 134 114
-0.389908 0.515917 3.19598 87 165 148
0.845538 0.498136 3.05625 167 227 217
1.13592 0.494034 3.02805 108 175 168
0.0195018 0.515364 3.15025 89 162 140
-0.00957266 0.520491 3.1528 82 139 118
1.14166 0.499127 3.0334 74 134 134
-0.327176 0.527002 3.19 199 246 237
0.106643 0.53025 3.14559 66 100 83
0.904494 0.518789 3.04713 84 152 135
0.0907683 0.535534 3.14183 86 149 133
0.537832 0.538811 3.08916 95 162 147
1.14099 0.529306 3.02677 89 152 136
0.489177 0.554383 3.0985 84 159 143
0.398209 0.556403 3.10205 112 161 153
0.840705 0.549581 3.05547 93 146 132
0.887424 0.55633 3.05793 80 150 133
1.16823 0.573676 3.03439 74 128 121
-0.497583 0.613066 3.2056 100 185 171
1.00186 0.585426 3.03696 79 141 123
0.646323 0.596318 3.07674 93 151 140
1.00352 0.590071 3.04582 94 150 137
0.746739 0.604963 3.06776 91 153 141
0.902024 0.603031 3.05019 97 166 151
1.3033 0.603721 3.02081 88 148 138
1.13994 0.60921 3.03004 95 151 140
0.881356 0.61812 3.05963 100 157 148
-1.0809 0.677584 3.28511 121 170 180
1.35502 0.620591 3.01689 99 159 159
1.18812 0.642552 3.02949 84 144 133
0.410865 0.678213 3.10717 104 177 161
0.944606 0.664635 3.04332 97 155 144
-0.311237 0.718506 3.18906 115 177 165
0.385606 -1.23643 2.97353 150 213 169
0.154095 -1.2335 2.99287 95 162 131
-0.822713 -1.25027 3.05739 205 243 237
0.476742 -1.20542 2.96222 44 84 73
0.376168 -1.2055 2.98642 129 205 163
0.0164365 -1.20742 3.00043 85 154 139
0.0268397 -1.21067 3.00333 96 171 149
0.368193 -1.19934 2.98469 66 126 102
0.518581 -1.19286 2.96479 120 178 130
0.367651 -1.19929 2.98401 76 137 111
0.509564 -1.19315 2.97204 62 99 83
-1.7327 -1.24701 3.11045 65 127 105
0.285887 -1.19972 2.99064 89 144 125
0.396669 -1.18632 2.96708 131 213 160
0.520957 -1.18349 2.96665 43 64 49
0.681267 -1.04396 2.61651 27 94 65
0.672535 -1.04254 2.61436 113 218 169
-0.4631 -1.20882 3.03502 88 162 144
0.157195 -1.18921 2.99889 99 154 121
0.450887 -1.17459 2.96769 129 213 179
0.463281 -1.17335 2.96468 62 87 83
-1.26657 -1.22122 3.09738 82 138 115
-0.42423 -1.19732 3.03898 89 168 147
-0.748014 -1.19609 3.06002 100 164 145
-0.576101 -1.18845 3.04835 75 140 125
0.476195 -1.15798 2.97052 67 105 99
0.29764 -1.16241 2.99512 58 127 100
0.476637 -1.14777 2.96963 109 167 149
-1.83199 -1.20763 3.12741 153 234 185
-0.589062 -1.17666 3.04845 100 161 147
-0.0184607 -1.15875 3.0072 103 167 145
0.379783 -1.15582 2.99612 21 57 33
-1.75268 -1.2024 3.12979 69 110 95
0.312342 -1.14707 2.98929 145 219 185
0.329365 -1.14885 3.00171 65 152 119
0.430166 -1.14099 2.97876 31 53 35
0.154332 -1.14863 3.00672 90 156 131
0.298578 -1.14577 2.99947 121 196 174
0.273597 -1.14451 3.00219 97 162 147
0.368602 -1.14119 3.00102 48 79 52
-1.74916 -1.19132 3.13261 78 125 103
0.853898 -0.993624 2.61821 48 106 78
-1.48133 -1.18494 3.11804 110 167 152
0.151439 -1.1399 3.01019 102 157 142
0.294898 -1.13763 3.00056 85 157 144
0.681024 -0.988955 2.61793 30 124 77
0.173729 -1.12712 3.0092 81 134 131
-1.0952 -1.15757 3.09674 102 166 147
-0.398768 -1.13716 3.04322 63 130 101
0.434744 -1.11734 2.99032 51 103 73
0.702536 -0.98063 2.62483 45 99 76
-0.438183 -1.13163 3.05184 83 147 128
-1.25526 -1.13938 3.10597 208 251 255
0.83403 -0.960624 2.6262 84 179 135
0.00425634 -1.09801 3.02758 119 176 167
-0.43429 -1.10841 3.06507 94 152 123
0.765911 -0.950655 2.63984 34 68 38
0.788648 -0.948319 2.63511 37 86 58
0.2958 -1.07352 3.01162 108 161 147
-1.24021 -1.10484 3.11144 113 161 149
0.762785 -0.931098 2.63277 52 106 71
0.803255 -0.9293 2.64242 118 205 161
0.797249 -0.922689 2.64143 68 118 84
-1.14167 -1.08166 3.1 85 132 116
0.402447 -1.04711 3.01076 125 156 141
-1.47898 -1.08974 3.13761 95 154 134
-0.445424 -1.05907 3.06246 133 211 180
0.250124 -1.04587 3.0175 84 137 117
-0.41153 -1.05223 3.06208 87 139 122
0.33224 -1.03726 3.0196 102 139 119
-0.294312 -1.04657 3.0512 90 149 129
-1.488 -1.06861 3.14261 96 158 142
-0.384242 -1.04453 3.0655 52 106 89
0.313311 -1.02764 3.02331 90 143 134
0.33522 -1.02317 3.01618 58 81 59
-1.19837 -1.05249 3.11461 93 155 133
0.470949 -1.01576 3.01071 68 107 82
-0.0760581 -1.02536 3.04271 95 170 142
-0.373348 -1.03084 3.06232 91 164 142
0.337409 -1.0144 3.01993 117 172 157
-1.24849 -1.03841 3.11307 71 105 88
-1.23696 -1.04476 3.12307 59 104 77
0.869183 -0.885147 2.66948 101 200 150
0.776077 -0.882796 2.66501 30 99 66
0.340001 -0.996577 3.01734 111 168 143
0.465903 -0.992404 3.01355 95 134 113
-0.301318 -1.00276 3.05152 84 135 108
-0.105183 -1.00202 3.05569 61 112 92
0.503618 -0.984721 3.00679 74 97 82
-1.79981 -1.03013 3.15095 178 245 208
1.39578 -0.955606 2.92651 86 154 143
0.448362 -0.975999 3.01076 121 148 138
-0.85931 -1.00648 3.10318 84 143 128
-0.934609 -1.0044 3.1149 92 167 146
-1.80448 -1.01393 3.14445 93 141 115
-0.0950281 -0.981222 3.05321 115 197 174
0.450862 -0.968935 3.01608 68 93 79
0.391502 -0.966634 3.01726 101 151 139
0.408026 -0.960275 3.0119 84 127 118
-0.210998 -0.97351 3.05935 78 163 135
1.34391 -0.928996 2.92046 86 138 128
-1.24286 -0.981543 3.13359 78 137 109
-1.34425 -0.979644 3.14165 91 156 131
-1.12671 -0.971275 3.12749 141 229 193
-0.789819 -0.964224 3.10891 76 157 138
0.29032 -0.934251 3.0267 121 181 163
-1.31973 -0.9613 3.14167 75 113 101
-1.29245 -0.961879 3.13371 86 128 103
-1.85806 -0.959522 3.15982 135 216 159
0.320126 -0.918768 3.02906 108 130 112
0.0201814 -0.919366 3.05438 87 150 134
-1.23675 -0.94044 3.13614 89 156 127
1.43794 -0.876506 2.93698 60 128 121
-0.253128 -0.906684 3.07182 107 189 160
-1.2515 -0.91491 3.14832 76 141 116
1.23834 -0.847315 2.92824 160 203 182
0.272155 -0.866647 3.0426 84 128 127
1.24896 -0.835721 2.93118 103 146 131
-1.7497 -0.905089 3.18445 97 175 151
-0.800115 -0.880641 3.12624 54 129 107
0.484403 -0.848241 3.0195 93 124 103
0.170147 -0.853057 3.04686 86 143 165
1.15074 -0.821646 2.94945 114 162 138
-0.761396 -0.86712 3.12461 91 165 141
1.26694 -0.815514 2.93639 161 226 194
-0.42324 -0.84911 3.09613 97 161 142
1.26998 -0.807723 2.941 95 134 119
1.40848 -0.804359 2.94343 88 156 145
-0.835856 -0.850235 3.13152 77 148 121
-1.12554 -0.850203 3.1408 75 140 118
-0.894686 -0.848719 3.13478 72 168 132
1.14632 -0.79988 2.96411 99 131 120
1.17762 -0.797743 2.96233 66 98 97
1.32358 -0.797135 2.95341 72 132 132
-1.86499 -0.859177 3.1939 154 241 197
-1.39501 -0.852024 3.17089 90 165 137
0.424763 -0.811064 3.03078 96 124 104
1.36862 -0.780689 2.94723 65 151 127
-0.93032 -0.833759 3.13783 76 143 112
0.175533 -0.805451 3.05665 84 169 149
0.537871 -0.7956 3.03103 88 144 123
-0.399234 -0.81312 3.10045 88 155 128
-0.384081 -0.809363 3.09903 79 137 119
0.107863 -0.794618 3.05651 65 140 112
1.124 -0.773771 2.97378 52 93 72
-1.24076 -0.818929 3.15234 83 141 113
-0.804529 -0.812526 3.13976 80 157 136
0.0740665 -0.792656 3.06204 83 149 124
-1.79055 -0.821565 3.18306 87 159 129
1.11695 -0.764926 2.96782 144 215 172
0.205232 -0.783682 3.05382 125 179 174
1.18823 -0.761056 2.96501 123 176 156
0.195889 -0.780034 3.05304 79 123 106
1.29504 -0.75588 2.95528 84 126 115
-0.552311 -0.78378 3.1135 81 136 109
1.06304 -0.744369 2.98194 49 118 97
-1.81809 -0.789342 3.2044 129 208 181
-1.1307 -0.779365 3.16004 69 111 86
-1.88313 -0.788128 3.21815 96 176 145
-0.490735 -0.759149 3.09984 64 134 97
-1.16126 -0.769358 3.16509 173 240 203
0.157714 -0.739516 3.05203 124 187 171
-1.84271 -0.77286 3.20738 47 82 68
0.171555 -0.737855 3.05157 104 159 132
-1.07419 -0.753998 3.16321 85 158 136
1.15814 -0.708551 2.97156 73 121 109
-1.23391 -0.750239 3.17719 92 140 122
0.444991 -0.706634 3.03981 97 123 110
-1.30693 -0.735419 3.18861 72 140 115
0.154545 -0.707596 3.06517 95 167 155
-1.23103 -0.733482 3.1816 82 140 115
-1.12982 -0.726864 3.16174 173 255 221
-1.19298 -0.727758 3.16544 138 206 175
1.4904 -0.674448 2.95049 98 157 143
-1.88242 -0.716796 3.22889 101 164 138
-1.05634 -0.704099 3.17092 74 144 114
0.232431 -0.678634 3.06013 77 105 85
1.05029 -0.664104 2.99031 141 224 192
-1.80987 -0.708546 3.21538 98 173 157
0.248415 -0.672122 3.05907 85 126 95
-1.04993 -0.693917 3.16408 180 254 230
0.519023 -0.666427 3.04185 97 125 119
-1.15802 -0.682701 3.1753 80 142 102
-1.77034 -0.680263 3.21555 156 236 213
0.234132 -0.645756 3.05597 82 138 109
-1.88538 -0.678809 3.22867 62 109 87
1.20123 -0.623786 2.98232 81 143 125
-1.90658 -0.670961 3.23492 156 247 198
-1.89914 -0.665431 3.23681 90 167 139
-1.78612 -0.659993 3.22506 93 152 132
0.190408 -0.620173 3.05916 112 176 157
0.899308 -0.61133 3.00331 145 203 215
1.16346 -0.607537 2.98445 135 219 195
0.200866 -0.620141 3.06873 101 164 144
0.189425 -0.618844 3.06964 90 167 146
1.08616 -0.601352 2.99292 141 201 190
-1.82514 -0.644961 3.22561 92 154 136
-0.421387 -0.62461 3.11774 52 117 96
0.6136 -0.607371 3.03638 94 111 98
-0.44968 -0.618478 3.11857 57 121 92
0.313979 -0.607391 3.06071 94 157 141
-1.47324 -0.633762 3.21715 79 157 134
-1.23418 -0.628605 3.19585 79 125 106
0.365155 -0.597059 3.05736 93 117 105
0.202834 -0.596264 3.07448 98 160 142
1.35026 -0.564363 2.97892 86 159 151
0.668782 -0.568796 3.03227 62 97 110
0.45613 -0.564039 3.04267 99 141 130
0.631614 -0.565062 3.03624 97 117 135
0.681119 -0.563983 3.033 122 181 191
0.727362 -0.558058 3.04633 123 196 180
0.79925 -0.552472 3.0246 158 238 203
1.25099 -0.544398 2.98636 96 155 135
1.17086 -0.544134 2.9932 156 223 202
0.459188 -0.553888 3.06046 112 139 135
-1.80214 -0.581889 3.24275 51 115 103
0.610229 -0.54066 3.04237 152 209 254
1.25141 -0.531413 2.98316 70 114 97
0.747171 -0.53064 3.02905 91 136 120
-1.87336 -0.566775 3.23949 78 134 99
-1.11727 -0.552707 3.19577 84 157 135
0.377904 -0.52303 3.05681 110 163 143
1.14318 -0.514356 3.0006 89 130 125
0.575722 -0.514968 3.04438 87 134 131
0.727798 -0.514411 3.03613 184 214 255
-1.35605 -0.540312 3.21782 89 160 127
0.449624 -0.510112 3.05186 126 205 192
0.493907 -0.514072 3.05015 84 102 89
0.730302 -0.507405 3.03682 82 117 173
1.09505 -0.499696 2.99557 124 190 161
-1.26998 -0.527896 3.20951 97 162 141
0.580075 -0.490221 3.03407 95 142 126
0.707474 -0.483328 3.0364 117 160 179
1.42322 -0.467889 2.97164 103 153 143
0.93913 -0.472293 3.01538 62 125 109
0.940146 -0.464673 3.01281 165 229 199
1.18606 -0.461469 2.99147 74 97 82
1.18811 -0.46068 2.99587 62 83 68
0.836601 -0.462944 3.02811 85 139 126
0.849313 -0.455712 3.02764 90 144 131
1.40535 -0.448231 2.97103 93 145 135
-1.83596 -0.477076 3.24926 59 102 91
1.18978 -0.434934 2.99419 117 173 144
0.6096 -0.434848 3.04461 73 129 118
-1.81513 -0.468487 3.26798 42 101 87
0.460589 -0.432597 3.05445 65 140 124
1.17557 -0.425288 3.00091 115 189 155
-1.91119 -0.45863 3.25584 45 86 58
1.35861 -0.420237 2.98179 74 138 126
1.39104 -0.416095 2.97563 73 113 108
0.175126 -0.424424 3.08282 63 128 113
1.40824 -0.409414 2.97509 107 163 158
1.62914 -0.407898 2.95368 104 160 149
0.752223 -0.415341 3.03972 92 125 174
1.1487 -0.410514 2.99936 77 142 117
0.659877 -0.405377 3.02601 80 114 113
1.21274 -0.403942 2.99929 139 204 179
-1.9547 -0.440977 3.28496 63 128 103
0.766015 -0.405838 3.03955 98 145 173
-1.90881 -0.433675 3.2541 62 125 99
-1.78686 -0.436204 3.26526 126 191 166
0.655588 -0.405406 3.03176 81 118 114
0.813887 -0.401527 3.03345 127 169 222
1.22423 -0.398955 2.99886 61 120 105
1.33683 -0.395966 2.98384 150 208 197
0.6561 -0.39401 3.03231 169 223 216
0.27295 -0.396249 3.06549 171 247 199
0.266647 -0.391679 3.07819 75 133 108
0.181483 -0.390771 3.08443 77 161 137
0.238851 -0.384554 3.07595 155 235 200
0.294868 -0.382455 3.07495 89 130 103
0.421227 -0.377419 3.06807 80 134 117
0.498943 -0.372716 3.0586 74 121 113
1.17869 -0.365868 3.00087 96 155 127
0.455774 -0.36622 3.05004 84 145 125
0.328323 -0.365022 3.07527 203 242 234
0.822511 -0.360463 3.03513 99 149 185
0.815884 -0.35516 3.03482 188 220 255
1.08838 -0.350187 3.01141 102 163 149
1.27627 -0.34577 2.997 84 154 141
0.333881 -0.351136 3.07762 85 155 132
1.37317 -0.342281 2.98346 64 124 113
1.36517 -0.337782 2.98838 129 215 191
0.649631 -0.335262 3.0435 78 140 124
0.587683 -0.330155 3.05201 76 122 123
0.661548 -0.329578 3.04943 149 218 198
0.442421 -0.32515 3.05721 43 98 73
-1.84886 -0.335004 3.2814 85 134 132
0.791549 -0.300082 3.02717 106 171 169
0.37861 -0.301121 3.06901 76 126 116
0.294897 -0.296974 3.07868 64 112 84
0.585796 -0.291759 3.0528 70 98 85
1.1555 -0.28003 3.01037 126 191 165
0.882388 -0.279215 3.03409 106 158 174
1.43609 -0.27554 2.99506 81 121 119
0.838077 -0.274477 3.03604 94 156 156
1.15352 -0.271747 3.00899 55 117 95
1.76469 -0.26479 2.94937 84 133 125
0.584673 -0.270601 3.05998 136 185 169
1.52487 -0.260641 2.98469 55 115 105
0.780354 -0.26198 3.02651 143 227 198
1.27229 -0.259341 3.00494 55 113 95
0.515404 -0.253527 3.03913 89 152 126
0.541259 -0.255879 3.04299 119 184 163
0.590404 -0.254137 3.05533 152 211 196
0.606241 -0.252061 3.03916 143 224 177
0.706976 -0.253584 3.04648 137 221 192
0.786326 -0.246701 3.02353 151 212 184
-1.93013 -0.268138 3.28893 161 243 191
-1.81461 -0.264535 3.28516 65 121 110
0.595616 -0.241981 3.04604 56 86 75
0.668354 -0.24323 3.0478 60 104 87
0.776608 -0.243794 3.02705 73 128 103
0.581386 -0.243817 3.05323 143 208 187
0.287697 -0.24093 3.08316 144 224 181
0.138734 -0.239743 3.10301 58 135 97
0.533609 -0.235816 3.0491 182 239 224
0.298056 -0.234412 3.07171 140 217 179
0.323168 -0.230724 3.06699 124 219 174
0.942125 -0.227134 3.02931 103 143 162
0.663045 -0.225942 3.04081 165 226 198
0.476611 -0.221022 3.05152 77 140 131
0.822562 -0.220927 3.02103 135 193 169
1.26991 -0.217382 3.011 65 135 122
0.399105 -0.217772 3.04532 110 185 169
-0.15176 -0.216883 3.13335 120 167 171
0.280789 -0.212266 3.09164 131 200 190
0.310748 -0.210339 3.06971 91 152 114
0.43587 -0.209682 3.0472 116 193 149
0.219417 -0.209341 3.10002 71 135 116
0.681152 -0.198499 3.03789 167 224 193
0.852713 -0.191656 3.01914 163 229 210
0.565615 -0.180728 3.05646 78 135 114
0.803329 -0.176226 3.02903 68 108 80
0.770744 -0.175447 3.02828 187 238 201
0.330756 -0.168041 3.08081 115 185 162
0.528398 -0.167588 3.05875 71 129 101
-1.22145 -0.165055 3.24597 87 139 122
0.772213 -0.143738 3.03947 102 145 130
0.378273 -0.14088 3.0698 59 79 60
1.27415 -0.139197 3.00928 94 154 146
0.542528 -0.142433 3.06738 49 80 53
0.610093 -0.130115 3.05324 100 168 145
-1.28785 -0.138849 3.25079 100 151 144
0.519137 -0.129868 3.06689 64 103 82
0.761696 -0.129672 3.04251 66 127 101
0.362928 -0.12719 3.07799 65 86 64
0.712821 -0.126897 3.04697 81 130 114
-1.80914 -0.135745 3.29917 56 148 123
0.546085 -0.12404 3.06449 57 112 79
-1.56987 -0.130314 3.28096 84 160 136
0.370216 -0.123904 3.07009 180 227 189
-1.25062 -0.124667 3.24911 72 125 105
0.893103 -0.118031 3.03915 83 142 128
0.282761 -0.116836 3.08934 85 150 128
-1.14903 -0.117995 3.24651 121 173 155
0.571978 -0.108478 3.05608 106 153 137
-1.32962 -0.109101 3.25964 68 118 100
0.435742 -0.103136 3.07917 69 118 102
0.499024 -0.101604 3.06858 78 122 99
0.882609 -0.104814 3.02999 131 182 174
0.379732 -0.103225 3.08154 76 135 115
1.26396 -0.0969296 3.03242 71 116 97
-1.19857 -0.103634 3.2484 137 191 174
-1.18173 -0.098272 3.24801 122 169 147
0.8225 -0.0846829 3.04605 160 212 229
0.901835 -0.0805467 3.03642 109 174 165
-1.14158 -0.0808567 3.24794 116 173 148
0.315955 -0.0733108 3.09036 88 130 105
-1.85867 -0.0765326 3.30001 42 103 89
0.399869 -0.0695074 3.08313 86 167 142
-1.15662 -0.0708843 3.25032 131 168 152
-1.35007 -0.0524952 3.27043 87 154 139
-1.2462 -0.0553643 3.2577 98 154 135
1.27101 -0.050427 3.01833 75 137 125
-1.28128 -0.0514461 3.26183 123 161 143
-1.14618 -0.0502749 3.24838 94 136 119
-1.35424 -0.0496751 3.27115 94 148 141
-1.32308 -0.0481272 3.2649 86 153 132
-1.22448 -0.0477584 3.25229 113 158 142
0.360171 -0.0395394 3.08573 163 237 213
0.625545 -0.0391415 3.05454 64 112 83
0.757981 -0.0401287 3.04964 133 176 203
0.917539 -0.0375051 3.0422 78 138 128
-1.11587 -0.039487 3.24112 119 155 141
-1.4041 -0.0357508 3.27742 97 164 143
0.599155 -0.0269048 3.05738 59 116 85
0.862372 -0.0247119 3.03216 120 197 163
0.875299 -0.0231765 3.04099 86 136 132
-1.19392 -0.0222218 3.25498 63 79 56
0.409605 -0.010307 3.08101 70 121 107
0.629726 -0.0117897 3.05825 86 150 121
-1.36421 -0.00411485 3.27411 59 144 122
-1.29842 -0.00276528 3.25949 124 202 185
0.202492 0.000653645 3.11197 62 93 72
0.386755 -0.000440364 3.08818 163 218 203
0.6229 0.000393545 3.05352 88 129 102
0.894282 -0.00229723 3.0479 149 211 187
-1.30862 0.00179632 3.25467 99 135 118
-1.22592 0.00686537 3.25681 102 141 125
0.761086 0.00743857 3.049 62 96 85
0.0383601 0.0122521 3.11956 110 175 130
0.0728459 0.0222491 3.11917 80 148 107
0.235442 0.0205358 3.10616 80 134 97
1.09512 0.0213361 3.02624 119 169 157
0.109888 0.0249187 3.11137 88 167 128
0.203164 0.0268042 3.10542 96 156 132
-1.83062 0.0364916 3.30423 72 144 124
-1.25344 0.0377705 3.26215 63 110 88
0.800568 0.0329906 3.04409 160 236 212
0.701439 0.0405646 3.05327 71 133 115
0.84645 0.0408406 3.04726 67 131 109
0.0122066 0.0459915 3.13105 92 155 123
0.118341 0.0439548 3.10715 70 119 91
0.367224 0.0477411 3.09317 91 140 120
-1.55726 0.0554522 3.29657 106 164 136
-1.14924 0.0577943 3.25916 116 188 152
0.125427 0.0531545 3.10405 147 220 182
0.715662 0.0542867 3.05741 91 157 146
-1.00186 0.0635039 3.23752 129 197 180
0.0688289 0.0703653 3.11884 97 158 132
0.604765 0.0688793 3.06578 80 112 93
0.648912 0.0708909 3.06165 97 172 158
-1.36785 0.0815799 3.27172 146 224 201
-1.20527 0.0874428 3.25573 92 128 114
-1.02724 0.0897849 3.25251 109 151 134
-1.00306 0.106073 3.23821 61 99 87
-0.992055 0.10721 3.23974 154 227 211
0.229891 0.101222 3.10759 67 126 106
-1.33011 0.110465 3.27257 101 147 135
-1.20017 0.117519 3.26188 148 221 199
-1.09561 0.115971 3.24666 130 192 174
0.33332 0.113893 3.09906 70 147 120
-1.25541 0.130193 3.26 82 133 119
-1.17363 0.137531 3.26052 115 148 134
0.262826 0.131607 3.09853 158 234 210
0.271286 0.132791 3.09833 142 212 181
-1.25642 0.144221 3.26674 137 190 181
-1.20177 0.155743 3.26592 143 216 194
0.621077 0.152626 3.07453 85 156 130
-1.241 0.162182 3.26618 108 158 140
0.318808 0.157877 3.10213 97 163 138
0.577461 0.155821 3.0736 116 183 168
-1.1618 0.167226 3.25561 89 113 95
-2.00553 0.174994 3.35384 82 135 115
-1.30834 0.171355 3.27554 157 230 204
-1.56519 0.181432 3.30582 85 154 127
-1.05338 0.181602 3.25227 65 95 84
-1.31973 0.185237 3.27918 68 111 100
-1.25461 0.183081 3.26688 97 115 108
-1.10906 0.186484 3.25799 144 197 177
0.293541 0.178513 3.1053 93 145 128
-1.34032 0.192519 3.28213 77 126 112
-1.11531 0.195963 3.2528 91 116 102
-1.05793 0.198478 3.25825 138 196 185
0.122118 0.191825 3.1028 62 123 89
-1.0358 0.204719 3.25081 71 110 94
0.204174 0.194423 3.10342 76 141 119
-1.24914 0.210862 3.27003 94 131 115
-0.893835 0.20702 3.23183 90 120 109
0.25301 0.20066 3.10891 88 137 129
-1.32555 0.214267 3.28527 120 178 154
0.351808 0.203855 3.10173 94 144 132
0.379035 0.203026 3.10163 108 174 163
-1.13915 0.216464 3.25809 89 120 113
-1.05754 0.21663 3.25678 151 217 205
-1.27601 0.220242 3.28079 56 96 84
-1.29319 0.23056 3.27733 75 146 119
-1.18226 0.232997 3.26407 58 97 82
-1.20434 0.238 3.2639 101 138 128
-1.26417 0.242553 3.27745 79 105 105
-1.19441 0.239777 3.27015 139 206 197
-1.25092 0.249225 3.27401 156 203 194
-1.16586 0.245159 3.26466 84 126 115
-1.02847 0.242713 3.24966 115 190 169
1.14678 0.230485 3.03142 93 155 141
-0.833651 0.247625 3.23051 59 93 83
1.52679 0.229115 3.00054 108 162 157
-1.25434 0.260929 3.27451 98 129 114
-1.11157 0.268366 3.26099 154 215 201
-1.08929 0.268005 3.25585 80 124 107
0.206379 0.256056 3.11299 70 126 107
-1.21738 0.278065 3.27491 106 157 143
0.169892 0.262983 3.12032 58 135 107
-1.20985 0.285245 3.28916 92 143 135
0.75648 0.266258 3.06279 61 120 100
-0.964591 0.286908 3.24991 147 213 194
-0.916028 0.286302 3.2414 137 206 196
0.687777 0.274591 3.06689 72 130 119
1.12604 0.273571 3.0287 103 165 151
-0.690143 0.292286 3.21911 90 147 148
-1.15355 0.300669 3.26636 122 183 163
-0.968702 0.29965 3.24556 85 122 106
0.729566 0.288089 3.06366 74 137 121
-1.09278 0.310316 3.26853 76 107 92
-0.983484 0.309416 3.25056 127 197 180
-0.847047 0.311954 3.24195 109 166 157
0.903695 0.295844 3.05292 111 174 165
-1.62254 0.325688 3.31524 88 119 116
-1.13704 0.321366 3.26193 86 125 109
-1.18468 0.328706 3.26799 114 167 158
-1.06172 0.326565 3.25874 88 141 127
-1.03927 0.326125 3.25087 151 212 192
0.184135 0.313175 3.11953 93 167 141
0.656264 0.307473 3.07278 97 165 154
-0.167754 0.319635 3.15782 90 165 133
0.643723 0.315408 3.08234 101 146 149
-1.12593 0.336877 3.26878 82 137 110
-1.17884 0.341328 3.2716 107 168 154
-1.05014 0.343543 3.26172 85 120 100
-0.922945 0.346134 3.25318 65 97 86
-1.04328 0.362356 3.26216 132 211 190
-0.202834 0.354051 3.1694 78 152 128
-1.57048 0.376628 3.30403 82 134 111
-1.38812 0.375444 3.29477 72 122 98
-1.05082 0.378189 3.26086 101 145 132
0.192772 0.362846 3.12539 107 167 156
1.04082 0.353317 3.03913 69 145 127
-1.09445 0.384456 3.25239 82 151 131
-1.01234 0.38454 3.26043 89 153 134
1.01524 0.359659 3.04055 81 124 121
0.640383 0.370176 3.07894 109 147 141
-0.266028 0.384262 3.17475 221 242 240
0.520664 0.385823 3.09796 81 136 121
1.26094 0.393218 3.02346 100 159 155
-0.100952 0.414499 3.16404 97 169 149
-1.08304 0.441602 3.26426 104 165 151
1.35978 0.414141 3.02633 89 158 147
-0.151836 0.443837 3.16516 57 128 101
0.633122 0.449184 3.0829 90 150 142
1.00757 0.453498 3.04717 101 161 153
0.864026 0.460121 3.05974 93 155 137
0.427966 0.471212 3.10723 114 178 166
1.19947 0.461383 3.02974 98 161 152
1.01255 0.468246 3.0384 77 150 134
-0.00231831 0.495868 3.1509 70 122 98
0.724309 0.50132 3.06999 72 125 115
-0.0631175 0.52041 3.16021 84 154 137
-0.00982499 0.519576 3.1509 82 139 118
0.220701 0.518239 3.128 80 149 122
0.0925803 0.533357 3.13971 78 137 116
0.705448 0.549839 3.08004 105 167 145
0.131522 0.563419 3.13963 98 164 145
0.913091 0.557436 3.05434 73 147 123
1.17535 0.568248 3.02971 177 243 231
1.42411 0.566502 3.00791 90 150 139
0.726409 0.57852 3.05734 188 246 222
1.18193 0.584144 3.02423 148 205 197
0.790919 0.608061 3.0648 81 132 124
1.18364 0.614761 3.03232 97 156 142
1.15629 0.619262 3.03545 95 158 148
-1.07962 0.675614 3.28125 120 166 177
-0.501155 0.681945 3.20425 245 255 255
-0.31864 0.720144 3.19741 114 179 164
-1.82153 -1.28179 3.09917 88 139 111
0.478367 -1.20389 2.96427 48 98 86
0.22872 -1.20912 2.99386 88 147 132
0.238659 -1.20254 2.98986 161 228 189
0.875889 -1.04534 2.59209 66 170 117
0.288445 -1.20289 2.98912 71 134 108
-0.46075 -1.21169 3.03313 77 146 126
-0.523852 -1.20993 3.03816 116 178 160
-1.78453 -1.23792 3.11751 137 220 182
-1.25157 -1.22412 3.09428 94 158 129
-0.487017 -1.19636 3.03974 85 149 130
0.470839 -1.16852 2.97074 127 209 187
-0.591938 -1.19748 3.04523 78 150 128
0.395278 -1.16542 2.97533 51 71 52
0.416621 -1.16331 2.96957 153 221 180
-0.0292054 -1.1754 3.008 94 159 133
-1.39818 -1.21014 3.12007 94 156 138
0.052028 -1.17069 3.00834 124 201 180
0.0670208 -1.17205 3.0124 76 129 115
0.152678 -1.16927 3.00445 156 235 196
0.373316 -1.16222 2.98894 53 101 73
0.657329 -1.02509 2.63782 92 177 125
-1.16834 -1.19998 3.09715 101 177 159
0.4144 -1.1511 2.98518 107 185 148
0.132198 -1.14626 3.0041 101 150 136
0.402299 -1.14205 2.99027 39 75 51
-0.183053 -1.15165 3.03132 99 180 155
0.368578 -1.13892 3.001 40 71 44
0.151532 -1.13996 3.0115 104 161 146
0.335889 -1.13019 3.00232 74 90 66
0.113553 -1.13095 3.01449 110 179 159
0.480988 -1.12315 2.9916 44 66 47
-1.89993 -1.18237 3.16385 132 183 179
0.758479 -0.978191 2.62809 65 141 107
0.413338 -1.10944 2.98882 97 161 125
-0.361494 -1.12064 3.03941 87 154 133
-1.25296 -1.13631 3.10188 196 245 255
0.413655 -1.09817 2.9959 59 95 73
-1.23003 -1.13912 3.11647 83 149 124
-0.391789 -1.1065 3.04726 75 152 125
0.310934 -1.08526 3.00096 154 227 187
0.0355571 -1.09388 3.02421 83 131 132
0.409137 -1.0781 3.00915 54 72 49
1.42261 -1.04322 2.90584 69 131 119
0.759826 -0.942619 2.6418 147 217 170
0.22104 -1.07412 3.01545 83 152 132
0.292317 -1.06565 3.01011 86 132 119
1.36445 -1.02966 2.90025 61 114 100
-1.28784 -1.0981 3.10974 97 131 114
0.763442 -0.931089 2.6334 61 117 82
0.321563 -1.0522 3.01379 122 174 157
0.780524 -0.9244 2.64838 37 119 77
-1.14115 -1.08164 3.09932 85 132 116
0.248121 -1.04816 3.01555 82 125 104
0.543497 -1.03564 2.9918 57 77 54
0.790512 -0.914797 2.6498 89 171 122
-1.32211 -1.07317 3.11688 89 147 123
-1.01002 -1.06442 3.10677 90 150 132
0.333288 -1.03614 3.02195 97 135 113
-1.48562 -1.05869 3.13485 96 133 123
-0.271564 -1.02948 3.05608 84 162 138
0.470583 -1.01575 3.00885 79 118 93
-1.05414 -1.04733 3.10831 86 157 131
0.737496 -0.898873 2.66943 96 170 128
-1.52667 -1.05886 3.16185 116 169 160
-0.081135 -1.02228 3.05235 104 170 145
0.790627 -0.891213 2.66039 35 64 38
-1.23329 -1.04177 3.11246 72 120 91
0.251112 -1.00004 3.02739 87 141 128
-1.30223 -1.02872 3.11736 138 251 201
-1.20807 -1.02962 3.12079 97 143 121
0.466334 -0.992405 3.01465 95 130 110
0.807507 -0.873538 2.65346 74 168 121
-1.42414 -1.03035 3.14224 100 165 144
-1.27944 -1.02009 3.11941 139 221 169
-1.26303 -1.00751 3.10674 80 118 88
0.330436 -0.983187 3.01708 78 126 98
1.52439 -0.939578 2.91916 92 137 128
-1.80518 -1.01394 3.14614 85 136 108
0.323113 -0.970852 3.02524 125 190 169
-0.338539 -0.980143 3.07093 222 255 249
0.312973 -0.963133 3.02272 77 95 82
0.38895 -0.963462 3.02217 115 172 157
0.398778 -0.948071 3.0237 59 73 55
-0.18958 -0.955102 3.04663 94 163 130
1.42091 -0.91903 2.93346 80 142 120
0.296692 -0.948154 3.03096 87 119 100
-0.288879 -0.954364 3.06957 90 139 131
1.46833 -0.907046 2.92773 83 133 133
0.290958 -0.934203 3.0292 124 183 163
1.51844 -0.897723 2.92452 85 143 132
-1.88581 -0.969393 3.17579 96 157 123
0.320597 -0.918705 3.03152 102 122 103
-1.86212 -0.962364 3.16124 144 225 170
-1.46485 -0.93548 3.16214 83 144 124
-0.926755 -0.920681 3.12444 93 159 147
-0.509432 -0.911061 3.09459 93 169 145
1.22647 -0.858453 2.91368 57 99 92
1.29803 -0.851169 2.9425 156 209 195
-0.342278 -0.877495 3.08713 73 133 103
0.272769 -0.866669 3.04233 71 113 112
0.341755 -0.865316 3.03326 108 154 131
1.25188 -0.835388 2.93719 109 149 138
-0.378547 -0.869765 3.07793 57 83 60
0.48463 -0.854094 3.03795 106 141 115
-0.76154 -0.867054 3.12627 89 163 139
0.345 -0.841403 3.02536 80 111 84
1.2673 -0.815542 2.93605 167 232 200
0.272878 -0.842752 3.03846 106 125 110
1.2283 -0.811398 2.93853 66 102 88
-1.33427 -0.869714 3.16215 107 150 139
1.15396 -0.808707 2.94415 71 91 86
0.553568 -0.823094 3.02272 93 121 101
0.248845 -0.82215 3.03861 87 113 97
0.513816 -0.808654 3.02161 97 137 125
-0.90233 -0.833401 3.12853 78 131 111
-0.40705 -0.829245 3.10308 104 184 155
1.36987 -0.78053 2.94941 72 156 132
-1.41385 -0.827294 3.17777 92 148 129
0.107965 -0.794394 3.05985 65 145 114
0.23614 -0.796637 3.04892 126 185 171
-1.77667 -0.82719 3.19399 97 181 157
-1.27524 -0.819841 3.16797 86 125 109
-1.23755 -0.821364 3.16311 64 109 90
0.221706 -0.792055 3.05556 68 96 77
1.16246 -0.755129 2.96566 42 87 68
1.29767 -0.751123 2.94523 97 157 139
1.19582 -0.750987 2.95963 53 75 56
-1.24862 -0.800255 3.16106 55 110 83
0.446677 -0.762881 3.04352 89 119 108
0.182231 -0.766537 3.05733 146 213 186
-0.5071 -0.772468 3.10574 87 153 118
-1.82067 -0.789109 3.20772 140 224 195
-1.82019 -0.789092 3.20824 133 214 187
0.0314822 -0.755717 3.06749 54 128 104
1.23973 -0.727023 2.97983 151 216 200
0.167404 -0.728991 3.05778 67 116 96
0.389726 -0.719664 3.047 96 115 100
0.182445 -0.724388 3.06095 110 181 165
0.994975 -0.699364 2.98927 52 111 103
-1.21789 -0.73636 3.17299 98 148 118
0.208146 -0.710314 3.05132 60 82 58
0.97784 -0.687016 2.99788 87 153 152
-1.1931 -0.727618 3.16719 139 207 176
1.49328 -0.673835 2.95605 85 150 135
-1.17691 -0.722659 3.17416 145 246 208
-1.76893 -0.731851 3.22251 84 153 138
-1.93046 -0.711097 3.2515 81 145 109
0.572807 -0.665031 3.03244 108 142 135
-1.12264 -0.680069 3.1733 57 82 72
-1.11505 -0.680131 3.18741 65 119 102
-1.81942 -0.68008 3.21797 115 200 168
-1.1844 -0.672698 3.18841 90 146 123
-1.8517 -0.668366 3.22952 60 93 79
-1.16341 -0.656024 3.18098 71 122 94
0.546108 -0.625058 3.03414 99 128 119
0.982888 -0.620265 2.98965 64 109 92
0.595095 -0.62095 3.03975 93 113 108
0.895425 -0.617704 2.99378 138 190 220
0.200661 -0.620102 3.06902 101 164 144
1.09104 -0.600747 2.99174 144 206 190
0.224665 -0.613026 3.06344 82 121 106
0.764792 -0.600425 3.0224 49 72 58
0.337326 -0.60277 3.05647 162 226 207
0.202721 -0.595884 3.07734 99 161 147
0.341713 -0.590823 3.05866 79 109 90
0.61251 -0.582327 3.02586 118 191 153
1.29448 -0.565795 2.98184 88 152 140
1.12427 -0.56584 2.99139 87 149 135
0.341907 -0.574577 3.05422 124 195 175
0.659093 -0.573268 3.03606 123 167 191
-1.81639 -0.59937 3.2169 162 236 210
0.638791 -0.571598 3.05173 88 93 96
0.681234 -0.56395 3.03324 122 181 191
0.732025 -0.567214 3.03151 56 73 59
0.456673 -0.562773 3.05142 112 155 146
0.708771 -0.559995 3.02442 106 194 170
0.336164 -0.56063 3.0613 73 128 111
0.836375 -0.548136 3.01902 77 145 128
1.27412 -0.537285 2.98631 89 148 133
-1.29296 -0.56997 3.20943 63 119 98
0.562074 -0.53649 3.04627 128 213 199
-1.2612 -0.561791 3.20976 67 144 110
0.747589 -0.53062 3.02921 91 136 120
0.366604 -0.530581 3.0597 63 89 65
-1.92628 -0.560474 3.25622 128 207 163
0.436054 -0.521444 3.05557 107 132 118
1.1544 -0.512166 2.99601 158 226 215
0.387028 -0.516449 3.04949 65 86 64
0.493507 -0.514929 3.04482 66 88 76
0.737647 -0.516916 3.02987 96 145 153
1.23476 -0.506064 2.98884 70 121 114
-1.83915 -0.547522 3.25102 93 157 135
1.18429 -0.502571 2.98853 93 148 133
0.393768 -0.507238 3.05082 103 151 127
0.449578 -0.509974 3.0527 126 205 192
0.462699 -0.507146 3.04505 71 98 88
0.712877 -0.491936 3.03794 139 189 189
0.76537 -0.49003 3.02948 90 130 119
0.586433 -0.490905 3.04541 100 150 132
1.09911 -0.480639 2.99591 41 69 56
1.30857 -0.471719 2.98182 67 117 113
0.191654 -0.483181 3.0749 85 154 133
-1.78269 -0.507275 3.261 82 137 112
-1.17446 -0.497484 3.20206 68 107 91
1.13966 -0.455981 3.00121 53 90 74
-1.95795 -0.4848 3.28168 81 155 119
1.15424 -0.435595 3.00163 45 98 78
1.31345 -0.432813 2.98022 68 109 102
1.39664 -0.428651 2.97335 92 150 139
1.39668 -0.428644 2.97339 92 150 139
0.211729 -0.44081 3.0841 82 147 131
0.677818 -0.437941 3.04073 125 210 196
-1.22848 -0.4556 3.21468 98 153 128
1.18678 -0.420832 2.99831 64 100 83
-1.91834 -0.4581 3.26144 62 104 86
0.749953 -0.419417 3.03787 89 117 151
0.601936 -0.421034 3.03915 172 238 226
0.658772 -0.416804 3.03376 95 140 131
1.1498 -0.409729 3.00333 82 148 123
0.205788 -0.417724 3.08091 101 160 146
0.656101 -0.405701 3.03032 74 114 109
0.691838 -0.405901 3.03148 175 239 227
1.2265 -0.397902 3.00412 70 135 119
1.77398 -0.38803 2.94557 82 133 119
0.304105 -0.402437 3.06903 80 143 111
0.58719 -0.399699 3.0324 156 228 208
1.4022 -0.392402 2.98297 80 132 122
0.274664 -0.394902 3.07243 169 246 195
0.68 -0.395081 3.02856 61 105 98
0.3985 -0.394192 3.06682 85 150 134
0.658634 -0.390804 3.03348 165 226 216
1.12847 -0.379658 3.00871 50 117 102
0.295643 -0.379193 3.0724 90 134 103
0.688497 -0.374663 3.03115 49 103 96
0.499485 -0.372368 3.06032 93 141 135
0.3284 -0.36545 3.07322 197 234 226
0.209691 -0.359689 3.08631 63 112 92
1.09066 -0.349376 3.01523 99 158 144
0.816661 -0.340665 3.03964 95 132 166
1.01323 -0.340038 3.02953 78 139 129
1.25351 -0.333372 3.00016 78 153 137
0.89653 -0.332314 3.02439 106 149 166
-1.78318 -0.351286 3.28085 118 184 172
0.498338 -0.320648 3.05667 93 147 130
0.693843 -0.315948 3.04065 63 82 73
0.714064 -0.309264 3.03439 155 219 189
1.5712 -0.30752 2.96506 134 210 198
-1.84943 -0.334736 3.28275 85 134 132
0.745957 -0.302718 3.04022 146 217 207
1.07191 -0.302347 3.02194 78 146 129
0.357942 -0.301907 3.06671 143 224 177
0.707385 -0.301009 3.02787 72 106 105
0.33554 -0.300551 3.06982 167 223 218
0.693735 -0.297322 3.03949 64 100 94
-1.83981 -0.319759 3.29763 60 115 106
0.713244 -0.282093 3.03036 191 244 235
0.285761 -0.277049 3.08722 172 250 213
0.733791 -0.274279 3.04239 50 94 88
0.83998 -0.273809 3.03421 103 165 165
0.878516 -0.269839 3.02586 77 122 143
0.391959 -0.267843 3.05601 47 69 57
0.580232 -0.263295 3.05857 72 113 98
0.15381 -0.262145 3.09824 77 157 120
1.53211 -0.253446 2.98415 51 114 104
0.721747 -0.25242 3.02661 66 121 112
0.785612 -0.257663 3.04172 159 223 193
0.795588 -0.249955 3.02849 75 124 104
0.596195 -0.241181 3.04925 54 83 74
0.852167 -0.235928 3.01798 78 125 99
0.822943 -0.229645 3.02989 71 100 91
0.322842 -0.228612 3.05327 129 226 182
0.471728 -0.229816 3.05171 85 169 157
0.705827 -0.221356 3.03312 61 106 89
0.732364 -0.22445 3.0411 55 102 86
0.401788 -0.220898 3.05058 64 144 131
0.282328 -0.21295 3.08842 138 204 193
0.446093 -0.200744 3.03996 46 93 71
0.861951 -0.200838 3.0376 67 110 99
-1.20848 -0.212463 3.24426 116 184 161
0.396652 -0.196774 3.04845 79 131 121
0.437641 -0.188234 3.05027 138 206 165
0.482328 -0.185022 3.04724 87 132 129
0.842878 -0.183282 3.03179 49 79 66
-0.106751 -0.182719 3.12115 66 118 108
-1.14688 -0.182133 3.23056 82 117 90
0.281864 -0.172825 3.08704 88 128 116
0.84066 -0.172512 3.03782 120 183 151
0.855168 -0.170728 3.03681 40 81 60
0.312925 -0.166573 3.09162 132 193 179
-1.17805 -0.16444 3.2441 65 89 65
-1.87542 -0.165049 3.28481 75 119 96
0.47904 -0.154652 3.06036 121 203 161
0.537483 -0.148198 3.05255 61 98 58
-1.21634 -0.154723 3.24167 136 211 190
0.64545 -0.145192 3.04961 71 138 106
-1.16865 -0.147959 3.24421 72 92 73
-1.8319 -0.14373 3.29878 87 158 138
0.700285 -0.127956 3.0318 143 205 189
-1.17712 -0.133048 3.24245 144 218 194
-1.20792 -0.128465 3.24134 122 188 169
-1.19312 -0.127297 3.24329 73 119 100
-1.1944 -0.127106 3.24393 78 127 107
-1.2435 -0.122943 3.25682 129 204 182
0.458952 -0.114258 3.06758 84 136 119
-1.26339 -0.114451 3.26276 62 94 69
0.30278 -0.111082 3.09452 102 160 132
0.594298 -0.112475 3.04592 67 96 80
0.722775 -0.108435 3.04272 176 227 219
0.844396 -0.104584 3.04173 73 143 126
-1.16402 -0.105054 3.25432 83 115 91
0.885754 -0.102584 3.04024 98 140 147
-1.29864 -0.107768 3.24116 53 84 57
-1.19881 -0.103209 3.24996 137 191 174
0.361292 -0.0991467 3.0838 64 100 86
0.651452 -0.0944514 3.05566 69 119 101
-1.55482 -0.101623 3.28266 69 125 104
0.761657 -0.0892827 3.04579 151 223 200
-1.31647 -0.0993167 3.26277 136 208 188
0.312873 -0.0913593 3.0922 68 100 75
0.322167 -0.0932904 3.10045 80 126 97
-1.27256 -0.0903857 3.25443 98 140 122
0.850044 -0.0795465 3.03785 110 157 135
-1.29843 -0.0776993 3.25904 61 81 62
0.316375 -0.0728327 3.09197 97 135 113
0.840048 -0.0705422 3.02252 73 113 101
1.29435 -0.0673796 3.01403 84 142 124
-1.35948 -0.0711689 3.26823 59 136 122
-1.16638 -0.0709848 3.24764 74 87 71
-0.14492 -0.0668358 3.13566 99 160 146
1.07941 -0.0613136 3.02555 217 241 255
0.859312 -0.0611875 3.04256 68 115 106
1.3262 -0.0597453 3.01206 82 145 129
-1.89306 -0.060107 3.2996 54 96 78
-1.30471 -0.0630019 3.2574 128 191 175
-1.20878 -0.0613119 3.25478 127 189 171
0.377501 -0.0561312 3.08622 94 138 121
-1.35149 -0.0523432 3.27087 92 157 142
-1.55979 -0.0432382 3.2871 81 152 126
-1.31412 -0.0452249 3.26259 71 116 97
-1.26947 -0.0409001 3.25122 64 90 74
1.13555 -0.0393126 3.02628 84 160 156
-1.19603 -0.0389668 3.2545 120 169 149
0.0193066 -0.0357998 3.10328 84 171 135
0.292708 -0.0367593 3.09728 108 163 146
0.333112 -0.0379431 3.09368 61 121 103
0.802293 -0.0376193 3.03133 73 115 97
1.78445 -0.0302374 2.96515 101 135 129
0.839166 -0.0297903 3.04263 74 126 116
-1.2899 -0.0134408 3.25909 60 96 72
0.856057 -0.0120451 3.04234 44 99 80
0.409687 -0.0109628 3.07899 58 106 94
-1.36372 -0.00460749 3.27247 59 144 122
-1.14487 -0.0032556 3.25761 98 135 115
0.228387 0.000394108 3.09915 92 156 121
-1.8691 0.00406191 3.30042 41 111 88
0.837383 0.0047558 3.04096 76 142 107
0.896212 0.00589246 3.04508 88 150 136
0.761484 0.008091 3.04882 63 97 86
-1.22629 0.0130178 3.25736 124 164 146
0.0107987 0.0126104 3.13 84 160 129
-1.2822 0.0242071 3.24915 62 114 90
-1.25786 0.0241635 3.2672 114 181 160
0.356551 0.0221539 3.08015 116 181 160
1.09548 0.0222326 3.02887 111 165 152
-1.96919 0.0281001 3.33208 108 178 138
-1.17134 0.0318287 3.26145 92 135 114
0.371011 0.0336425 3.09076 79 122 109
-1.08831 0.0407146 3.24715 116 173 158
0.38178 0.0409632 3.09801 149 232 194
-1.87617 0.0475704 3.29845 170 246 222
-1.56105 0.0504281 3.30562 106 175 148
-1.25143 0.0477473 3.26246 125 195 165
0.847442 0.0426109 3.05409 94 168 140
0.367673 0.0471799 3.09155 72 122 104
0.12525 0.055675 3.11146 137 213 171
-1.26075 0.0604109 3.25725 71 108 92
0.298525 0.0560431 3.09495 67 110 95
0.627836 0.0549348 3.05783 68 90 72
-1.19054 0.0701434 3.26051 134 205 195
0.276791 0.0645945 3.09857 85 135 123
0.783203 0.0644078 3.04749 77 139 125
0.565398 0.0660994 3.06676 61 107 88
-1.25041 0.0816539 3.25929 133 197 175
-1.15682 0.0815779 3.25655 164 225 215
-1.81495 0.0860092 3.31329 97 188 155
0.5998 0.0799784 3.07127 76 118 100
0.22348 0.089006 3.11564 71 113 90
-1.33923 0.0922165 3.26733 77 94 81
-1.06052 0.0941769 3.24518 114 164 146
0.203765 0.0877371 3.09982 187 248 234
-1.24295 0.0978307 3.26134 51 83 64
-1.57965 0.1075 3.30671 108 171 151
0.547106 0.100828 3.08131 90 156 144
-1.25645 0.132094 3.26706 86 126 114
-1.24348 0.133636 3.26671 155 213 202
-1.03309 0.136836 3.25556 72 98 84
0.0472304 0.124945 3.11922 73 127 97
-1.30099 0.13642 3.26216 149 215 203
-1.22913 0.136248 3.27343 65 97 86
-1.06626 0.136961 3.24499 136 198 184
0.538913 0.131145 3.07836 76 119 104
-1.96586 0.145449 3.32895 78 114 84
-1.214 0.142034 3.26665 144 218 200
-1.03226 0.147887 3.24904 122 167 150
-1.27425 0.162807 3.26574 57 93 76
0.320411 0.158857 3.1045 81 149 126
-1.26978 0.175966 3.27023 164 235 215
0.684191 0.166575 3.07282 76 147 127
-1.56467 0.18145 3.3059 85 156 129
-1.2532 0.182047 3.26404 96 114 107
0.0492586 0.173982 3.13304 50 98 72
-1.19539 0.193872 3.26644 84 121 105
-1.08285 0.192315 3.25422 150 203 190
0.611074 0.18125 3.07734 80 130 112
0.234193 0.190467 3.11045 86 138 120
-1.81867 0.206907 3.3307 95 168 136
-1.03595 0.205139 3.25196 67 107 89
-1.38102 0.213898 3.29197 125 199 165
0.351496 0.204288 3.10283 89 142 129
1.03761 0.199363 3.03711 106 162 149
0.0471787 0.217064 3.14017 81 145 126
-0.855954 0.225822 3.23264 78 110 93
-1.27598 0.231797 3.27723 143 227 202
-1.18264 0.233669 3.26586 59 98 82
-1.14022 0.23237 3.26253 157 216 208
-1.98494 0.244244 3.34623 85 110 90
-1.602 0.244674 3.31456 105 166 152
-0.214771 0.22461 3.15117 109 154 137
-0.849968 0.239469 3.23827 148 208 198
-1.16726 0.246971 3.26942 87 133 121
0.274996 0.233763 3.10971 80 144 132
1.11514 0.228204 3.01936 92 170 153
-1.25099 0.24972 3.27533 152 204 194
-1.05097 0.249144 3.25697 84 125 104
1.77513 0.236567 2.97735 90 138 139
-1.24244 0.262816 3.27085 80 110 99
-0.946153 0.2636 3.24829 66 99 78
-0.987892 0.261549 3.24543 73 97 87
0.127328 0.25759 3.12699 85 140 131
-1.1635 0.278856 3.25803 80 123 112
-1.20919 0.284844 3.28815 96 147 140
-0.965749 0.287648 3.25175 151 213 195
-1.2513 0.291725 3.27865 87 135 117
-1.0887 0.287936 3.25835 150 214 202
-0.783671 0.289839 3.22669 82 132 122
-1.17747 0.301989 3.26559 98 131 117
-1.00206 0.310148 3.26216 64 108 85
-0.776255 0.314574 3.23058 80 133 119
0.904081 0.296123 3.05359 111 174 165
-1.06882 0.318649 3.24514 143 209 197
-1.09158 0.328037 3.26862 80 131 117
0.184489 0.313859 3.12117 78 158 129
-0.798454 0.328058 3.23011 91 162 152
-1.58433 0.340571 3.32245 85 137 107
-0.775199 0.332748 3.22959 141 211 198
-1.17813 0.340584 3.26979 101 159 148
-1.0506 0.344264 3.26347 85 120 100
-0.875729 0.336812 3.24772 58 101 88
0.195487 0.334316 3.12616 64 134 111
-1.11781 0.351418 3.25849 63 114 87
-1.58371 0.364516 3.31323 99 169 139
-1.19559 0.358905 3.27254 105 158 145
-1.04258 0.36202 3.26138 128 207 186
-1.0306 0.362995 3.2602 69 122 102
-1.01155 0.36124 3.26119 129 209 192
-0.828341 0.358381 3.24082 71 114 103
-1.07303 0.374942 3.26038 80 117 109
-0.864285 0.381467 3.24421 89 130 123
-1.0463 0.385947 3.25609 100 140 129
-0.190595 0.373948 3.16192 76 129 115
1.01603 0.360714 3.04291 81 124 121
-1.10121 0.394292 3.26423 87 134 118
-0.11789 0.409358 3.16027 123 181 163
1.37239 0.389746 3.01354 78 133 116
-1.09199 0.428115 3.26592 92 162 139
0.619097 0.403404 3.08556 99 148 140
0.841701 0.405385 3.06214 92 144 134
0.773915 0.410184 3.06677 118 182 163
1.41276 0.41848 3.01291 93 158 149
0.599898 0.440485 3.0854 88 151 141
1.1669 0.448323 3.03327 100 159 145
0.864763 0.460897 3.06138 93 155 137
1.197 0.458804 3.02438 99 160 150
0.0205845 0.488739 3.15884 107 170 150
1.01151 0.468207 3.03828 84 157 141
0.483992 0.503957 3.09366 90 147 138
1.14327 0.502524 3.0453 103 160 169
-0.327071 0.527123 3.1898 199 246 237
0.44559 0.522782 3.12002 116 175 160
1.28745 0.504378 3.03146 122 182 176
1.20365 0.516485 3.03577 87 141 128
1.44754 0.515269 3.01013 58 102 95
0.719127 0.529039 3.07415 97 154 129
1.31257 0.531305 3.02642 77 137 129
1.14356 0.606262 3.03696 80 141 127
0.159995 -1.17809 2.99804 61 116 89
0.232351 -1.18063 2.99624 52 84 67
0.451211 -1.17032 2.97436 123 208 170
0.468944 -1.16606 2.9669 133 212 191
0.391188 -1.16614 2.98194 40 61 39
0.840402 -1.02327 2.61659 28 109 70
0.298836 -1.16032 2.99653 62 136 106
-0.0111151 -1.15622 3.01434 89 141 124
0.151382 -1.1423 3.00304 98 167 146
0.2354 -1.14709 2.99909 104 164 140
0.365815 -1.13324 3.00413 52 74 49
0.381946 -1.13952 3.00066 123 209 169
-0.420537 -1.14639 3.0425 51 100 80
0.330299 -1.12612 3.00177 59 84 58
0.798182 -0.984208 2.63372 88 172 137
0.304973 -1.10581 3.00582 69 105 81
0.820163 -0.961375 2.62979 112 225 181
0.307408 -1.08664 3.00876 158 234 202
-0.440423 -1.09622 3.04828 90 138 110
0.422386 -1.07749 3.0014 107 185 144
-1.10887 -1.09888 3.10623 84 139 124
0.290822 -1.0582 2.99876 102 152 140
0.29418 -1.05859 3.01754 97 142 133
-1.75077 -1.08618 3.14829 72 119 116
0.768048 -0.912842 2.65711 36 65 39
-1.05273 -1.04769 3.10211 89 155 130
0.155218 -1.02251 3.02854 132 187 170
-1.48946 -1.0579 3.14753 94 128 118
0.331037 -1.00563 3.01877 130 203 181
-1.72106 -1.03804 3.16483 99 180 165
-0.0999537 -0.997451 3.05185 78 133 108
-1.26662 -1.00751 3.11375 72 104 79
0.322124 -0.970841 3.02482 132 197 176
1.52062 -0.938231 2.91323 91 141 129
-1.81049 -1.00888 3.16028 60 121 87
-1.76593 -0.994595 3.1703 70 138 107
-0.407082 -0.951652 3.07459 93 165 143
-0.318316 -0.946199 3.07276 65 115 97
0.439367 -0.932401 3.01571 100 136 120
-1.28631 -0.961305 3.14182 91 139 115
-0.643678 -0.950498 3.10225 83 145 127
-1.86228 -0.960307 3.15682 143 227 172
-1.84214 -0.959236 3.17677 51 77 54
-0.508254 -0.928182 3.08872 57 103 80
-0.259986 -0.91662 3.07066 79 139 115
-0.782326 -0.912334 3.10789 72 137 115
0.262274 -0.890593 3.03525 104 145 138
0.264317 -0.889807 3.05718 106 146 141
1.29061 -0.850084 2.94234 152 207 190
0.0887651 -0.87891 3.06732 98 170 148
-1.85063 -0.911698 3.18366 81 129 105
-1.76038 -0.91018 3.19302 95 169 143
0.481985 -0.850727 3.02889 110 145 119
1.7884 -0.819129 2.90355 65 118 105
0.281902 -0.85084 3.03961 144 213 198
0.339089 -0.849864 3.03442 112 141 126
-0.41487 -0.853918 3.08971 87 147 117
1.26191 -0.808355 2.94839 101 145 128
-1.35806 -0.863063 3.16391 76 131 112
0.246075 -0.82418 3.03631 95 131 119
-1.12979 -0.849614 3.14663 99 161 139
1.22284 -0.801609 2.96296 74 117 102
0.246669 -0.815848 3.03895 70 97 81
1.25376 -0.784671 2.94863 144 199 182
-0.903064 -0.833239 3.13165 75 134 114
0.234572 -0.80074 3.05301 126 188 172
0.129283 -0.777104 3.05582 75 149 131
0.193347 -0.77698 3.05563 89 134 115
0.178926 -0.765389 3.05385 135 209 179
1.31354 -0.736058 2.96295 136 211 197
0.16491 -0.749976 3.06838 72 118 126
1.15231 -0.729599 2.97201 144 215 189
-1.80633 -0.748492 3.20745 94 156 134
1.24243 -0.690399 2.97278 64 118 105
0.22114 -0.700531 3.05291 116 196 173
-1.86368 -0.731315 3.22189 43 88 69
0.567823 -0.663875 3.03213 78 112 102
0.235056 -0.660737 3.05608 127 196 175
0.819145 -0.642933 3.0056 140 209 196
0.579536 -0.635014 3.03564 92 112 117
-1.79024 -0.668508 3.22577 79 126 117
1.47533 -0.60644 2.96713 102 166 147
-1.19353 -0.64327 3.19994 94 147 127
1.09228 -0.603437 2.98126 137 204 189
0.290559 -0.607957 3.05915 130 205 184
0.761377 -0.601779 3.02378 48 60 48
0.89379 -0.600228 3.01368 97 148 134
0.332452 -0.602579 3.05818 137 207 184
0.561429 -0.590492 3.03908 139 165 205
0.258683 -0.592162 3.04653 65 91 75
1.67011 -0.56207 2.94871 130 197 182
0.635704 -0.573678 3.03691 69 74 65
0.658044 -0.573204 3.03639 117 159 178
1.08978 -0.5666 2.99343 87 155 138
0.666286 -0.561354 3.03436 137 190 241
0.689973 -0.557489 3.02511 68 92 82
0.756487 -0.558772 3.02564 62 124 102
1.24722 -0.533039 2.98442 110 165 138
0.542194 -0.537131 3.03838 66 85 66
0.582488 -0.5407 3.04467 66 90 90
0.879842 -0.534387 3.02111 79 127 115
0.499255 -0.528759 3.04902 144 213 198
1.13153 -0.513009 2.99517 102 148 136
0.487187 -0.514233 3.04678 73 90 76
0.740903 -0.519057 3.03573 102 153 145
0.443682 -0.506022 3.03982 122 207 192
1.08525 -0.489459 2.9985 73 124 104
0.414005 -0.492015 3.05299 71 82 62
0.714789 -0.484125 3.03743 130 180 176
0.785366 -0.473363 3.02553 138 211 201
0.561333 -0.462869 3.04257 109 152 141
0.803472 -0.464602 3.0371 101 153 135
1.10388 -0.460401 3.00251 72 115 104
0.60311 -0.442624 3.04247 68 116 104
0.672481 -0.435965 3.04125 103 182 173
0.735726 -0.437293 3.04132 111 145 168
0.602108 -0.420762 3.04057 172 238 226
0.583103 -0.417457 3.04181 61 113 96
1.37064 -0.402681 2.9827 80 134 117
0.573809 -0.408034 3.05447 109 171 159
0.608792 -0.402261 3.04154 48 78 65
0.764831 -0.407376 3.03953 109 150 182
0.59014 -0.392534 3.04296 126 195 175
0.263785 -0.39012 3.07345 77 135 107
0.734917 -0.387163 3.03748 128 195 186
0.796985 -0.393671 3.04367 129 183 178
-1.92654 -0.415165 3.28004 73 110 94
0.567815 -0.380505 3.04934 93 127 120
0.266003 -0.384056 3.104 69 129 98
0.463798 -0.350563 3.05051 165 226 216
0.685495 -0.342844 3.02121 180 247 226
1.63997 -0.321229 2.96575 82 147 126
-1.92298 -0.351027 3.27344 70 100 71
0.694664 -0.307093 3.02298 65 98 91
1.57078 -0.308815 2.97635 140 216 204
0.370994 -0.311887 3.05732 94 151 118
0.842725 -0.304945 3.03565 104 169 167
0.583588 -0.303354 3.04771 142 200 189
0.700392 -0.302536 3.04296 49 90 83
0.587416 -0.290037 3.06277 83 111 98
0.654696 -0.289726 3.04703 56 126 85
1.21687 -0.287877 3.0112 41 72 63
0.79427 -0.280623 3.02469 47 96 88
0.608913 -0.281991 3.04786 63 106 91
0.762504 -0.278783 3.03143 54 91 83
0.878413 -0.266724 3.03257 105 149 190
0.748782 -0.261646 3.0346 159 231 208
0.782773 -0.260634 3.02956 153 230 203
0.338231 -0.254975 3.05174 51 97 74
0.592636 -0.235426 3.05426 64 91 82
0.849347 -0.234204 3.01729 75 139 109
1.80969 -0.223664 2.95268 76 119 108
0.822526 -0.230078 3.02819 71 100 91
0.702696 -0.22407 3.03526 98 145 123
0.283802 -0.224594 3.08283 70 108 90
0.860547 -0.210995 3.03981 56 100 87
-1.20324 -0.2132 3.23007 120 179 159
0.302725 -0.198145 3.08472 54 72 55
0.85859 -0.18694 3.02241 158 227 207
-0.0140964 -0.188394 3.11234 58 98 86
0.350496 -0.176271 3.07931 48 61 53
0.804126 -0.169242 3.03436 57 103 80
-1.79848 -0.176956 3.29495 93 165 152
0.28903 -0.16751 3.09008 75 109 98
0.800794 -0.153106 3.03396 68 94 76
0.48036 -0.135613 3.0504 71 113 90
0.338191 -0.126073 3.09117 97 133 111
-1.29168 -0.130563 3.25045 73 101 95
-1.16839 -0.129149 3.23952 127 201 171
1.62135 -0.118127 2.98705 93 166 144
-1.19842 -0.124354 3.25414 88 130 112
-1.33212 -0.104865 3.25715 83 135 118
0.317494 -0.090345 3.08689 86 130 101
1.27805 -0.0867317 3.03217 51 109 91
-1.26101 -0.0784911 3.25302 71 85 67
0.802797 -0.0609957 3.04854 92 133 125
-1.31608 -0.0607278 3.26563 142 213 197
1.27768 -0.0527191 3.03797 73 130 115
-1.80558 -0.0426015 3.30897 98 135 131
0.0185385 -0.0320766 3.13022 95 182 144
0.43972 -0.0313798 3.07365 84 121 95
-1.31544 -0.0268627 3.25906 115 193 170
0.779374 -0.00678752 3.05001 81 114 93
-1.15087 0.00211611 3.25349 104 146 128
0.200752 0.00495274 3.10884 90 135 108
0.3906 0.0108688 3.09925 113 174 154
-1.22971 0.0237638 3.26868 111 155 142
0.796245 0.0177395 3.04482 59 94 68
-1.28404 0.0254051 3.25293 84 139 114
0.998523 0.0466582 3.03444 101 170 159
1.09379 0.0471917 3.02723 87 121 110
-1.1541 0.0576788 3.253 95 153 128
