ply
format ascii 1.0
element vertex 1267
property float x
property float y
property float z
property uchar blue
property uchar green
property uchar red
end_header
1.38779 -0.217317 3.40989 87 149 133
0.493224 -0.217176 3.48533 41 81 63
0.502242 -0.211531 3.48518 155 213 195
-0.446012 -0.212737 3.58895 85 157 135
0.491252 -0.205304 3.4854 129 195 176
-1.01521 -0.212787 3.64803 98 170 147
0.488773 -0.202841 3.4888 68 140 120
0.586 -0.200684 3.48145 133 197 155
1.29175 -0.193854 3.42111 75 150 128
0.434182 -0.19478 3.49453 92 146 129
0.602948 -0.193046 3.48088 78 144 103
0.54372 -0.188194 3.4973 140 197 182
0.624366 -0.183926 3.48319 53 139 105
0.538463 -0.173134 3.49817 146 205 190
1.27992 -0.163415 3.42047 94 153 145
0.572441 -0.166678 3.48761 92 143 116
0.411007 -0.164975 3.49905 94 152 134
0.426031 -0.164662 3.49185 151 201 177
-0.307787 -0.166809 3.57553 69 144 130
0.424039 -0.16131 3.4991 76 117 90
0.403365 -0.156506 3.49879 72 141 104
0.995897 -0.154362 3.4526 174 233 219
0.439489 -0.141574 3.50004 161 215 198
0.599994 -0.133412 3.48807 70 147 119
0.418426 -0.129415 3.50238 64 108 95
0.398065 -0.120009 3.50965 84 129 102
-0.924704 -0.117376 3.65086 89 158 145
0.325774 -0.113226 3.51854 78 131 104
0.372454 -0.10937 3.50987 155 215 184
-0.577574 -0.110153 3.61404 90 145 128
0.607409 -0.0854481 3.49737 166 229 209
0.477485 -0.0834698 3.50337 77 140 108
0.916471 -0.0830841 3.46849 78 141 115
0.223063 -0.0814561 3.53836 95 165 135
0.483731 -0.0784938 3.50408 151 214 175
0.521389 -0.0772026 3.50986 131 188 173
0.270234 -0.0744515 3.53291 162 222 204
0.296385 -0.0729408 3.52543 169 239 198
0.0857512 -0.0717785 3.55197 73 137 118
0.544295 -0.0685152 3.50148 35 90 63
0.542601 -0.0637078 3.49172 136 197 163
1.62667 -0.0586303 3.40516 74 119 110
-0.262031 -0.0596126 3.57996 70 134 104
0.457903 -0.057801 3.51107 137 207 167
0.328617 -0.0556249 3.52556 63 121 92
0.448607 -0.0512429 3.50874 148 198 166
0.863098 -0.0504524 3.47702 68 137 110
0.415886 -0.0451708 3.51046 148 218 181
0.458264 -0.0455658 3.50707 137 194 169
1.55932 -0.0431805 3.41526 71 119 107
0.456119 -0.0426538 3.50936 87 148 120
0.489125 -0.0426199 3.51141 96 156 132
0.203718 -0.0420349 3.54184 78 146 105
0.195075 -0.0404602 3.54821 99 166 139
-0.127763 -0.0385762 3.57492 80 145 124
0.603574 -0.0356175 3.49991 70 142 106
0.589953 -0.0302826 3.50234 145 210 184
0.934497 -0.0298591 3.47447 96 152 133
0.546849 -0.0272809 3.50826 55 94 73
-0.261447 -0.023984 3.58957 101 171 154
0.528824 -0.0173159 3.50881 104 163 142
2.05418 -0.0152039 3.34475 155 173 214
0.527872 -0.0125666 3.51563 93 146 126
0.145124 -0.0026318 3.5497 100 162 146
1.43557 -0.000702283 3.43779 101 168 153
1.21596 0.000438402 3.45634 156 217 197
-0.454453 0.00964425 3.61639 85 149 120
-0.304224 0.0185304 3.59901 104 168 149
-0.299141 0.0226132 3.59671 159 221 191
0.936554 0.0241717 3.48843 148 205 180
0.534039 0.0260826 3.52243 183 210 214
0.449001 0.0269845 3.51749 179 236 215
1.47028 0.0347334 3.43876 166 221 202
1.11842 0.0357037 3.47024 83 147 128
0.160924 0.049663 3.56019 75 135 95
0.533386 0.0514334 3.52991 82 132 122
-0.409065 0.0540133 3.6145 85 156 139
1.51387 0.0607147 3.43168 95 160 144
0.0914708 0.0801901 3.57094 64 119 110
-0.2979 0.0848406 3.60784 75 130 115
-0.297447 0.0909904 3.60631 100 174 150
-0.464368 0.101712 3.62428 85 159 141
1.27577 0.10006 3.46426 191 235 255
1.22936 0.10592 3.46763 94 139 123
0.0995865 0.121469 3.57109 85 140 113
0.190558 0.129706 3.56391 82 150 109
0.195648 0.133328 3.56403 130 197 152
1.2519 0.132212 3.47238 121 188 167
1.12695 0.144759 3.48373 89 151 129
1.20931 0.14516 3.47429 107 149 131
-0.304874 0.15321 3.6142 153 225 203
0.122857 0.152089 3.57284 93 160 145
-0.193595 0.156087 3.60477 97 166 146
0.0907325 0.161941 3.58233 73 140 125
0.0589215 0.171725 3.5874 55 127 104
0.0639471 0.172726 3.58796 78 159 134
0.145417 0.225472 3.58481 93 142 126
0.144392 0.23092 3.58431 81 139 121
1.30583 0.225952 3.47924 153 216 200
0.129802 0.238613 3.58812 81 134 120
0.163331 0.240426 3.58197 178 214 202
0.145732 0.256444 3.58509 40 83 70
0.18466 0.25552 3.56514 200 209 199
-0.0401843 0.26085 3.60582 101 176 144
0.126566 0.26443 3.59128 166 226 195
0.208483 0.267585 3.5551 244 249 252
0.0617067 0.337892 3.6082 128 170 139
0.0522592 0.341716 3.60723 142 205 185
0.899303 0.337108 3.53087 114 168 151
0.78873 0.344246 3.53903 82 147 122
1.25576 0.361066 3.50586 93 162 141
-0.126961 0.391314 3.62915 129 163 146
0.0199273 0.40132 3.62207 161 214 201
-0.216973 0.42492 3.64241 166 210 209
0.807594 0.427015 3.55192 110 182 159
-0.0254565 0.436252 3.62871 114 167 140
0.0381826 0.437803 3.61994 140 189 167
0.741203 0.44164 3.5524 86 163 126
-0.133991 0.460876 3.63592 68 120 110
-0.101424 0.460563 3.63706 66 137 117
0.718312 0.458246 3.56038 157 227 197
0.712859 0.476984 3.55862 80 152 129
0.747347 0.514714 3.56795 86 144 120
0.753167 0.527396 3.5666 91 155 120
0.908015 0.543684 3.55581 168 230 206
0.0952332 0.583024 3.63704 140 190 178
0.857463 0.571107 3.5628 90 157 128
0.854232 0.577693 3.566 83 145 115
-0.0969273 0.601214 3.65445 149 212 192
1.36205 0.582115 3.52261 112 161 159
0.689974 0.600908 3.57683 84 154 113
0.634839 0.606574 3.57674 70 141 101
0.618554 0.619333 3.5859 77 144 107
0.717605 0.620522 3.57801 74 147 107
0.72153 0.633193 3.57944 80 147 108
0.543781 0.640487 3.58013 83 131 105
0.778317 0.665 3.57747 146 206 166
0.541207 0.673485 3.59617 132 183 149
0.50326 0.697279 3.61615 118 176 158
0.752324 0.708489 3.58565 61 124 85
0.757881 0.712199 3.5815 69 140 97
0.499643 0.725174 3.61889 127 173 160
0.544694 0.723031 3.6018 190 233 230
0.742823 0.723151 3.59378 155 221 179
0.746053 0.723226 3.5907 116 170 133
0.547792 0.733082 3.60164 118 123 114
0.110741 0.748342 3.65849 98 160 148
0.523409 0.745753 3.61584 141 172 165
0.113922 0.773303 3.66208 110 171 161
0.0584657 0.783133 3.66863 87 158 142
0.279111 0.784417 3.64797 74 135 121
0.455523 0.792888 3.63251 131 172 164
0.457094 0.795322 3.63743 153 206 197
0.483536 0.795582 3.6353 123 162 147
0.510357 0.795933 3.62859 140 176 176
0.480682 0.805934 3.63265 127 168 160
0.234146 0.816999 3.65499 163 237 207
0.463419 0.815604 3.63758 61 101 89
0.685301 0.830309 3.61724 159 211 201
0.679124 0.850079 3.62033 142 176 170
0.801191 0.850018 3.61104 137 193 180
0.805224 0.857592 3.61333 145 215 202
-0.0832244 0.886169 3.69995 197 244 241
0.457779 0.879483 3.64505 92 161 141
0.95797 0.873205 3.60527 59 123 111
0.197563 0.894045 3.67394 97 161 139
0.814472 0.885459 3.6196 124 192 181
0.690388 0.893997 3.62621 153 207 202
0.288506 0.929206 3.66442 84 139 124
0.676778 0.92401 3.63294 102 161 163
1.3149 0.923683 3.58257 92 147 168
0.467182 0.948219 3.65206 82 139 131
1.0319 0.942508 3.61075 82 151 141
0.0414957 0.987735 3.6958 98 155 130
0.441059 0.986337 3.65801 79 152 136
-0.0443329 -1.39506 3.41356 89 140 132
0.506832 -1.36006 3.33784 172 210 242
0.806678 -1.34153 3.29688 141 202 164
0.371233 -1.35968 3.3551 143 158 174
-0.178925 -1.38818 3.43021 80 159 146
0.512598 -1.3501 3.33618 158 194 224
0.522922 -1.34939 3.33426 78 101 116
0.15106 -1.36375 3.37911 82 161 128
0.512377 -1.35077 3.3425 165 193 223
0.766222 -1.33379 3.30517 67 110 89
0.512267 -1.34426 3.33846 95 110 129
0.5337 -1.33461 3.33312 52 75 67
0.979779 -1.30817 3.2873 154 223 196
0.560753 -1.31606 3.32105 100 103 94
-0.0475868 -1.35109 3.41865 67 126 106
0.570624 -1.30909 3.32164 169 190 168
0.644762 -1.30137 3.31733 139 207 152
0.527198 -1.30577 3.34001 146 174 185
0.932739 -1.27495 3.29178 114 164 140
0.520197 -1.29442 3.34499 158 168 178
0.561099 -1.2882 3.32805 137 155 132
0.797441 -1.27847 3.30938 126 197 164
0.384291 -1.29597 3.35689 141 167 181
0.0516863 -1.31209 3.40271 157 231 203
0.0599916 -1.3041 3.4006 158 230 207
0.182758 -1.27784 3.38565 159 217 189
0.0620721 -1.28369 3.40322 59 107 89
0.536353 -1.25933 3.34654 121 162 155
0.428902 -1.26376 3.36146 152 150 162
0.927866 -1.23226 3.29913 80 140 122
0.00514998 -1.27446 3.41878 184 244 226
0.0854998 -1.26612 3.39982 83 139 120
0.0663583 -1.26568 3.40525 173 231 206
0.521954 -1.24601 3.35373 112 137 163
0.0629314 -1.26296 3.41003 69 127 103
0.520175 -1.23411 3.35172 109 125 154
-0.0653475 -1.26037 3.43223 89 159 142
0.444906 -1.22829 3.3639 197 224 228
0.0274647 -1.24532 3.41699 77 125 113
0.52704 -1.22079 3.35817 118 128 152
0.080811 -1.23752 3.40754 149 228 207
0.784991 -1.20675 3.32653 125 194 167
0.459466 -1.21839 3.36557 238 249 255
-0.335561 -1.24542 3.4647 96 148 125
0.159629 -1.22098 3.40036 178 227 213
0.169457 -1.21364 3.40322 147 203 180
0.204516 -1.21079 3.39735 72 125 112
0.193505 -1.204 3.39805 94 147 120
0.659698 -1.17517 3.34062 160 230 190
0.533685 -1.18009 3.36363 154 185 208
0.574447 -1.17349 3.34151 100 142 101
-0.334604 -1.21738 3.47048 161 249 209
0.54379 -1.17425 3.35374 129 165 149
0.811089 -1.16409 3.32437 61 137 103
0.544806 -1.17427 3.35436 130 170 145
0.575028 -1.17285 3.35244 73 92 75
0.192505 -1.17392 3.40558 85 142 121
0.387643 -1.15882 3.38563 133 181 185
0.516007 -1.15391 3.37041 170 204 220
1.07477 -1.1281 3.30542 63 135 113
-0.137736 -1.17706 3.45393 80 139 118
-0.0851543 -1.17445 3.4509 87 150 134
0.398907 -1.14933 3.37806 123 166 175
0.20284 -1.15703 3.40632 106 150 149
0.580313 -1.1382 3.35688 77 129 89
0.489314 -1.14403 3.37478 239 253 252
-0.719168 -1.18116 3.5049 102 172 165
0.205308 -1.14527 3.40339 96 148 138
0.354945 -1.13469 3.38761 77 130 116
0.109053 -1.14381 3.41635 78 135 114
0.276199 -1.13744 3.39885 111 145 134
0.281244 -1.13297 3.39196 170 220 188
0.310152 -1.1284 3.39394 72 121 105
-0.288306 -1.15351 3.47244 164 226 204
0.606942 -1.11317 3.35041 161 229 188
0.549405 -1.11227 3.35949 96 139 118
0.0299064 -1.12941 3.43107 98 165 156
0.129198 -1.12501 3.42 154 223 203
0.541666 -1.10377 3.36138 93 119 96
0.195622 -1.11757 3.41276 82 140 116
0.244699 -1.11454 3.40339 164 228 193
0.583754 -1.09902 3.36132 94 154 124
0.38418 -1.10675 3.39318 188 240 240
1.03312 -1.08088 3.31762 94 173 140
0.974837 -1.08084 3.32125 88 140 116
0.434989 -1.0897 3.39183 133 171 153
-0.371687 -1.0969 3.48685 92 163 146
0.076182 -1.07564 3.43119 90 160 143
0.5259 -1.05987 3.38085 141 199 171
0.976573 -1.03889 3.3285 78 130 112
0.520895 -1.05337 3.38376 80 119 98
-0.161113 -1.06858 3.46866 165 232 205
-0.38448 -1.07334 3.49261 77 150 134
0.375648 -1.04097 3.40009 164 224 194
0.552034 -1.02722 3.37075 117 172 155
1.06543 -1.00655 3.32058 96 142 129
0.696565 -1.00974 3.36386 72 131 110
-0.0906463 -1.03796 3.46293 95 160 145
0.939238 -1.00091 3.33804 135 195 171
-0.0626411 -1.02236 3.45589 92 148 135
-0.200759 -1.0257 3.47348 89 153 124
0.537878 -0.989174 3.38406 135 180 154
0.592067 -0.987599 3.37652 146 226 189
0.273893 -0.994391 3.41796 64 131 104
0.4483 -0.975099 3.4041 130 188 170
1.10531 -0.946979 3.31904 125 203 166
0.0393717 -0.981511 3.44418 80 141 131
1.03237 -0.944696 3.33142 137 181 152
1.05753 -0.945064 3.33013 159 220 210
0.547509 -0.953914 3.38445 146 197 170
-0.0375534 -0.9741 3.46153 98 167 154
0.729208 -0.944871 3.36774 78 146 123
1.04135 -0.933651 3.33003 83 113 114
1.06081 -0.934849 3.33106 86 141 126
0.563282 -0.945572 3.38092 141 136 127
1.03508 -0.931233 3.33038 111 153 146
0.269559 -0.956408 3.42203 84 146 130
0.413851 -0.949081 3.4045 67 97 84
0.56203 -0.932427 3.37721 145 134 114
0.716101 -0.928538 3.3717 91 151 140
0.11267 -0.945966 3.4409 96 162 150
-0.202156 -0.953802 3.4807 93 154 140
0.60355 -0.925098 3.3873 90 148 124
-0.866864 -0.94575 3.55055 199 248 226
1.05185 -0.872391 3.33479 58 106 78
1.25228 -0.855978 3.32111 130 186 157
0.370091 -0.875762 3.41823 163 223 212
1.04955 -0.856064 3.3452 133 182 162
1.03076 -0.842783 3.34705 89 149 125
0.88392 -0.839903 3.3672 157 233 199
0.543199 -0.842453 3.39473 108 149 134
0.221229 -0.850262 3.43732 183 234 226
0.362048 -0.844615 3.42312 166 220 207
0.508434 -0.841148 3.40615 83 134 114
0.503118 -0.836968 3.40447 159 212 192
0.814864 -0.828109 3.37771 132 211 184
1.0343 -0.822906 3.35312 132 193 165
0.508068 -0.831437 3.40772 71 119 101
0.759311 -0.8164 3.38361 67 131 112
-0.00857277 -0.833829 3.46993 74 128 111
0.809172 -0.811756 3.37733 106 171 150
-1.31911 -0.855108 3.60725 206 245 220
0.951574 -0.788143 3.36481 98 117 92
1.4252 -0.776454 3.3181 107 159 129
1.25324 -0.776666 3.32819 129 201 165
0.0209252 -0.806757 3.47377 166 228 204
0.503492 -0.792213 3.40936 69 117 99
0.944925 -0.780651 3.36562 117 182 137
0.519225 -0.787816 3.40557 69 123 93
0.907852 -0.775165 3.37374 151 218 197
0.0810033 -0.786149 3.46735 89 159 129
0.513292 -0.772709 3.41196 146 187 179
0.0660428 -0.782415 3.46535 149 217 176
0.412962 -0.773031 3.42673 97 159 141
0.329736 -0.772829 3.4394 139 137 107
0.274154 -0.773021 3.44737 90 146 125
0.525619 -0.76382 3.41128 136 193 184
1.04752 -0.754765 3.36161 197 241 235
-1.28165 -0.799426 3.61309 108 171 131
0.529142 -0.756383 3.41417 167 223 210
0.673944 -0.752628 3.40516 96 156 145
0.0577943 -0.765617 3.46839 83 147 125
0.0932784 -0.763631 3.46673 94 150 121
-0.124038 -0.768035 3.49376 80 143 157
0.198354 -0.751305 3.45777 77 135 111
-1.5388 -0.787672 3.6484 89 149 131
0.591782 -0.731809 3.40088 70 117 91
0.946101 -0.721286 3.37403 115 180 148
1.42586 -0.71125 3.327 68 141 115
0.929646 -0.717989 3.3756 83 137 114
0.129688 -0.722197 3.46716 66 124 113
0.941993 -0.704354 3.38122 152 219 182
1.22453 -0.696687 3.34704 172 247 203
1.03877 -0.699871 3.36995 108 162 155
0.142522 -0.715972 3.46708 78 148 125
0.547725 -0.699261 3.41813 133 198 172
1.91033 -0.672168 3.27629 128 178 144
1.37277 -0.674341 3.33822 128 197 164
0.925276 -0.67988 3.38392 79 138 110
-1.23443 -0.724044 3.61699 106 170 158
1.16245 -0.660316 3.36017 130 202 172
1.14938 -0.657236 3.36599 61 90 75
1.54618 -0.634118 3.3235 71 129 101
-0.610846 -0.630997 3.37016 57 140 102
1.29198 -0.628394 3.35693 158 226 201
0.463499 -0.638705 3.4325 82 137 122
0.503735 -0.63366 3.42779 137 179 148
0.300264 -0.623369 3.46217 80 138 110
0.0732647 -0.614891 3.4881 72 134 122
1.0915 -0.59515 3.3791 85 159 133
0.3465 -0.594903 3.45534 89 150 122
-0.315774 -0.605802 3.53573 195 247 240
0.641933 -0.580133 3.42484 77 136 108
0.456443 -0.565692 3.44653 76 134 105
-0.715571 -0.581694 3.5803 97 143 121
-0.743082 -0.573292 3.57535 59 74 53
0.526592 -0.551898 3.44066 69 111 93
0.417882 -0.551287 3.45347 73 120 98
0.915096 -0.542595 3.40506 144 213 186
-0.849077 -0.566646 3.58733 171 202 199
-0.729087 -0.560328 3.57658 122 174 157
0.187856 -0.54468 3.48292 90 162 132
1.27757 -0.517565 3.36987 86 154 123
-0.442752 -0.53495 3.55399 176 232 219
0.445557 -0.514261 3.45467 72 128 115
0.495859 -0.511127 3.45113 162 210 214
0.098192 -0.516594 3.49428 108 171 155
1.79496 -0.491518 3.3203 149 220 194
0.300838 -0.509382 3.4759 89 154 128
0.501638 -0.501354 3.44656 151 194 197
-0.836359 -0.513642 3.59667 110 172 136
-0.87017 -0.507821 3.59594 149 209 178
0.285866 -0.488481 3.47825 99 154 137
-0.868884 -0.503214 3.59623 80 141 115
0.068122 -0.491286 3.51123 89 134 125
0.09715 -0.488464 3.4956 92 163 143
2.02633 -0.4572 3.27764 139 193 186
0.522192 -0.480073 3.45545 83 131 113
-0.751134 -0.488309 3.58747 124 164 146
-0.729082 -0.486478 3.58488 118 153 139
0.526689 -0.457282 3.45529 79 123 106
1.29905 -0.447427 3.37615 100 162 138
-0.797341 -0.470935 3.59701 126 152 139
-0.720257 -0.466544 3.58128 134 192 164
-0.681644 -0.461013 3.58599 145 194 172
-0.774515 -0.457358 3.59553 138 189 175
-0.704363 -0.456879 3.59043 145 190 174
-0.644753 -0.455102 3.58323 136 170 146
0.549303 -0.435183 3.44711 75 126 99
0.210988 -0.43785 3.48863 83 156 130
1.39733 -0.423835 3.37208 97 170 144
0.182846 -0.433367 3.49572 95 162 141
2.01082 -0.410428 3.29707 113 149 127
-0.450879 -0.440705 3.56214 84 152 141
-0.695681 -0.440714 3.59042 122 170 144
-0.68631 -0.435917 3.59117 136 189 162
0.231546 -0.425025 3.49374 94 159 137
0.200098 -0.422116 3.49573 60 133 107
0.41743 -0.418818 3.46783 65 123 99
0.261844 -0.417641 3.48795 70 129 108
0.479708 -0.398047 3.46328 77 132 113
1.17264 -0.387207 3.39051 66 122 101
0.756968 -0.388769 3.43951 169 222 212
-0.798561 -0.403833 3.60066 153 217 195
-0.779347 -0.385974 3.60352 86 112 106
0.530518 -0.36935 3.47068 153 191 179
0.152539 -0.366457 3.50357 87 152 136
-0.813352 -0.375248 3.60219 138 197 182
0.48431 -0.361589 3.46596 147 206 192
0.528511 -0.349372 3.46937 142 204 182
0.539028 -0.347114 3.46444 143 207 185
1.91401 -0.33371 3.3238 145 200 167
0.55275 -0.342225 3.47685 80 125 109
0.494744 -0.34186 3.4727 123 186 147
0.526027 -0.340154 3.47709 137 194 169
0.550507 -0.320474 3.47626 93 142 122
0.0713107 -0.322547 3.51835 98 158 150
-0.847716 -0.319136 3.61138 100 170 153
0.22084 -0.308614 3.50779 156 226 196
1.33365 -0.29732 3.39906 85 156 130
0.425662 -0.302611 3.48207 92 146 116
-0.922666 -0.308138 3.62228 148 215 186
0.295783 -0.296237 3.4983 145 217 187
0.211585 -0.295627 3.50936 83 148 122
0.589607 -0.28877 3.46834 65 122 89
-0.951342 -0.298538 3.62677 153 215 197
0.533424 -0.285114 3.47855 100 144 121
0.355936 -0.282041 3.49442 101 158 143
1.0412 -0.275836 3.42788 86 152 127
1.07739 -0.253007 3.42819 94 154 144
0.520318 -0.240557 3.48405 150 199 185
1.4062 -0.23606 3.4036 146 225 192
0.636103 -0.226912 3.47305 67 134 107
1.33829 -0.203521 3.41069 82 144 122
-1.16107 -0.217378 3.66098 95 163 146
-1.01536 -0.212605 3.64887 100 172 150
-1.15686 -0.207161 3.6632 91 157 138
1.22539 -0.17941 3.42355 84 141 138
0.666927 -0.175106 3.47728 80 159 126
1.71677 -0.156915 3.38177 138 197 176
0.385874 -0.157751 3.50453 63 121 93
1.46586 -0.147486 3.40854 75 124 116
-0.129888 -0.152828 3.56316 112 160 164
0.598357 -0.133897 3.48712 62 141 114
-0.425215 -0.114519 3.59519 101 172 152
-0.0999273 -0.113681 3.55837 90 157 148
-0.579836 -0.110103 3.61538 93 154 134
-0.456454 -0.10331 3.60007 88 155 140
0.267859 -0.0834034 3.53433 68 124 103
0.909486 -0.0833106 3.46669 58 121 95
-0.0614861 -0.0762553 3.56283 66 120 121
1.56447 -0.0733964 3.40898 104 161 152
1.60018 -0.0704611 3.41119 151 213 199
-0.26156 -0.0589788 3.58144 66 131 106
-1.05308 -0.0535442 3.66846 79 150 140
0.488832 -0.0432066 3.50926 96 156 132
0.45486 -0.0426219 3.50952 82 137 110
0.464561 -0.0359386 3.51126 86 141 124
-0.243499 -0.0347168 3.58732 109 172 156
0.539853 -0.0340947 3.51361 72 122 92
0.545899 -0.0275982 3.50964 45 84 63
0.43314 -0.0267343 3.50521 127 176 156
-0.490754 -0.025299 3.61629 109 162 152
-0.260907 -0.0239849 3.58956 97 167 150
0.548552 -0.0235606 3.5242 116 165 143
0.145103 -0.00323662 3.54755 94 156 140
1.2796 0.0161541 3.45284 148 219 193
-0.481946 0.0189166 3.61923 70 142 122
-0.304433 0.0193394 3.60187 90 156 144
0.509282 0.0285659 3.51721 76 124 98
0.509715 0.0285615 3.51718 76 124 98
1.26844 0.0275944 3.45604 104 168 139
0.807668 0.031878 3.49731 164 233 213
0.522276 0.0440767 3.52424 71 111 109
0.533504 0.0514476 3.52995 72 125 111
1.51349 0.0604533 3.43084 91 157 138
-0.488396 0.069199 3.62605 81 140 119
0.110118 0.0768923 3.56493 82 140 122
0.924389 0.0806235 3.49409 100 163 143
-0.492798 0.10865 3.6324 98 163 138
0.673039 0.105888 3.51795 102 162 152
1.16088 0.103826 3.47521 181 238 229
1.27187 0.110725 3.47132 66 97 88
0.0968445 0.114275 3.56298 75 139 117
0.110617 0.122353 3.57112 73 141 100
1.20619 0.124514 3.47022 138 203 177
0.190956 0.130275 3.5657 82 150 109
0.122228 0.151657 3.57151 83 152 137
1.23055 0.153741 3.47558 137 196 181
0.542026 0.147816 3.15028 32 90 65
-0.471218 0.173095 3.64075 81 147 135
1.10137 0.186825 3.49506 93 167 143
1.23222 0.200983 3.48426 180 234 227
0.146535 0.227254 3.58089 83 128 112
0.190841 0.240658 3.55822 107 140 143
1.26089 0.243002 3.48445 91 144 124
0.17165 0.251816 3.56345 128 201 161
0.198152 0.251085 3.55993 141 156 152
0.184666 0.255309 3.56453 200 209 199
0.20055 0.259085 3.56543 211 236 238
0.196966 0.262087 3.56522 232 255 252
0.0487895 0.299837 3.60114 127 169 151
0.778903 0.295353 3.5377 109 180 160
0.766542 0.311485 3.53539 95 158 142
0.767977 0.325853 3.5371 111 174 142
0.929648 0.378796 3.53868 107 161 148
-0.140924 0.4115 3.63831 114 160 147
-0.0132649 0.419585 3.623 158 213 196
-0.108209 0.421497 3.62894 114 154 142
0.806876 0.425914 3.54918 93 159 140
2.03702 0.479509 3.44424 55 103 79
0.777205 0.52542 3.57149 74 144 113
0.0649571 0.572786 3.64607 136 192 173
-0.150906 0.574765 3.64842 144 200 187
0.00274869 0.588949 3.64655 153 203 193
0.60981 0.607905 3.57881 172 235 195
0.854344 0.615796 3.57047 77 137 103
0.905967 0.632989 3.56722 97 166 129
0.797668 0.637029 3.57499 156 233 182
0.566829 0.683291 3.59013 125 142 128
0.707372 0.682106 3.58198 68 146 109
0.763459 0.682191 3.58025 135 201 159
0.567642 0.691903 3.59154 197 218 209
0.150879 0.72213 3.65815 92 154 136
0.530445 0.714337 3.61474 84 121 111
0.752123 0.708048 3.58472 61 124 85
0.541266 0.715741 3.60634 58 92 85
0.501862 0.721982 3.62252 57 99 82
-0.602096 0.750367 3.72228 79 147 116
0.113639 0.772837 3.66169 109 170 160
0.441333 0.829659 3.64108 155 202 193
0.298829 0.837691 3.65022 93 156 140
0.701937 0.841287 3.61803 169 204 217
0.683431 0.841372 3.61992 124 170 171
0.255922 0.855146 3.65832 104 158 145
1.14075 0.836843 3.58018 141 209 202
0.688868 0.853936 3.62119 171 219 221
0.808021 0.851653 3.61097 26 79 66
0.968099 0.860222 3.59568 65 120 111
0.957489 0.871391 3.60177 74 129 114
0.584857 0.879084 3.6262 98 155 147
0.29635 0.891253 3.65396 110 159 145
0.91044 0.885612 3.6084 79 140 126
0.424923 0.900785 3.65085 165 221 210
0.850058 0.890629 3.6064 67 141 129
0.287913 0.926896 3.66004 92 148 127
0.403609 0.941234 3.6535 114 162 174
1.42926 0.947832 3.57077 80 144 144
0.21829 0.977248 3.67745 98 161 141
1.37963 0.974146 3.58432 101 123 165
0.789781 1.05646 3.64716 164 229 207
0.373379 -1.35942 3.355 136 152 168
0.512781 -1.35027 3.33781 158 194 224
0.523271 -1.34934 3.33381 73 96 104
1.31772 -1.30885 3.24744 144 218 190
0.512752 -1.34423 3.33819 99 113 135
0.508679 -1.33983 3.34032 100 102 137
-0.132683 -1.368 3.42951 73 152 133
-0.0837774 -1.36507 3.42222 76 152 128
0.789666 -1.31789 3.30745 198 235 219
0.569298 -1.31987 3.32115 236 233 212
0.639767 -1.32133 3.32206 100 163 131
-0.1761 -1.36064 3.43238 92 147 130
0.38142 -1.32575 3.35237 153 179 193
-0.0473839 -1.35118 3.41958 67 126 106
0.789666 -1.30879 3.3096 84 144 113
0.874144 -1.29929 3.29094 156 206 174
0.193737 -1.33721 3.38855 104 163 135
0.569441 -1.30861 3.31831 176 195 174
0.862166 -1.29664 3.29886 148 203 176
0.191955 -1.32264 3.38217 80 134 121
0.918587 -1.28738 3.30184 225 252 242
1.29498 -1.26949 3.25597 155 226 199
0.185952 -1.31345 3.38856 95 158 138
0.434388 -1.30273 3.35553 128 137 147
1.24228 -1.26154 3.26211 100 171 145
0.371854 -1.29864 3.36288 184 199 208
0.438698 -1.29594 3.35627 199 216 225
0.798502 -1.27868 3.31193 132 209 171
-0.335948 -1.32823 3.45316 172 232 222
0.521773 -1.28356 3.34498 156 202 233
0.550566 -1.27869 3.33038 89 125 113
0.621907 -1.27734 3.32728 134 209 163
0.0600129 -1.30424 3.40216 158 230 207
0.208638 -1.29451 3.3825 83 111 128
0.56245 -1.2774 3.33245 108 130 112
0.547133 -1.27183 3.33091 148 199 185
0.67469 -1.26954 3.31922 82 142 101
0.139717 -1.28955 3.39611 77 130 110
-0.0458984 -1.29872 3.42325 82 136 119
0.438343 -1.26459 3.35751 112 102 102
-0.0708844 -1.2899 3.43058 85 155 132
0.44728 -1.25872 3.36389 217 237 242
0.935186 -1.23734 3.29793 81 135 105
1.1032 -1.23123 3.28586 90 150 139
0.921046 -1.23491 3.30336 177 231 214
-0.341687 -1.29198 3.45971 90 145 136
0.178717 -1.26829 3.39652 163 227 198
0.424457 -1.2551 3.362 232 253 255
-0.403997 -1.29014 3.46238 89 145 134
0.067123 -1.2668 3.40514 159 223 201
0.0858157 -1.26616 3.40029 87 142 125
0.440257 -1.25201 3.36157 124 124 142
0.53348 -1.24391 3.3434 146 198 174
-0.16972 -1.27741 3.44219 87 150 134
0.0371595 -1.268 3.4166 104 143 135
0.522384 -1.24611 3.35507 103 126 148
-0.420747 -1.28386 3.46473 90 152 138
0.0630815 -1.26212 3.40728 58 113 94
0.529925 -1.24298 3.35599 74 93 96
0.51969 -1.24309 3.36157 174 216 235
0.653717 -1.23577 3.34149 62 128 103
0.664272 -1.23278 3.33282 80 123 112
0.423884 -1.24192 3.36539 232 255 255
0.522818 -1.23636 3.35334 96 110 132
0.673495 -1.22724 3.33354 184 249 200
0.485264 -1.23491 3.36106 210 236 243
0.576127 -1.22427 3.3349 70 78 71
0.645294 -1.22348 3.33576 68 144 110
0.082367 -1.2467 3.40734 163 226 206
-0.291374 -1.26418 3.46036 74 136 122
0.513164 -1.22438 3.35238 180 209 230
0.461542 -1.22457 3.36056 225 243 250
-0.356145 -1.26287 3.46961 85 138 118
0.518555 -1.22183 3.3563 135 152 178
1.06691 -1.19913 3.29499 107 161 148
0.0809626 -1.23757 3.40823 149 229 206
0.191586 -1.23333 3.39405 98 157 137
0.0459524 -1.2362 3.41605 84 126 115
0.0969507 -1.23134 3.40582 73 126 117
-0.346646 -1.25009 3.47098 130 208 177
-0.334856 -1.24399 3.46407 97 149 126
-0.169999 -1.23662 3.44864 96 141 122
-0.0467405 -1.23253 3.43603 76 143 128
0.41568 -1.2059 3.36747 109 102 117
0.0857291 -1.22347 3.41349 144 216 193
0.213105 -1.21435 3.39623 123 168 165
0.520625 -1.20143 3.35534 212 242 253
0.945813 -1.18221 3.30522 74 117 90
0.0839287 -1.216 3.40895 65 96 87
0.0903489 -1.21556 3.40704 91 120 111
0.930988 -1.18057 3.30803 131 207 166
0.0504864 -1.21842 3.41991 88 140 130
-0.323962 -1.23347 3.46774 67 132 107
0.161123 -1.20987 3.40375 105 148 139
0.181264 -1.20792 3.39832 55 95 77
0.525207 -1.19432 3.36227 123 149 161
0.925481 -1.17828 3.31282 63 125 101
1.14646 -1.17036 3.29145 82 147 125
-0.317497 -1.22114 3.46614 78 150 127
0.823339 -1.17004 3.32508 150 228 204
0.660161 -1.17527 3.34248 160 230 190
-0.134601 -1.20933 3.44971 77 146 126
1.16671 -1.15046 3.28824 150 226 192
0.562036 -1.16548 3.35157 121 130 117
0.691012 -1.16551 3.34439 73 132 112
0.51869 -1.1691 3.36539 224 244 255
0.629488 -1.16209 3.35189 82 153 110
0.855449 -1.14484 3.32256 140 220 183
0.856629 -1.14488 3.32368 144 224 187
0.37742 -1.15957 3.38376 129 170 179
0.770224 -1.14243 3.33239 91 140 126
0.914384 -1.13902 3.3196 75 157 122
0.388919 -1.15729 3.38591 122 167 180
-0.363572 -1.18519 3.47314 81 160 127
-0.344487 -1.18724 3.47589 104 161 140
0.377532 -1.15633 3.38547 107 147 165
0.423515 -1.15357 3.3772 238 255 255
1.07465 -1.1281 3.30541 63 135 113
0.731856 -1.13543 3.33773 64 124 100
0.852173 -1.12897 3.32586 145 219 213
0.499046 -1.14633 3.37841 89 109 127
-0.349832 -1.17749 3.47724 188 238 214
-0.296268 -1.17231 3.46879 84 145 125
-0.045095 -1.16263 3.44427 71 144 122
0.00476406 -1.15842 3.43393 76 147 130
0.416469 -1.142 3.38057 172 227 212
-0.023468 -1.15966 3.44089 87 154 133
0.51 -1.13675 3.37335 109 153 160
0.414282 -1.13727 3.38716 103 145 128
0.323881 -1.13647 3.39281 120 166 154
0.355199 -1.13466 3.38685 72 126 109
0.276664 -1.13745 3.39912 97 135 117
0.281742 -1.1331 3.3954 169 224 191
0.357624 -1.13496 3.39476 83 136 123
-0.665394 -1.16445 3.50579 131 170 192
0.901672 -1.10227 3.32745 78 138 120
0.530868 -1.11168 3.36566 120 159 134
0.351399 -1.1172 3.38863 92 134 111
-0.0522088 -1.13174 3.44657 56 139 107
0.3976 -1.11068 3.39003 97 146 148
0.359113 -1.10728 3.39214 78 127 107
0.519333 -1.09785 3.37701 53 97 74
0.741694 -1.0922 3.35127 148 221 181
-0.108637 -1.12032 3.45744 105 160 135
0.448413 -1.09591 3.38248 130 190 160
0.537308 -1.09135 3.37371 61 92 77
0.659215 -1.08566 3.35374 69 133 103
-0.0402931 -1.10869 3.44725 72 125 115
0.420944 -1.09045 3.38867 83 111 88
0.702937 -1.07473 3.34889 86 153 121
0.986854 -1.05841 3.32129 152 218 177
0.342574 -1.08096 3.39898 69 125 102
-0.528095 -1.10538 3.49871 135 185 213
0.516481 -1.06753 3.38206 78 119 98
0.808149 -1.05689 3.34373 164 235 218
-0.371219 -1.09999 3.48758 92 163 143
0.060735 -1.07395 3.43392 83 149 130
0.546827 -1.04996 3.36207 144 204 174
0.520679 -1.05335 3.38238 80 119 98
0.729874 -1.04134 3.35593 97 148 140
-0.0561557 -1.0678 3.45266 82 148 129
0.0461756 -1.06469 3.43691 154 210 199
0.55072 -1.04268 3.37682 77 107 94
0.840608 -1.03223 3.34654 189 233 226
-0.0789728 -1.06388 3.4567 87 142 125
0.510223 -1.03642 3.38736 155 199 176
-1.51817 -1.09581 3.60927 202 252 242
1.06586 -1.00655 3.32147 96 142 129
0.514657 -1.02448 3.38939 96 146 128
0.886263 -1.01037 3.34323 158 233 201
0.543602 -1.01162 3.36847 171 241 218
-0.0121334 -1.03457 3.44962 82 139 124
1.00086 -0.999147 3.32898 90 135 109
1.31113 -0.977079 3.26212 206 184 173
-0.0785692 -1.03415 3.4613 92 143 129
0.62315 -1.00763 3.37163 133 223 163
1.04563 -0.992605 3.33083 96 170 136
0.071334 -1.02206 3.43806 84 135 121
0.106199 -1.02073 3.43282 87 153 134
0.448785 -1.01025 3.39912 86 146 128
0.54989 -1.00031 3.36775 129 174 155
0.00690068 -1.01959 3.44534 63 120 105
0.420057 -1.00849 3.40236 83 145 123
0.530458 -0.999927 3.38256 54 73 58
0.550348 -0.996792 3.37406 113 150 134
0.234297 -1.01062 3.42114 172 230 219
0.229083 -1.00785 3.42262 100 166 147
0.9221 -0.982685 3.3437 85 146 118
0.539334 -0.990551 3.38181 134 187 160
0.705174 -0.987674 3.36876 143 213 190
0.592418 -0.987594 3.37746 146 226 189
1.02517 -0.972158 3.3344 57 78 53
0.975654 -0.973557 3.33797 97 151 121
0.897462 -0.973456 3.34775 64 129 107
1.95303 -0.938358 3.22809 63 113 81
1.05358 -0.954101 3.32901 71 99 80
0.448633 -0.975084 3.40599 138 196 178
0.546357 -0.958775 3.38373 90 126 109
0.963587 -0.943529 3.33599 100 135 109
1.27847 -0.93385 3.30231 130 111 98
0.730209 -0.944803 3.37182 81 153 131
1.06198 -0.93453 3.33305 102 158 139
0.282693 -0.957256 3.4209 96 144 126
0.563793 -0.945543 3.38256 127 120 111
1.89404 -0.909113 3.24126 85 141 122
0.608833 -0.945036 3.38364 152 202 184
0.562952 -0.932365 3.38009 145 134 114
-0.132725 -0.953651 3.4719 96 150 143
1.04745 -0.915163 3.33021 83 139 118
1.35274 -0.893829 3.26324 145 92 102
1.35966 -0.893896 3.26456 109 89 78
0.0648479 -0.942408 3.4479 199 236 232
1.4021 -0.89309 3.26413 95 99 87
0.603599 -0.923383 3.38582 97 147 129
-0.905056 -0.964088 3.54417 105 172 165
0.835326 -0.913493 3.36701 93 154 140
1.09955 -0.902518 3.33088 65 146 107
0.537786 -0.912963 3.39527 123 168 152
0.9179 -0.901755 3.35555 100 149 129
-1.24127 -0.953263 3.58459 100 157 148
1.03344 -0.888347 3.34215 121 189 154
1.08619 -0.882535 3.3322 139 212 174
1.05537 -0.880363 3.33722 163 232 205
0.551339 -0.892373 3.39575 93 138 122
0.247588 -0.901354 3.43567 82 151 131
1.28383 -0.867847 3.31072 92 106 102
1.3435 -0.863408 3.30876 128 196 149
-0.0242513 -0.900822 3.46156 154 226 213
1.03215 -0.871307 3.34322 55 99 76
1.23365 -0.8635 3.31487 114 94 59
0.520906 -0.879655 3.40223 88 137 121
1.10718 -0.860078 3.33391 123 179 136
0.244908 -0.883676 3.43043 85 160 132
0.370349 -0.875706 3.41973 163 223 212
1.03197 -0.85626 3.34532 108 159 125
1.24135 -0.850115 3.32097 120 193 137
0.102831 -0.872681 3.45629 192 238 219
-1.14491 -0.906613 3.58869 84 147 137
0.842519 -0.851077 3.36919 93 138 121
1.58443 -0.830792 3.29064 98 158 128
-0.159221 -0.878034 3.48252 69 134 119
0.541219 -0.855247 3.39863 123 190 153
0.53707 -0.849231 3.40262 49 85 69
1.40663 -0.819436 3.28075 88 78 60
0.947543 -0.834739 3.35589 110 161 127
0.503429 -0.836922 3.40539 159 212 192
1.03484 -0.822896 3.35319 136 204 179
0.335033 -0.83939 3.43346 97 163 152
-1.48145 -0.879144 3.62715 94 165 148
1.31193 -0.799971 3.29868 255 255 250
1.42863 -0.798861 3.31301 133 202 165
0.809769 -0.81411 3.37661 94 159 134
1.31284 -0.794885 3.30541 135 129 124
-2.22462 -0.883298 3.7059 190 247 238
1.4394 -0.785061 3.31518 92 145 118
1.78547 -0.775585 3.27407 151 232 187
1.05666 -0.789856 3.35103 71 88 74
-1.08182 -0.843682 3.58594 93 163 146
0.500641 -0.801427 3.41154 151 204 190
1.33973 -0.775808 3.31895 106 169 137
0.603087 -0.792081 3.40027 100 134 123
1.09119 -0.774722 3.35071 164 225 191
0.0287975 -0.798351 3.46387 67 133 104
0.234824 -0.793684 3.44395 96 157 137
0.94026 -0.776281 3.36594 79 129 99
1.03302 -0.774671 3.3601 128 167 142
0.355115 -0.788476 3.43336 106 156 144
0.5227 -0.783415 3.40818 121 172 145
1.04414 -0.768216 3.35885 150 197 195
-1.12332 -0.820268 3.59443 128 178 176
0.950386 -0.767172 3.36846 114 165 128
0.0571831 -0.783666 3.4692 69 130 102
0.512944 -0.772439 3.41578 120 163 152
0.563257 -0.767532 3.40513 109 146 120
1.04784 -0.753909 3.35833 202 242 237
0.525675 -0.763782 3.41184 127 186 178
0.543031 -0.759039 3.41304 147 208 180
0.585408 -0.756437 3.40151 201 232 201
0.0577821 -0.765573 3.46904 83 147 125
0.529597 -0.756165 3.4142 167 223 210
0.56838 -0.753417 3.40569 101 124 102
1.80512 -0.715495 3.28701 90 138 126
-1.53799 -0.787795 3.64629 89 149 131
0.58265 -0.736802 3.40636 170 227 189
0.59266 -0.731408 3.40596 68 121 94
0.944203 -0.725258 3.38592 127 186 155
0.534539 -0.731311 3.41702 74 119 100
1.48951 -0.711406 3.31962 85 133 115
1.06032 -0.718074 3.36481 113 156 147
-0.823295 -0.758584 3.56588 81 156 135
0.930588 -0.717811 3.37767 80 132 109
1.31562 -0.707988 3.33741 75 137 101
1.22418 -0.705812 3.34617 64 94 75
1.68744 -0.694181 3.29434 123 192 149
0.511409 -0.71696 3.41712 153 214 194
0.548605 -0.716917 3.41955 52 96 83
0.438955 -0.715692 3.43092 147 203 184
0.92307 -0.705782 3.38057 66 125 104
1.22555 -0.695892 3.34795 166 244 197
0.594607 -0.705032 3.40572 68 114 85
1.02572 -0.695408 3.36088 71 94 80
1.0686 -0.69152 3.36708 170 227 212
0.546243 -0.700144 3.42124 126 193 166
0.952042 -0.687625 3.3759 97 130 96
1.91016 -0.667654 3.28315 80 129 97
1.42215 -0.673059 3.33151 78 140 116
0.443641 -0.688706 3.42884 88 140 123
0.925291 -0.679934 3.38332 74 131 106
0.422877 -0.688749 3.43555 74 111 95
1.0738 -0.6697 3.36912 99 156 153
1.32471 -0.645389 3.34476 81 141 117
0.141491 -0.665364 3.47264 95 156 136
0.282695 -0.660551 3.45769 83 158 137
0.640801 -0.652596 3.41925 97 159 137
0.948652 -0.646407 3.38364 52 117 91
0.433812 -0.650872 3.43604 82 116 106
1.16656 -0.631185 3.36451 105 157 139
0.541883 -0.64189 3.42734 57 99 76
0.707256 -0.638293 3.40828 156 217 203
0.686469 -0.637763 3.4158 149 209 199
0.464138 -0.638419 3.43519 87 145 127
-0.617145 -0.623555 3.3659 67 120 87
0.496109 -0.634483 3.42388 67 112 85
0.603268 -0.623912 3.42067 158 238 191
0.753739 -0.620383 3.40708 93 146 132
0.943127 -0.618367 3.38713 64 121 90
0.551319 -0.623518 3.43194 98 147 125
0.554862 -0.61621 3.43738 233 255 247
1.02147 -0.593204 3.38927 78 141 125
0.731555 -0.593201 3.41406 90 160 129
0.501453 -0.596119 3.43874 156 208 191
-1.24047 -0.622947 3.62871 99 163 167
-0.808579 -0.616139 3.59109 147 194 178
-0.822996 -0.609694 3.5795 155 211 192
0.438058 -0.584445 3.44548 141 195 166
-0.792861 -0.604179 3.58137 112 148 131
0.55207 -0.581652 3.43498 90 141 114
0.708651 -0.569901 3.42149 72 133 119
1.7695 -0.553658 3.31416 88 146 117
-1.07692 -0.595918 3.60916 79 127 115
0.627169 -0.566955 3.42468 145 219 177
1.07927 -0.557509 3.38195 100 156 135
0.45683 -0.565682 3.44657 77 137 106
-0.730143 -0.583163 3.57277 130 185 168
1.41282 -0.548655 3.35262 64 119 100
-0.731008 -0.582528 3.5782 140 195 178
0.394068 -0.560943 3.4537 157 218 214
0.533494 -0.55709 3.43684 168 230 194
0.692589 -0.550914 3.42311 97 168 148
-0.742234 -0.572263 3.57217 59 74 53
0.314291 -0.555695 3.46692 91 156 140
1.40854 -0.535868 3.35341 159 224 185
0.221988 -0.552958 3.47769 89 142 132
0.914855 -0.542658 3.40459 144 213 186
0.972254 -0.539669 3.39804 60 129 102
1.96786 -0.524457 3.28662 131 182 144
-0.848146 -0.567055 3.58394 173 205 204
0.475274 -0.547723 3.44939 76 135 114
0.605895 -0.543067 3.43265 74 132 103
0.354633 -0.544851 3.46124 85 131 109
-0.857959 -0.559312 3.59689 164 227 211
-0.799283 -0.558136 3.58781 114 153 132
1.41113 -0.523052 3.35458 161 231 191
-1.08923 -0.556218 3.62025 92 157 142
0.287161 -0.53387 3.4718 71 133 111
1.27842 -0.517424 3.37081 89 159 129
-0.854362 -0.548347 3.59726 149 217 186
-0.86082 -0.540565 3.59178 98 128 109
-0.814238 -0.534127 3.59186 166 191 181
0.411149 -0.515537 3.45574 90 152 128
-1.11343 -0.537324 3.62239 98 157 137
1.79574 -0.491138 3.31922 156 224 199
0.539245 -0.504886 3.44406 134 179 170
-0.871634 -0.524984 3.59745 58 110 87
-0.829086 -0.524159 3.59044 136 175 149
-0.791187 -0.51963 3.58549 113 123 111
2.01988 -0.476907 3.27905 137 205 170
1.32867 -0.487009 3.36584 151 231 196
0.885065 -0.487615 3.40807 151 214 175
1.12881 -0.485907 3.38924 156 217 207
2.02373 -0.467835 3.27769 123 201 178
-0.836423 -0.511165 3.59464 115 176 142
0.313094 -0.493678 3.47463 65 114 92
2.02876 -0.464007 3.26962 112 133 184
0.755385 -0.482015 3.41935 104 154 142
0.830844 -0.482553 3.4195 90 161 134
0.286091 -0.488335 3.47923 99 154 137
-0.868992 -0.503067 3.59729 82 151 130
0.0697774 -0.489851 3.50422 88 129 121
0.0973994 -0.488051 3.49841 83 155 135
-0.7621 -0.497287 3.58387 106 132 116
0.522266 -0.480066 3.45549 83 131 113
0.537411 -0.474934 3.45278 60 109 89
2.01463 -0.450065 3.2841 116 162 133
0.218732 -0.466388 3.48549 84 146 128
0.674233 -0.46062 3.43593 105 162 147
1.0242 -0.456382 3.40356 95 159 129
-0.820017 -0.476964 3.59304 105 147 124
0.864057 -0.454093 3.42099 103 161 133
1.29853 -0.447639 3.37486 100 162 138
-0.804271 -0.471495 3.59227 116 152 136
0.88209 -0.449749 3.41661 166 228 192
-1.05308 -0.47283 3.62057 103 164 138
0.360467 -0.445022 3.47534 70 128 103
-0.775356 -0.456381 3.58953 138 189 175
0.186974 -0.444818 3.49261 85 154 143
0.549798 -0.435046 3.44792 82 130 104
0.315196 -0.437488 3.4807 63 123 99
-1.75394 -0.459095 3.69807 110 160 148
2.01282 -0.409901 3.30001 113 149 127
-0.806182 -0.443483 3.59638 81 122 107
0.676706 -0.425424 3.44376 67 126 98
0.232086 -0.424746 3.49542 94 159 137
0.232462 -0.424059 3.49663 100 164 142
0.508658 -0.413984 3.46064 71 109 111
2.001 -0.397606 3.30391 84 129 96
0.533731 -0.410287 3.45817 222 234 234
0.90795 -0.405903 3.42229 157 220 194
-0.734409 -0.422613 3.59452 128 183 156
1.09642 -0.399611 3.40959 106 159 150
1.47352 -0.395567 3.36374 84 159 137
-0.664178 -0.409513 3.58407 128 184 165
0.228327 -0.399778 3.50045 62 125 105
1.17598 -0.385952 3.39739 87 154 133
1.57728 -0.381254 3.35854 77 153 119
-0.72685 -0.401386 3.58882 115 148 134
1.30022 -0.378752 3.38895 99 164 142
0.41038 -0.387551 3.47818 79 129 117
0.665822 -0.384749 3.45042 91 147 134
1.12339 -0.371991 3.39976 91 158 129
-0.618189 -0.391685 3.58914 79 150 133
0.182184 -0.373501 3.50299 85 148 132
-0.486785 -0.376126 3.57842 81 143 127
0.152646 -0.366087 3.50561 90 158 141
1.42069 -0.354957 3.37382 76 140 110
0.485532 -0.360283 3.47304 152 209 194
1.49609 -0.344025 3.37291 153 226 186
0.292103 -0.349004 3.48885 60 118 93
0.540446 -0.347142 3.46698 132 197 172
-0.905706 -0.360548 3.61861 93 165 143
0.727412 -0.343893 3.44933 82 149 118
0.551792 -0.344614 3.47212 67 109 91
0.583193 -0.338239 3.46278 83 150 119
-0.0832447 -0.339754 3.53955 220 250 251
1.90328 -0.322793 3.33233 170 221 201
0.777646 -0.328668 3.45027 101 164 154
1.48779 -0.320049 3.37992 88 131 110
-1.0203 -0.340247 3.62921 97 176 155
-1.00344 -0.337869 3.62771 104 163 148
0.591668 -0.32253 3.47049 111 166 133
0.747399 -0.319497 3.45344 98 149 142
0.655515 -0.319509 3.45607 144 212 181
0.747674 -0.31946 3.45361 98 149 142
0.563017 -0.317067 3.46836 99 125 107
0.972524 -0.312796 3.42926 85 159 111
1.28373 -0.302678 3.39733 151 219 196
0.30999 -0.30831 3.49491 73 147 113
0.875947 -0.300799 3.43975 78 147 110
0.28893 -0.301905 3.49465 69 131 95
-1.96045 -0.317379 3.72556 99 139 121
0.31246 -0.300585 3.50222 91 157 132
2.02022 -0.281024 3.31227 75 115 74
0.212179 -0.294932 3.51281 75 146 119
0.609809 -0.287957 3.46644 92 155 129
0.859309 -0.285991 3.4467 158 229 202
0.665375 -0.28295 3.46945 79 133 104
0.508609 -0.281483 3.47762 73 107 96
0.704495 -0.279096 3.46338 100 178 154
1.84337 -0.269422 3.35856 122 200 153
-1.86297 -0.292347 3.7265 118 170 152
1.4322 -0.26222 3.39481 92 157 135
0.965428 -0.262795 3.43775 86 150 120
0.537685 -0.262197 3.48055 141 199 171
0.117001 -0.263104 3.52454 85 146 132
-0.777981 -0.263976 3.61287 79 146 131
-1.23579 -0.263442 3.66243 82 146 134
1.1404 -0.237252 3.42526 172 234 210
0.278586 -0.237414 3.51259 94 150 131
-1.15523 -0.238595 3.65597 86 157 140
1.9998 -0.219349 3.34294 119 177 129
-1.00604 -0.23384 3.63811 83 128 101
1.38741 -0.216823 3.40671 87 153 134
1.33382 -0.216908 3.40854 82 149 122
1.52892 -0.212783 3.39264 167 226 212
1.37008 -0.211905 3.40964 174 231 222
1.26357 -0.206445 3.42161 83 135 125
1.37769 -0.206452 3.41263 91 153 141
-1.01648 -0.211895 3.65217 115 187 165
0.466699 -0.169716 2.96798 55 82 72
0.416811 -0.195511 3.49468 72 147 115
1.15953 -0.182512 3.43485 84 142 118
0.686885 -0.177986 3.47871 86 162 128
0.435376 -0.178816 3.49499 163 228 207
0.667864 -0.17432 3.47963 79 158 125
2.01888 -0.169907 3.34109 110 179 128
0.289932 -0.176423 3.51631 55 85 72
0.544677 -0.171071 3.49313 67 118 98
1.3769 -0.164968 3.41402 71 136 120
-0.307692 -0.167751 3.57256 71 151 134
0.345191 -0.16276 3.5077 83 136 116
1.31374 -0.160124 3.42976 173 231 196
2.04795 -0.154262 3.31993 121 138 187
-0.784072 -0.164658 3.62899 70 129 115
1.68248 -0.154086 3.38324 152 210 192
0.387406 -0.156894 3.50038 45 101 78
0.522731 -0.15389 3.49123 81 125 112
-0.129405 -0.152521 3.56584 114 161 165
0.386075 -0.147804 3.50837 48 102 73
0.42479 -0.143993 3.49569 169 211 200
0.536183 -0.139016 3.50343 125 190 174
0.888031 -0.134379 3.46707 152 216 181
0.424362 -0.128362 3.50217 190 231 223
0.539658 -0.127459 3.50167 59 86 70
-0.0670041 -0.12941 3.5569 87 155 144
0.537603 -0.128512 3.4975 81 123 100
-0.824047 -0.121966 3.63606 191 246 237
-0.585015 -0.119977 3.61454 223 255 242
-0.92385 -0.118265 3.64852 90 151 141
0.857256 -0.108325 3.4709 197 232 235
0.83747 -0.0998496 3.47103 75 139 120
1.6486 -0.0990857 3.40763 124 169 166
-0.55012 -0.0954854 3.61407 109 176 161
-0.0186604 -0.0944007 3.55593 88 150 144
1.95827 -0.0845763 3.3655 80 147 126
0.267475 -0.0840471 3.53185 68 124 103
0.477987 -0.0828152 3.50421 77 140 108
0.42119 -0.0789905 3.50545 176 208 183
-0.789269 -0.077535 3.63743 223 255 252
1.56662 -0.0724893 3.41209 99 156 147
1.60084 -0.0697514 3.41383 147 203 192
0.520137 -0.0707263 3.50945 68 124 101
0.538871 -0.0715918 3.50361 69 115 96
1.64073 -0.066871 3.40449 163 223 215
-0.0481039 -0.0673904 3.56585 86 143 134
1.56379 -0.0648538 3.41169 125 201 167
-1.03123 -0.064708 3.66461 210 246 240
0.545524 -0.0619159 3.49937 139 203 167
0.506198 -0.0587536 3.51173 168 222 239
0.935676 -0.0573167 3.47228 88 162 138
0.477904 -0.0560379 3.50772 141 203 179
-1.05308 -0.0536016 3.66824 79 150 140
1.75139 -0.0394862 3.3982 88 151 131
-0.128222 -0.0392354 3.57547 78 143 122
1.61142 -0.0390225 3.41533 60 94 83
1.22993 -0.0193411 3.45189 93 144 136
0.549025 -0.0172868 3.51308 49 93 76
0.673251 -0.0180649 3.49836 76 142 113
0.65001 0.00277552 3.51002 88 153 132
0.968613 0.00522304 3.47709 72 135 126
0.737866 0.00978015 3.49793 103 154 146
-0.469522 0.0123424 3.62642 66 123 124
-0.481343 0.0196443 3.62179 79 149 132
0.981037 0.0169955 3.47752 169 225 212
0.509306 0.0285108 3.51702 76 124 98
0.80789 0.032026 3.49781 164 233 213
0.792407 0.0491453 3.50318 94 152 141
0.903442 0.0532674 3.49407 157 217 187
0.725321 0.0562419 3.50342 82 145 119
1.27669 0.0644747 3.45993 207 245 255
0.750775 0.0675382 3.50859 65 137 115
1.15845 0.0718689 3.47216 175 232 217
0.756196 0.0843278 3.5077 58 129 96
1.64774 0.0853309 3.42219 76 143 106
1.29328 0.0884886 3.46608 160 214 225
0.931234 0.0947637 3.49438 87 148 122
1.27343 0.100591 3.46582 211 251 255
1.23258 0.109813 3.46698 80 97 76
1.23961 0.109725 3.45793 108 155 129
0.890294 0.111716 3.50161 96 153 132
1.27172 0.110674 3.47221 66 97 88
1.24239 0.111949 3.46485 110 156 127
0.0974431 0.120722 3.5672 65 108 81
-0.14087 0.119353 3.58536 90 159 139
0.728616 0.131335 3.51531 95 160 138
1.09262 0.134183 3.48877 98 164 152
-0.341606 0.144771 3.6218 90 144 131
0.77167 0.14063 3.51882 118 154 154
0.09162 0.161383 3.57929 79 151 131
1.21966 0.15758 3.47467 46 83 63
1.14087 0.164077 3.48926 171 233 209
1.40827 0.16317 3.46301 161 226 205
0.0601287 0.170897 3.58406 79 148 127
1.19033 0.164712 3.47817 96 151 126
1.12931 0.175185 3.4915 80 144 125
-0.160303 0.184196 3.60295 97 156 142
0.686929 0.183209 3.52001 100 165 133
0.147593 0.211691 3.57292 56 104 80
1.69001 0.203027 3.43634 84 142 131
-0.153565 0.215759 3.6064 88 154 142
0.0582119 0.24119 3.59726 107 149 131
0.130028 0.23914 3.58879 81 134 120
0.175026 0.24394 3.57295 182 227 210
0.17103 0.252638 3.56581 111 190 147
0.214137 0.253191 3.5604 242 255 255
0.17151 0.255069 3.57198 116 176 142
1.73358 0.248171 3.43814 77 154 133
0.124812 0.261433 3.58655 159 231 195
0.188556 0.261037 3.5584 80 98 91
0.26867 0.263934 3.54522 116 134 121
0.106927 0.268485 3.59927 75 131 112
0.206846 0.267331 3.55849 251 255 255
0.865697 0.265592 3.51729 161 235 199
-0.36102 0.312782 3.6431 103 169 157
1.57266 0.299575 3.46707 167 232 207
0.766587 0.311549 3.53556 84 149 133
0.173191 0.287108 3.1791 180 229 213
-0.0376346 0.339187 3.61156 87 120 93
0.166408 0.298849 3.17455 244 255 253
0.0203945 0.34329 3.60582 99 141 123
-0.209959 0.347315 3.62988 78 105 89
-0.0495224 0.354321 3.61793 145 203 179
-0.109627 0.361087 3.62823 95 151 130
0.0201101 0.363096 3.61488 136 181 164
-0.238118 0.370013 3.6412 95 142 120
1.3312 0.366763 3.4956 158 223 208
-0.139934 0.387136 3.62596 137 192 173
0.999841 0.383513 3.52601 90 149 134
-0.0421875 0.402004 3.61759 91 132 117
-0.0407601 0.402131 3.6179 71 110 95
-0.139989 0.408885 3.63187 127 178 164
0.908333 0.39877 3.53969 87 152 130
-0.0413572 0.411598 3.62184 143 204 190
-0.040313 0.410711 3.61955 135 197 183
0.793813 0.410969 3.54722 78 147 126
-0.21457 0.427214 3.65309 150 197 194
0.824576 0.418611 3.54751 89 166 129
-0.118665 0.433889 3.62844 122 170 158
-0.0196377 0.432621 3.62791 65 111 88
-0.119225 0.438015 3.63889 136 182 170
0.0120124 0.435257 3.6251 170 214 201
1.11685 0.424186 3.52798 100 164 152
2.02835 0.42127 3.42926 58 106 78
-0.0840132 0.497022 3.64066 67 120 107
0.0369588 0.497982 3.62712 100 132 107
-0.0428441 0.512094 3.63383 151 196 179
-0.0475163 0.516304 3.63471 127 173 154
0.745116 0.513872 3.56493 89 145 124
0.83257 0.513236 3.55325 99 159 125
0.0117312 0.533172 3.63234 89 127 109
0.00541877 0.535881 3.63627 106 145 120
-0.0675027 0.555268 3.64511 116 151 131
-0.0115329 0.557929 3.63653 125 173 161
-0.0921729 0.558573 3.64225 113 169 150
0.715272 0.551545 3.5683 172 232 198
-0.114549 0.569919 3.6503 142 201 186
-0.15072 0.575154 3.64932 144 200 187
-0.0395673 0.57556 3.64989 107 153 134
-0.101441 0.584198 3.65247 73 109 93
-0.0740688 0.585369 3.6466 53 81 58
0.750638 0.581323 3.5704 181 242 204
0.73761 0.584303 3.57247 77 136 105
0.769125 0.593638 3.57139 92 156 121
0.643735 0.594956 3.57993 95 153 124
0.728748 0.599382 3.5743 84 145 109
0.690264 0.604501 3.58116 86 150 120
0.0689337 0.620986 3.65034 153 212 198
0.0509555 0.622182 3.64674 153 207 190
0.904583 0.615067 3.56764 108 173 147
0.616132 0.618137 3.5825 63 129 94
0.880777 0.625053 3.56513 145 210 164
1.31222 0.622391 3.5407 93 154 140
0.0213124 0.648566 3.65465 99 142 127
0.887344 0.632463 3.56362 90 141 113
-0.301716 0.653198 3.67806 118 180 166
0.906614 0.633787 3.56551 90 159 122
0.0363973 0.654125 3.64791 124 173 157
0.868109 0.637292 3.57234 70 130 99
-0.130883 0.658093 3.66042 107 154 128
0.786232 0.642325 3.57565 93 146 107
-0.130832 0.666543 3.66417 75 108 94
0.774282 0.654765 3.57136 80 135 108
-0.27607 0.675401 3.67436 75 128 114
-0.127448 0.686578 3.6718 74 124 112
0.54101 0.674239 3.59606 122 182 142
0.864051 0.668152 3.56253 73 136 96
0.97676 0.67181 3.56464 107 160 140
0.764648 0.682398 3.57854 143 209 167
0.679383 0.688756 3.59108 75 142 105
0.775903 0.685808 3.57536 68 131 89
0.530166 0.69595 3.60704 127 192 171
0.537398 0.698534 3.60272 70 126 103
0.542961 0.705902 3.60291 164 219 210
-0.212592 0.7257 3.68193 147 202 187
-0.247969 0.730125 3.67337 95 138 125
0.541747 0.716092 3.60707 45 79 72
-0.197054 0.733789 3.67813 128 184 171
-0.113488 0.734606 3.67655 79 134 119
0.487178 0.726181 3.62431 58 88 75
-0.311651 0.743179 3.68866 81 115 105
0.481456 0.730632 3.622 141 189 177
0.544116 0.726002 3.59965 187 226 224
0.826546 0.736414 3.57608 245 255 251
-0.00293318 0.760886 3.6767 132 186 173
-0.0389903 0.772749 3.68018 147 218 192
-0.256218 0.786102 3.68366 90 115 111
0.278501 0.784477 3.64392 74 135 121
0.450945 0.792631 3.61776 119 170 163
0.469634 0.801763 3.63318 121 151 146
0.181413 0.819749 3.65502 97 143 120
0.180471 0.819764 3.65506 104 146 128
-0.354807 0.840375 3.70193 135 199 187
