ply
format ascii 1.0
element vertex 1258
property float x
property float y
property float z
property uchar blue
property uchar green
property uchar red
end_header
-0.111332 0.0967319 2.84906 181 224 191
-0.176688 0.0965155 2.68539 66 84 55
-0.366963 0.0816129 2.25306 173 230 197
-0.473535 0.07603 2.04101 129 192 166
0.631734 0.167434 4.43894 145 216 176
-0.09854 0.114632 2.87651 54 92 70
-0.412774 0.100933 2.15272 157 181 169
-0.394103 0.103563 2.19457 150 176 160
-0.401564 0.10389 2.17536 165 183 166
-0.396688 0.113023 2.1876 137 161 151
-0.397618 0.115366 2.1864 137 172 152
0.598858 0.229355 4.39915 70 113 98
-0.30663 0.134609 2.40048 108 139 110
-0.149628 0.167804 2.76698 152 215 189
-0.297941 0.15101 2.4138 121 162 131
-0.0877434 0.196378 2.93436 146 195 173
-0.0860454 0.194954 2.93317 46 81 61
-0.394222 0.147398 2.19322 143 153 130
-0.190661 0.194401 2.6032 161 217 166
-0.330922 0.176501 2.33159 152 173 140
-0.318547 0.179288 2.3589 136 136 118
0.516217 0.373122 4.27654 165 210 191
0.734432 0.421682 4.73989 123 170 162
-0.17623 0.234155 2.61328 93 171 134
-0.171051 0.242692 2.61832 75 155 108
-0.187393 0.24223 2.59769 52 100 72
-0.374665 0.210633 2.21487 36 63 29
-0.162535 0.267595 2.63368 134 178 141
-0.271275 0.249872 2.41002 159 240 207
1.16012 0.628758 5.6435 130 183 174
0.15632 0.345452 3.04394 170 214 197
2.69406 1.19144 8.87791 124 165 158
0.739899 0.64144 4.76429 117 181 159
0.119777 0.397586 2.91769 213 255 240
0.244553 0.441101 3.16977 58 103 77
-0.205593 0.355361 2.53216 60 98 80
0.138996 0.478628 2.98015 167 236 191
0.139132 0.47944 2.98179 148 229 184
3.59546 2.02664 10.8895 129 173 174
0.20757 0.600295 3.13372 69 128 107
6.07905 3.89671 16.2844 79 122 119
1.31017 1.70101 6.0576 120 160 158
0.916435 1.54094 5.18997 149 184 180
0.155951 -0.51842 -1.55052 130 178 166
-0.367261 -0.900197 2.07597 165 212 179
-0.345517 -0.862179 2.11678 93 126 111
-0.341988 -0.860173 2.12526 196 248 231
-0.333142 -0.859194 2.1383 212 255 240
-0.141058 -0.98727 2.52373 73 129 110
-0.180322 -0.946508 2.42774 117 178 140
-0.15033 -0.912562 2.49675 176 226 186
-0.147566 -0.88031 2.51474 138 172 141
-0.315563 -0.766238 2.21966 139 213 185
-0.31421 -0.754917 2.22802 96 161 122
-0.366553 -0.700199 2.14955 61 81 69
-0.357682 -0.703653 2.16959 128 189 161
-0.340741 -0.704813 2.20789 123 202 175
-0.373044 -0.680542 2.14081 69 140 100
-0.34079 -0.702873 2.2099 78 141 121
-0.306996 -0.685041 2.30577 144 219 198
-0.337366 -0.627446 2.25166 151 229 205
-0.34463 -0.622604 2.24049 103 154 134
-0.34373 -0.616057 2.24198 85 144 123
-0.32574 -0.623886 2.27333 94 160 125
-0.45175 -0.507112 2.12207 108 146 124
-0.814027 -0.335618 1.47328 160 198 186
-0.597358 -0.412591 1.9063 100 152 135
0.763471 -0.952683 4.33624 108 181 149
-0.61969 -0.396924 1.86639 70 106 89
-0.606078 -0.398407 1.89433 164 221 213
-0.592443 -0.399625 1.92189 148 186 168
0.623491 -0.866067 4.09683 70 142 106
-0.451148 -0.439759 2.1423 188 232 215
-0.157195 -0.530232 2.5812 128 174 145
2.31094 -1.48672 7.29154 175 232 223
0.0684781 -0.580544 2.9448 203 238 241
-0.131531 -0.50941 2.62019 98 150 127
0.117815 -0.591071 3.02029 161 173 179
-0.131253 -0.508817 2.62316 79 140 114
-0.0276738 -0.537887 2.78081 96 110 109
0.120416 -0.582314 3.03098 129 155 167
-0.43184 -0.400694 2.17673 117 159 124
14.3376 -5.53182 29.5979 117 173 150
-0.0105046 -0.518942 2.83332 101 129 106
-0.453119 -0.382293 2.11546 153 206 179
-0.442485 -0.38306 2.13652 164 221 188
-0.0829461 -0.490897 2.72998 93 138 121
0.589386 -0.733337 4.0575 130 148 119
-0.479894 -0.364099 2.07919 180 237 212
-0.428517 -0.380016 2.17553 75 111 95
-0.11042 -0.463471 2.69255 167 220 187
-0.44461 -0.361981 2.13064 39 76 44
-0.463479 -0.344066 2.09799 83 114 93
-0.452129 -0.342046 2.12339 86 143 105
-0.43524 -0.345085 2.15822 167 241 189
1.43585 -0.945498 5.78616 146 186 191
-0.431406 -0.334736 2.16925 64 113 91
-0.659076 -0.273702 1.79551 198 227 212
-0.703236 -0.255623 1.70587 183 246 226
-0.0773439 -0.417775 2.754 84 142 117
-0.41974 -0.327447 2.19498 96 148 124
0.0895573 -0.457157 3.03172 90 117 101
-0.728928 -0.242502 1.65406 95 133 103
-0.404548 -0.330497 2.23388 45 70 44
0.674763 -0.625127 4.2267 151 208 187
0.476397 -0.536129 3.74052 150 217 188
-0.683516 -0.238149 1.74399 144 191 169
-0.081811 -0.381964 2.75933 62 89 80
-0.0592604 -0.387433 2.80734 111 158 136
-0.712544 -0.223563 1.68446 169 227 199
-0.427832 -0.292863 2.19166 57 102 83
-0.0728923 -0.373043 2.78469 186 240 211
0.498866 -0.50757 3.78297 155 219 183
-0.735496 -0.211897 1.6371 154 216 192
-0.395061 -0.29007 2.25499 97 160 121
-0.723486 -0.209838 1.6604 160 200 188
-0.425786 -0.266775 2.19684 81 119 89
-0.0555125 -0.347277 2.83387 62 104 79
-0.711429 -0.1985 1.68412 154 234 197
1.89422 -0.767371 6.78898 120 171 164
-0.698345 -0.174632 1.71318 58 113 96
-0.70887 -0.170461 1.68737 151 212 186
-0.700403 -0.170951 1.70674 84 124 96
0.137322 -0.33103 3.19828 78 122 109
-0.45793 -0.197465 2.12199 195 229 188
-0.45849 -0.19532 2.11879 105 126 101
0.422326 -0.341689 3.65219 136 166 147
3.58629 -0.942996 10.1382 153 188 192
-0.679389 -0.155446 1.74895 165 222 197
-0.379514 -0.2 2.25854 180 232 214
-0.583357 -0.149976 1.82616 133 159 143
-0.686746 -0.139621 1.7296 148 214 185
-0.530614 -0.153249 1.93423 139 178 152
-0.625278 -0.134451 1.77165 83 104 82
0.193438 -0.204438 3.38184 43 87 56
1.41498 -0.353481 5.95977 140 165 161
1.36253 -0.331755 5.8495 152 176 174
-0.336513 -0.127588 2.38234 118 179 159
-0.256207 -0.129588 2.51856 74 139 100
-0.0143697 -0.149294 2.94706 170 232 196
0.871535 -0.233543 4.87162 143 204 166
-0.675228 -0.0756068 1.74908 77 114 82
-0.672082 -0.0712999 1.75583 139 188 150
-0.692572 -0.0670507 1.71661 138 206 175
-0.252725 -0.0925697 2.53828 77 129 111
-0.302916 -0.0826955 2.4613 90 136 107
0.00753454 -0.0943866 3.00114 80 122 104
-0.293515 -0.0757892 2.4803 89 109 80
-0.556623 -0.0481184 1.86383 216 255 230
3.10529 -0.254016 9.3888 177 197 208
-0.344306 -0.0563238 2.3877 62 79 58
-0.0325929 -0.0580054 2.94279 120 158 130
-0.284069 -0.0407152 2.44603 181 232 198
1.21959 -0.0960528 5.62614 147 180 176
-0.541679 -0.0128315 1.908 10 39 24
-0.181521 -0.0174206 2.71688 44 80 56
-0.507248 -0.00917837 1.96115 50 101 67
-0.512824 -0.00613546 1.94442 73 100 61
-0.46911 -0.00583318 2.03087 43 63 64
-0.554296 0.0113668 1.86337 160 233 207
3.13055 0.0651315 9.5312 70 117 109
-0.415914 0.0745609 2.16988 188 204 181
-0.364083 0.0966641 2.26181 37 79 44
-0.404692 0.0991722 2.16689 174 215 178
-0.407254 0.100355 2.16191 51 85 45
-0.393879 0.103724 2.1949 149 176 156
-0.418893 0.104981 2.14082 164 209 183
3.57644 0.531709 10.5491 128 174 168
-0.308333 0.123551 2.40095 38 53 45
3.61143 0.544786 10.639 122 176 171
0.596608 0.227497 4.3894 80 114 103
-0.404482 0.113872 2.17134 180 222 199
0.850684 0.27295 4.94406 184 228 205
-0.289775 0.141137 2.41929 52 91 66
-0.297075 0.146212 2.41674 155 212 179
-0.364758 0.163629 2.25704 148 228 193
-0.0883894 0.21467 2.94245 58 99 67
4.33022 0.937041 12.1819 146 197 189
0.831521 0.400784 4.94119 122 153 162
0.437707 0.335539 4.08155 150 222 175
0.449989 0.336843 4.11646 187 246 215
0.43697 0.337542 4.08615 172 238 189
-0.303227 0.204433 2.37303 165 212 173
-0.178335 0.224734 2.6109 47 88 61
-0.203917 0.228293 2.56085 51 72 50
-0.364882 0.199417 2.24336 205 239 209
0.806188 0.444276 4.88881 120 166 167
0.810471 0.449925 4.90789 113 159 153
-0.195027 0.236665 2.57629 181 220 205
-0.17026 0.242006 2.61759 78 150 103
-0.297693 0.227847 2.371 104 121 94
17.4489 3.81182 39.5724 132 185 165
0.182728 0.301826 3.0861 50 101 74
-0.303525 0.247066 2.33972 89 146 113
-0.19891 0.276213 2.55255 201 255 224
0.786727 0.797304 4.87775 108 144 154
0.834167 0.908769 4.99792 136 192 193
1.38681 1.20366 6.1815 221 251 246
3.31134 2.04756 10.3117 145 179 178
1.80365 1.57256 7.08758 129 178 170
2.00586 1.68984 7.52573 120 164 151
0.303698 0.780948 3.37633 75 121 99
6.35931 3.96748 16.9003 137 180 183
1.18942 1.54589 5.7834 133 171 165
1.69058 1.84015 6.88349 134 169 172
0.915614 1.53937 5.18676 150 184 183
2.49774 2.71062 8.6635 112 160 154
2.1234 2.58593 7.87219 116 166 162
3.5365 3.68648 10.9683 146 175 184
-0.489419 -0.829795 1.85605 70 96 72
-0.265417 -0.977895 2.20195 95 146 109
0.0941287 -1.23893 2.80533 146 228 176
-0.239849 -0.976567 2.26582 145 231 177
-0.104381 -1.08359 2.54677 145 222 184
-0.33435 -0.879674 2.13358 42 53 33
-0.360024 -0.855775 2.08752 174 222 204
-0.342189 -0.86019 2.12551 197 250 236
-0.337706 -0.865532 2.13838 111 166 151
-0.353441 -0.847714 2.1044 99 121 103
-0.348775 -0.849461 2.11033 192 240 222
-0.12971 -1.00767 2.53066 95 110 102
-0.704551 -0.595465 1.54488 195 238 211
-0.146744 -0.988619 2.50736 46 72 58
-0.464104 -0.789989 2.03531 103 157 144
-0.314547 -0.842227 2.17423 150 203 183
-0.703077 -0.581943 1.55462 131 172 134
-0.370014 -0.785546 2.11891 111 135 127
-0.383038 -0.771211 2.09616 161 206 187
-0.364634 -0.783212 2.13108 172 228 215
-0.366302 -0.779682 2.13176 91 138 130
-0.418162 -0.736275 2.05532 175 232 223
-0.175478 -0.882729 2.43997 60 70 47
-0.568253 -0.669831 1.89338 114 128 124
-0.20324 -0.852942 2.3854 55 75 63
-0.450265 -0.722749 2.04541 178 232 215
-0.235746 -0.826166 2.32464 121 207 167
-0.170644 -0.864415 2.44855 168 215 177
-0.19609 -0.82852 2.41525 136 164 144
-0.31279 -0.756023 2.23245 93 143 111
-0.358 -0.718833 2.16369 55 119 100
-0.319819 -0.739307 2.22543 74 145 105
-0.315011 -0.739026 2.23252 66 156 126
-0.622606 -0.590395 1.81345 140 173 146
-0.362964 -0.703375 2.16123 171 234 194
-0.638099 -0.536902 1.6803 96 124 88
-0.667118 -0.520484 1.63513 152 200 164
-0.37427 -0.690267 2.13991 48 111 91
-0.361984 -0.69148 2.15966 144 220 178
-0.335712 -0.709387 2.21566 81 136 111
-0.366198 -0.684371 2.15233 65 107 82
-0.214347 -0.743418 2.37652 132 183 145
-0.338379 -0.681934 2.22105 43 89 67
-0.334407 -0.677484 2.22909 134 201 169
-0.597919 -0.564143 1.87957 134 196 180
-0.645792 -0.493486 1.6851 164 219 194
-0.334666 -0.663101 2.2323 97 176 137
-0.597511 -0.546217 1.87718 167 229 205
-0.204105 -0.698538 2.385 189 244 225
-0.608697 -0.531694 1.8545 125 180 161
6.05281 -3.93245 13.333 137 189 166
-0.602668 -0.530572 1.87111 168 242 212
5.2322 -3.4629 11.9033 124 156 131
-0.315095 -0.645923 2.28291 39 66 50
-0.598958 -0.525408 1.8765 150 215 189
-0.298848 -0.65648 2.33174 128 198 181
-0.294172 -0.65803 2.34066 67 105 87
4.29292 -2.93354 10.2922 117 160 149
-0.33762 -0.627226 2.25305 136 213 186
5.66851 -3.60115 12.6904 135 172 146
5.5328 -3.37951 12.4468 169 225 202
-0.308704 -0.614681 2.33044 153 215 193
-0.284104 -0.625214 2.39141 42 109 88
-0.6217 -0.459348 1.84507 84 120 108
-0.560636 -0.48734 1.96199 55 71 54
-0.456305 -0.513986 2.1098 118 157 136
-0.460298 -0.511649 2.10071 182 229 213
-0.55581 -0.478927 1.97522 152 239 211
-0.435154 -0.520864 2.1676 121 138 125
-0.462896 -0.49355 2.09829 178 237 199
-0.62048 -0.42985 1.86233 79 99 94
-0.813968 -0.335672 1.47316 160 198 186
-0.625236 -0.418611 1.85299 45 80 60
-0.624811 -0.407607 1.85455 141 188 166
-0.609176 -0.415643 1.88684 77 130 116
-0.617091 -0.410401 1.87187 156 234 203
0.760794 -0.970855 4.31748 86 175 131
-0.617323 -0.407983 1.87192 50 79 64
-0.615061 -0.40351 1.87639 119 191 171
-0.595823 -0.40475 1.90921 89 132 117
-0.621514 -0.388636 1.86008 138 194 175
0.508729 -0.825624 3.87996 30 56 32
-0.610816 -0.388949 1.88349 180 241 215
-0.608091 -0.389087 1.88304 115 171 142
-0.457892 -0.439967 2.13061 189 228 206
0.0185193 -0.597089 2.8556 206 255 239
-0.471889 -0.431011 2.10015 199 241 230
-0.451093 -0.439768 2.14225 188 232 215
0.0501248 -0.592078 2.90533 121 162 165
-0.811626 -0.294773 1.48329 72 100 100
-0.468153 -0.423092 2.11764 168 207 182
0.588038 -0.818559 4.04726 155 221 179
0.599529 -0.821639 4.06585 67 99 80
-0.144022 -0.516828 2.60018 155 217 193
-0.00452181 -0.558727 2.81631 99 160 146
0.0963364 -0.593102 2.98888 206 255 249
0.0823113 -0.583 2.96331 121 163 168
-0.130199 -0.511572 2.63018 107 156 134
0.61423 -0.80202 4.10184 95 151 108
-0.728999 -0.296283 1.5806 149 210 174
-0.487823 -0.394374 2.08447 132 161 136
-0.428586 -0.415514 2.18303 155 205 175
0.637234 -0.807093 4.16227 153 227 179
-0.612549 -0.353059 1.88541 115 165 141
-0.0921428 -0.51178 2.6982 86 148 136
-0.470951 -0.389145 2.09289 127 190 151
0.0550043 -0.548778 2.92387 243 255 254
0.127176 -0.572924 3.04878 172 194 205
0.882035 -0.878197 4.61982 74 132 103
0.00226844 -0.530977 2.84535 89 103 97
0.0199249 -0.531338 2.8759 80 111 114
-0.608901 -0.339835 1.8954 159 207 213
-0.442677 -0.383062 2.13657 164 221 188
-0.0894613 -0.490804 2.7139 170 226 191
0.2681 -0.612243 3.35143 146 195 167
2.39777 -1.37912 7.53096 208 242 235
-0.422215 -0.389539 2.19217 137 201 166
-0.412446 -0.390497 2.20527 62 74 56
-0.0904296 -0.484876 2.71054 76 100 76
0.00315241 -0.511001 2.86175 75 112 86
0.564803 -0.714745 4.01389 141 165 133
0.620011 -0.735529 4.11468 196 237 209
-0.436106 -0.369068 2.15402 185 241 222
-0.407666 -0.379672 2.22517 171 241 188
1.29335 -0.962608 5.48207 105 185 168
2.71075 -1.41749 8.12519 129 169 164
-0.407446 -0.3673 2.22019 85 130 111
-0.525604 -0.327849 2.01457 141 187 164
-0.442277 -0.347202 2.14351 43 70 36
-0.451829 -0.3423 2.12253 91 142 108
-0.409634 -0.356304 2.21776 36 76 58
-0.673553 -0.279209 1.76176 98 130 119
-0.432211 -0.346733 2.16501 57 93 69
1.43643 -0.946365 5.79451 144 181 189
-0.399486 -0.355373 2.24816 39 49 36
1.40229 -0.929083 5.72983 134 176 189
-0.422302 -0.342465 2.18862 58 112 83
-0.670989 -0.274091 1.77177 215 241 228
2.07586 -1.11677 7.00634 151 202 195
-0.720595 -0.254419 1.67222 109 154 138
-0.397708 -0.342909 2.251 161 209 185
-0.71619 -0.252955 1.68187 89 128 120
-0.396529 -0.338298 2.252 28 47 28
0.0833856 -0.456311 3.02072 163 231 208
0.196283 -0.488705 3.23194 169 210 212
-0.747815 -0.235576 1.61616 76 134 123
0.0795065 -0.449198 3.01337 52 90 72
0 0 0 99 165 136
-0.699325 -0.246979 1.71481 84 114 103
-0.0851067 -0.401622 2.74713 84 120 106
-0.701972 -0.24311 1.70767 73 123 113
-0.680491 -0.247869 1.75375 102 134 117
-0.409136 -0.316687 2.21893 74 113 88
-0.415184 -0.312749 2.20531 55 99 82
1.3175 -0.817262 5.59959 134 170 170
-0.73641 -0.228627 1.63559 86 93 96
0.210892 -0.467061 3.26747 91 118 114
-0.431285 -0.303895 2.17948 72 124 114
5.22693 -1.85783 13.0284 167 200 215
-0.493234 -0.281701 2.04195 172 240 217
0.224717 -0.464505 3.28945 184 252 217
0.155819 -0.444544 3.1847 110 171 167
1.33569 -0.791512 5.65251 103 166 156
2.33744 -1.06181 7.57138 122 174 174
-0.709745 -0.227598 1.69165 73 120 87
0.22116 -0.454516 3.2847 64 102 104
0.420067 -0.500113 3.61966 77 100 78
-0.705097 -0.22763 1.7015 80 131 111
-0.393963 -0.301248 2.2585 154 209 176
0.3006 -0.4591 3.4188 151 226 194
-0.394578 -0.292904 2.25565 171 231 200
-0.746418 -0.206796 1.62021 97 143 144
5.709 -1.85221 14.0139 112 188 170
-0.495518 -0.260522 2.04342 110 164 134
0.191743 -0.423279 3.25557 100 158 134
-0.409065 -0.284455 2.22871 99 166 137
-0.724463 -0.208629 1.65786 126 156 145
-0.496046 -0.258695 2.04835 106 152 129
-0.415971 -0.278752 2.21933 90 125 111
-0.486661 -0.253986 2.06579 85 136 116
1.19326 -0.680335 5.39697 128 164 158
-0.403033 -0.275008 2.24495 121 143 115
-0.426838 -0.266168 2.18861 178 244 209
-0.449063 -0.256182 2.13372 174 242 207
-0.711075 -0.198416 1.68426 166 244 203
-0.392046 -0.268968 2.25937 145 164 139
-0.525591 -0.231339 1.99199 176 196 173
10.7967 -2.82964 23.8338 130 180 200
-0.721486 -0.187335 1.66392 211 252 244
-0.71902 -0.186657 1.67037 99 121 109
0.13555 -0.364135 3.19229 149 224 196
1.80355 -0.753416 6.60779 110 179 166
-0.718653 -0.183494 1.66991 189 226 206
-0.433552 -0.237834 2.17227 61 68 53
7.63335 -1.96122 17.8432 131 176 179
1.57429 -0.676296 6.18219 125 182 174
-0.430932 -0.229006 2.17242 178 232 185
0.12801 -0.340538 3.18167 193 242 214
-0.671613 -0.179153 1.75915 162 229 198
-0.633041 -0.181032 1.77986 65 78 54
-0.71093 -0.170252 1.68192 62 100 78
0.137089 -0.330595 3.20049 73 116 107
-0.695432 -0.173144 1.71815 157 232 200
-0.440851 -0.214957 2.14728 106 172 137
-0.706088 -0.166864 1.69561 63 116 83
-0.699455 -0.166708 1.70594 82 113 86
1.52319 -0.61082 6.08791 129 150 148
-0.673466 -0.169546 1.75328 54 90 76
-0.62446 -0.172612 1.78797 59 72 56
-0.694922 -0.164968 1.7221 60 128 93
-0.627059 -0.171178 1.78525 149 206 168
-0.484797 -0.19241 2.043 168 214 171
-0.715891 -0.154408 1.6666 219 248 233
0.0833186 -0.296155 3.11293 170 234 188
-0.627853 -0.163388 1.77739 61 74 52
-0.0421389 -0.265569 2.8775 134 190 171
0.398467 -0.33528 3.61523 218 255 249
-0.703748 -0.151812 1.6957 99 142 121
-0.699174 -0.153102 1.70519 64 103 78
-0.420934 -0.191719 2.16592 179 227 198
-0.378745 -0.200934 2.25585 177 231 214
-0.690857 -0.151519 1.72804 166 231 192
-0.608213 -0.154416 1.81286 146 186 168
-0.603821 -0.157106 1.82098 48 68 55
-0.68592 -0.143991 1.73484 142 186 155
-0.384402 -0.185133 2.23562 184 254 224
-0.389562 -0.183626 2.22931 174 237 211
-0.392272 -0.181511 2.22416 113 152 131
-0.382318 -0.181126 2.23675 67 124 91
-0.623146 -0.14154 1.78841 51 78 62
-0.531111 -0.15286 1.93515 157 204 171
-0.520859 -0.151813 1.95937 141 163 134
-0.399393 -0.170912 2.20342 94 124 105
-0.390262 -0.168791 2.22252 89 145 122
2.35708 -0.610495 7.77379 142 190 184
-0.701536 -0.126016 1.69887 185 243 208
0 0 0 144 190 191
-0.290717 -0.16994 2.47006 38 85 69
-0.252984 -0.170945 2.53467 119 181 151
-0.619513 -0.118407 1.78205 124 169 142
-0.274419 -0.168803 2.50313 152 215 183
0.134383 -0.219219 3.28803 166 229 190
0.147696 -0.216398 3.31255 160 234 192
1.19239 -0.356069 5.50737 125 172 163
1.40611 -0.384404 5.93502 126 183 174
-0.334708 -0.149593 2.38531 173 236 194
-0.705263 -0.102125 1.68549 49 68 51
0.205874 -0.213124 3.40284 55 94 72
-0.512227 -0.116134 1.92052 72 125 105
-0.299961 -0.150443 2.45716 73 138 113
0 0 0 106 137 136
-0.335357 -0.140562 2.38083 179 233 203
1.55892 -0.375645 6.23642 131 170 172
1.42205 -0.353095 5.96661 140 164 162
-0.336257 -0.13579 2.38213 114 166 148
-0.347606 -0.123962 2.36676 26 75 59
-0.690012 -0.0880134 1.72129 77 124 98
1.92885 -0.373492 6.99332 98 152 147
-0.0226078 -0.151456 2.93398 78 123 97
1.2307 -0.293606 5.60438 112 162 162
-0.503254 -0.0949438 1.93044 69 117 89
-0.231672 -0.1272 2.58406 81 113 94
-0.0290955 -0.141283 2.92539 74 116 81
-0.690135 -0.080854 1.72181 105 158 138
-0.0156316 -0.138822 2.9526 74 123 91
-0.414775 -0.0995818 2.23873 45 59 41
0.029691 -0.138621 3.06749 162 224 184
0.0624207 -0.142661 3.12793 107 143 129
-0.665709 -0.0757727 1.7652 144 186 155
-0.271028 -0.106403 2.50797 99 152 125
0.0620459 -0.134746 3.12271 171 219 201
0.0378484 -0.129103 3.08281 138 172 142
-0.449637 -0.087163 2.16389 46 54 31
1.02847 -0.218461 5.20585 87 127 116
-0.217604 -0.104754 2.62169 164 225 211
1.48472 -0.252962 6.12369 228 253 249
-0.437724 -0.0814951 2.19264 36 73 53
0.0686745 -0.117041 3.15982 107 130 108
0.00325905 -0.105074 2.98769 73 108 94
-0.302933 -0.0820946 2.4629 89 132 105
-0.0403339 -0.0970913 2.92445 57 92 82
1.03026 -0.181429 5.21053 99 133 133
1.42705 -0.203789 6.01957 91 134 125
9.39235 -0.720416 21.9205 115 180 171
-0.29851 -0.0773076 2.47281 171 237 202
-0.452813 -0.0629364 2.15671 154 185 146
1.15133 -0.166003 5.46254 108 144 138
1.47753 -0.169341 6.13144 69 99 94
3.10933 -0.253016 9.40166 175 197 209
1.16677 -0.143114 5.49307 88 148 130
-0.455282 -0.0483473 2.14927 35 52 25
-0.576177 -0.0378822 1.82361 182 218 182
-0.322587 -0.0502686 2.42292 64 81 54
-0.208024 -0.0519794 2.66099 49 108 87
1.32862 -0.1172 5.84548 123 175 175
-0.172263 -0.049952 2.74752 71 106 92
-0.179405 -0.046886 2.74184 161 215 186
1.44802 -0.101509 6.09207 122 180 169
-0.339958 -0.0328632 2.40834 58 65 44
-0.573454 -0.0182933 1.8231 34 46 28
-0.172305 -0.0290194 2.74546 138 180 145
-0.541947 -0.0166068 1.90806 163 237 201
-0.197528 -0.0230648 2.67996 46 83 51
2.71051 -0.0895971 8.6464 147 192 189
-0.519032 -0.0138059 1.92177 184 226 185
-0.164143 -0.00800547 2.75957 39 61 36
-0.381834 0.00238308 2.27859 189 206 185
-0.282981 0.00448761 2.46819 73 97 67
-0.470409 0.00372455 2.03009 53 85 80
-0.203465 0.00716829 2.66937 63 76 60
-0.237552 0.00889913 2.57423 86 115 100
-0.416931 0.00949179 2.10414 174 211 201
-0.158197 0.0131188 2.75085 186 237 203
-0.202939 0.0209083 2.66581 150 179 146
3.15234 0.0685278 9.57273 84 123 121
-0.279967 0.0211457 2.48486 60 111 83
-0.147697 0.0322323 2.78094 192 232 191
-0.142089 0.0320746 2.79672 32 73 52
0.481265 0.0520077 4.13319 137 167 154
0.47971 0.0568148 4.12576 46 56 43
-0.0716436 0.0457122 2.90087 38 92 62
-0.0492982 0.0530349 2.93768 63 103 78
-0.134403 0.0523428 2.80794 159 216 201
-0.0766904 0.0522034 2.87942 78 117 92
-0.0623054 0.063011 2.91555 81 114 87
-0.399695 0.0472635 2.21074 61 69 52
-0.165133 0.0603113 2.71448 168 227 183
-0.174921 0.0617137 2.68624 110 151 130
-0.289667 0.0574197 2.43132 147 197 163
-0.35485 0.0562483 2.33044 117 149 124
0.613796 0.102617 4.41761 86 140 117
0.483603 0.098184 4.12403 50 77 61
0.482687 0.10572 4.12075 122 183 149
-0.0536107 0.0808729 2.92948 80 116 92
-0.0663711 0.0805948 2.9073 85 142 117
-0.192437 0.0759754 2.64726 60 82 53
0.48307 0.114206 4.11845 133 181 145
0.481342 0.116424 4.12696 81 122 90
-0.384095 0.067942 2.23036 131 152 127
-0.0248124 0.0903584 2.98432 180 227 201
-0.1847 0.0841238 2.6598 67 113 67
-0.185722 0.0874463 2.66796 42 66 34
-0.324713 0.0838242 2.37247 98 123 97
-0.168542 0.0950011 2.70688 158 187 161
-0.397829 0.0781145 2.19925 153 175 157
-0.376651 0.0811873 2.24359 174 228 191
-0.168442 0.0990196 2.70713 55 70 49
0.559457 0.160175 4.29483 121 172 145
-0.191606 0.120516 2.63199 165 212 174
-0.36424 0.104862 2.26107 182 244 204
-0.30539 0.110721 2.40546 157 213 178
-0.406783 0.101279 2.1651 34 57 29
-0.393862 0.10396 2.1947 149 176 156
-0.412404 0.103759 2.15096 144 182 160
0.592473 0.227042 4.37317 69 101 90
-0.404589 0.114546 2.17266 198 228 203
-0.39651 0.115632 2.18836 129 170 143
-0.0979654 0.166332 2.91032 48 61 47
4.34335 0.684353 12.1394 123 171 173
2.75582 0.506939 8.88208 147 196 194
0.963133 0.298832 5.19321 103 134 131
-0.0940972 0.17243 2.91893 197 221 197
0.64648 0.268085 4.50116 170 239 212
-0.322742 0.143916 2.3661 137 179 161
0.497845 0.266364 4.19427 182 248 223
0.446575 0.272502 4.11285 155 214 183
-0.338004 0.156661 2.31502 151 225 167
0.83775 0.331854 4.93262 125 172 163
-0.0780317 0.205763 2.95196 44 80 56
-0.336249 0.161908 2.31787 48 71 39
0.78115 0.338064 4.8138 72 127 112
-0.195161 0.181825 2.58682 182 233 196
-0.370431 0.160532 2.2469 64 75 59
-0.070929 0.218003 2.98181 159 198 173
0.915393 0.371832 5.11162 113 178 162
1.35772 0.440312 6.03001 118 172 159
0.448387 0.310366 4.11088 180 217 201
-0.0785236 0.229045 2.95697 56 101 75
0.503704 0.328432 4.23842 60 96 84
5.45216 1.12383 14.4917 125 165 164
-0.338326 0.179199 2.30881 100 133 96
0.376898 0.310283 3.97016 49 64 50
-0.352594 0.178137 2.27926 169 222 183
2.15887 0.605196 7.6931 163 201 203
-0.337315 0.183611 2.31627 145 157 135
-0.284805 0.190703 2.41314 68 116 88
0.520161 0.337824 4.27863 175 227 209
-0.318687 0.189632 2.358 80 83 67
0.825398 0.3988 4.92509 118 146 157
-0.259569 0.202557 2.45473 165 241 207
0.415203 0.339313 4.04436 125 186 148
-0.239629 0.210216 2.48937 160 219 181
-0.225679 0.21233 2.51707 58 100 53
-0.287932 0.205689 2.40587 112 175 143
-0.220632 0.21969 2.52739 141 192 155
0.523276 0.374341 4.2927 104 145 130
0.571548 0.381562 4.38686 80 120 115
-0.246759 0.218591 2.47712 22 44 20
-0.20373 0.22936 2.56309 62 76 58
0.438799 0.363747 4.08448 88 137 123
-0.191952 0.234403 2.58613 69 110 89
0.430419 0.369594 4.07379 155 229 199
0.636587 0.414146 4.52888 106 145 143
-0.170319 0.242568 2.61877 95 157 109
0.732751 0.44293 4.74211 107 142 132
0.571835 0.413646 4.39763 128 188 154
2.20471 0.739898 7.80932 100 150 138
0.525124 0.408328 4.28224 142 194 176
17.364 3.78864 39.3816 120 176 153
0.512485 0.412346 4.2683 71 116 107
0.182676 0.305879 3.08759 172 230 206
-0.166527 0.262537 2.63222 46 68 44
0.609254 0.452164 4.48299 88 119 110
0.643145 0.455957 4.55422 104 165 155
0.612776 0.454202 4.49265 112 168 157
0.685022 0.474705 4.64615 155 190 193
0.673073 0.474102 4.61453 106 125 133
-0.301334 0.245156 2.3481 197 255 230
4.1455 1.24541 11.8651 126 170 163
4.84311 1.41586 13.3192 131 177 178
0.478562 0.447466 4.20252 79 130 122
-0.280203 0.256176 2.39018 111 176 144
-0.295067 0.257298 2.35979 50 92 57
-0.297398 0.259257 2.35563 155 204 158
0.67893 0.520215 4.63209 108 142 188
-0.193736 0.285887 2.56377 82 129 113
0.960306 0.58844 5.23557 130 194 175
0.619594 0.513479 4.50718 93 137 154
0.495246 0.486893 4.2334 197 234 226
8.3301 2.39164 20.7061 115 152 156
7.67945 2.35954 19.2866 116 165 149
1.15779 0.70148 5.64605 164 202 206
6.46318 2.16613 16.8223 143 169 186
0.805596 0.633736 4.91359 100 153 140
1.16952 0.734028 5.67858 149 181 194
6.23667 2.12018 16.3475 153 187 193
-0.235064 0.324022 2.46383 72 140 109
2.2015 1.04897 7.84123 134 173 165
5.8763 2.16117 15.5827 106 144 148
5.83337 2.18279 15.5278 115 166 162
5.16268 2.02539 14.1255 140 182 171
0.629399 0.669246 4.53876 95 142 126
0.625351 0.671847 4.5268 94 144 132
0.244972 0.474884 3.18227 62 114 96
5.48423 2.23674 14.8412 108 156 144
0.802883 0.743778 4.90955 94 114 132
1.18328 0.868325 5.71537 120 159 157
0.786585 0.742844 4.87993 90 127 125
6.13623 2.51587 16.2181 116 166 154
0.764506 0.753536 4.8258 92 114 125
0 0 0 130 167 181
0 0 0 154 184 179
1.29305 0.935759 5.95319 132 181 183
0.227178 0.510306 3.16725 104 178 144
0.741494 0.770503 4.77804 113 140 160
0.722366 0.771074 4.73626 110 148 152
0.131814 0.483522 2.96122 65 104 82
0.631915 0.763675 4.54936 82 139 124
0.834928 0.908766 4.99793 135 192 191
2.07764 1.39199 7.64554 136 182 176
0.196674 0.603124 3.10849 64 112 94
1.45797 1.22895 6.32575 110 137 147
1.45914 1.24411 6.32744 241 255 254
1.29169 1.1763 5.96955 117 176 162
3.53937 2.12194 10.769 127 157 152
1.60635 1.31452 6.64434 128 180 163
1.45914 1.29604 6.3317 93 134 126
0.667077 0.949903 4.63098 122 171 163
0.662254 0.964406 4.62541 130 182 165
0.915065 1.08494 5.1782 98 126 143
0 0 0 133 171 175
1.12079 1.26443 5.60414 131 167 177
0.623633 1.0261 4.53807 85 146 132
0.975075 1.25607 5.30385 107 135 135
6.12792 3.93132 16.4061 91 131 129
12.7182 7.5411 30.4734 159 170 198
1.19086 1.54922 5.79096 133 171 165
1.69475 1.83974 6.88291 118 154 154
1.66226 1.85724 6.82305 135 184 186
1.29975 1.7024 6.03453 118 138 149
0.628359 1.29493 4.56019 117 182 167
1.12228 1.61266 5.64518 85 145 134
1.94152 2.13973 7.4454 150 171 199
1.97925 2.19585 7.5223 141 170 177
1.40493 1.8453 6.26969 115 159 153
2.82688 2.80198 9.37541 242 254 255
5.25834 4.50629 14.6429 154 183 192
2.45578 2.68561 8.58149 241 255 255
1.25943 2.1141 5.98056 140 166 178
2.09246 2.89472 7.84199 114 167 164
-0.488991 -0.82989 1.85475 59 88 63
0.200389 -1.32401 2.92313 110 125 93
-0.35829 -0.915717 2.08495 61 77 66
-0.341088 -0.882324 2.12657 142 195 162
-0.178504 -0.93591 2.43111 184 247 208
-0.703834 -0.581508 1.55626 124 170 134
-0.693796 -0.595939 1.59429 112 171 143
-0.713357 -0.566756 1.5439 121 183 153
-0.1635 -0.919711 2.47718 134 178 142
-0.190959 -0.890262 2.41139 149 252 201
-0.411936 -0.741777 2.06418 75 96 88
-0.170092 -0.859572 2.46017 188 242 199
-0.323808 -0.760961 2.20477 160 255 226
-0.179161 -0.852416 2.45225 61 74 48
-0.125874 -0.887799 2.5604 42 51 25
-0.632958 -0.556298 1.68383 141 173 148
3.52149 -2.97847 8.76165 167 219 202
-0.347769 -0.709179 2.18324 107 170 131
-0.374754 -0.69038 2.1397 71 129 104
-0.364267 -0.691649 2.15507 164 249 211
-0.682591 -0.49975 1.60498 100 126 102
-0.337049 -0.698386 2.21398 161 255 221
-0.206818 -0.741097 2.3897 156 210 181
-0.317928 -0.694689 2.26231 69 107 85
-0.330938 -0.673958 2.23535 56 90 79
-0.605869 -0.554994 1.85759 139 214 182
-0.592807 -0.562918 1.8896 173 213 208
-0.113588 -0.746418 2.51092 113 156 135
-0.593446 -0.548641 1.88737 61 79 66
-0.213198 -0.690686 2.36381 158 237 210
5.2322 -3.46291 11.9033 124 156 131
4.2625 -2.95934 10.1674 101 157 138
6.02281 -3.78853 13.2873 158 230 194
4.69311 -3.09345 10.957 101 145 138
4.45989 -2.9669 10.6091 85 123 111
5.10375 -3.15537 11.7794 113 165 155
-0.559613 -0.497625 1.96426 180 247 218
-0.560754 -0.487088 1.96289 51 70 55
11.0976 -5.76975 22.7623 152 187 191
-0.559561 -0.478321 1.96583 57 83 65
-0.461845 -0.508752 2.10188 177 230 210
-0.442101 -0.516854 2.14812 193 235 224
-0.46569 -0.499867 2.08813 168 231 205
-0.451287 -0.494011 2.12288 167 214 192
-0.619917 -0.428916 1.8604 67 98 89
-0.458527 -0.481908 2.11578 131 167 155
-0.625454 -0.418474 1.85345 45 80 60
-0.582313 -0.421855 1.93177 132 184 161
-0.596361 -0.41271 1.90827 100 146 133
-0.453257 -0.459437 2.13261 171 214 199
-0.808843 -0.312804 1.47604 154 196 179
0.616327 -0.876916 4.06952 52 105 72
0.745806 -0.931194 4.33152 70 113 76
0.542076 -0.84581 3.93795 40 75 49
-0.62219 -0.387625 1.86366 140 186 174
-0.808809 -0.305267 1.48544 175 241 212
-0.610786 -0.388674 1.88425 167 229 199
17.2798 -7.30652 34.6223 119 159 148
-0.810714 -0.297486 1.47956 63 83 78
0.667722 -0.871886 4.16944 120 197 153
0.628564 -0.852131 4.10928 114 203 163
-0.811083 -0.295276 1.48224 64 89 85
-0.604074 -0.379612 1.90095 168 205 201
-0.459711 -0.427799 2.13291 97 112 91
-0.157589 -0.51882 2.57767 156 203 171
-0.472866 -0.419622 2.10635 91 127 103
0.600142 -0.821624 4.06429 62 97 77
0.606047 -0.80582 4.07433 161 240 189
-0.608586 -0.362219 1.89394 159 218 198
0.0773084 -0.577427 2.96014 64 97 112
-0.105529 -0.518524 2.67204 42 55 47
-0.429589 -0.415381 2.18385 135 185 151
-0.187825 -0.479535 2.51132 51 79 66
0.655086 -0.812789 4.16999 57 123 88
-0.487517 -0.394542 2.08384 132 161 136
-0.102905 -0.510858 2.68234 143 215 179
0.0211568 -0.546912 2.86923 85 132 124
0.782821 -0.854209 4.43815 48 101 68
0.0717209 -0.556817 2.95862 119 155 165
0.286229 -0.637558 3.3658 40 49 46
-0.612393 -0.344374 1.88684 64 98 91
0.0726224 -0.547849 2.96137 217 248 247
2.50505 -1.44669 7.7093 114 135 143
0.279334 -0.619185 3.36674 153 215 197
1.8591 -1.20976 6.52279 125 158 151
2.40236 -1.39401 7.52445 122 155 151
-0.609253 -0.339464 1.89647 160 206 214
0.268076 -0.612301 3.35091 146 195 167
-0.0791493 -0.492968 2.73041 96 139 118
1.8497 -1.18138 6.51608 124 158 158
-0.498562 -0.354807 2.04263 52 88 72
-0.517981 -0.340948 2.02776 179 218 196
-0.431438 -0.357953 2.17089 68 114 95
2.43786 -1.27421 7.65707 124 172 166
-0.447645 -0.342237 2.13101 174 241 196
2.00171 -1.12628 6.8413 119 143 143
-0.406365 -0.351839 2.22353 180 227 195
-0.449222 -0.334531 2.13147 160 214 179
-0.422357 -0.341768 2.1918 62 120 91
0.0783273 -0.470338 3.01462 97 153 132
-0.409956 -0.336298 2.21693 167 230 198
-0.427985 -0.327823 2.17879 160 232 196
2.92971 -1.33563 8.62644 148 192 191
0.238488 -0.49916 3.30059 187 240 226
-0.417282 -0.32751 2.20051 109 157 131
0.0785669 -0.449592 3.01162 57 97 79
-0.404076 -0.328157 2.23529 86 103 82
-0.403226 -0.328052 2.2354 85 101 83
0.215071 -0.48704 3.26924 175 232 229
0.345821 -0.517583 3.46896 189 255 228
-0.484285 -0.296889 2.06641 62 92 79
-0.0852281 -0.401479 2.74784 84 120 106
-0.699869 -0.245567 1.71774 73 105 94
0.182001 -0.46723 3.21152 206 243 241
-0.680396 -0.247642 1.75424 107 141 124
-0.417681 -0.311228 2.21028 78 133 114
0.210729 -0.467059 3.26758 91 118 114
0.47834 -0.535479 3.74236 167 233 198
0.00917737 -0.4124 2.93479 48 96 78
0.283569 -0.471765 3.39591 144 210 185
-0.727286 -0.222596 1.64777 83 121 103
0.190373 -0.444497 3.23807 89 129 124
-0.665203 -0.236932 1.77773 93 117 109
9.70244 -2.96278 21.5582 155 176 204
-0.428514 -0.29293 2.19131 71 111 93
-0.491845 -0.271284 2.05337 85 133 105
-0.532984 -0.257538 1.98322 146 212 183
-0.425977 -0.288554 2.19627 165 224 203
-0.658215 -0.23226 1.79666 189 238 218
-0.513647 -0.259433 2.00963 60 74 56
-0.126203 -0.35069 2.69005 42 88 75
-0.738243 -0.207118 1.64095 75 85 85
-0.709475 -0.209329 1.69312 82 123 108
-0.524692 -0.244082 1.99663 139 193 164
-0.487275 -0.253311 2.06769 73 120 98
-0.464676 -0.251443 2.1107 60 81 59
-0.523578 -0.22788 1.99037 159 184 156
-0.497961 -0.231777 2.03944 110 138 118
0.135904 -0.364873 3.18836 155 229 203
0.00814187 -0.333486 2.95291 147 215 180
0.441443 -0.415631 3.67715 152 209 171
-0.431645 -0.239144 2.16832 50 51 41
-0.428828 -0.235983 2.18519 129 141 119
0.0800197 -0.342268 3.07899 56 74 57
-0.70741 -0.17964 1.69386 56 82 66
-0.691995 -0.183753 1.72072 91 148 127
-0.519223 -0.215798 2.00661 49 50 34
2.75913 -0.929856 8.47385 99 149 147
-0.708405 -0.178424 1.69637 29 60 45
0.0105375 -0.314904 2.96114 87 123 107
-0.670382 -0.18449 1.77232 76 100 90
-0.699596 -0.172623 1.70872 166 233 196
-0.468886 -0.207526 2.09513 65 83 54
-0.439644 -0.213478 2.15099 148 205 166
2.93838 -0.8859 8.85294 171 188 209
-0.449486 -0.207005 2.13615 171 237 212
-0.378258 -0.21535 2.25166 57 79 61
-0.078265 -0.268412 2.80031 183 241 200
-0.466972 -0.19573 2.09752 97 125 96
-0.628882 -0.16282 1.77584 46 61 40
2.86839 -0.819787 8.72914 125 162 170
-0.713278 -0.149349 1.67106 163 242 193
-0.384407 -0.201785 2.2441 54 78 54
0.0895983 -0.277509 3.1404 116 164 128
1.47147 -0.536793 5.99436 198 225 229
-0.395242 -0.191799 2.21744 151 196 169
0 0 0 146 200 201
4.1885 -0.926821 11.3465 134 176 175
-0.550999 -0.142276 1.8412 91 133 110
11.1482 -1.99551 24.9491 125 177 170
-0.622571 -0.137454 1.78285 137 179 144
-0.300038 -0.186042 2.45433 54 69 55
-0.621746 -0.132554 1.79138 48 65 51
-0.277792 -0.186943 2.49501 143 191 167
-0.700863 -0.120674 1.69974 151 235 193
-0.274114 -0.168882 2.50285 158 222 186
0.147467 -0.216696 3.31189 159 235 193
18.689 -2.64061 39.8339 137 194 215
0.192268 -0.222017 3.36852 161 205 168
-0.467318 -0.129682 2.10265 81 125 112
-0.589858 -0.108496 1.8131 87 128 91
-0.538968 -0.114455 1.89187 109 141 122
0.0102849 -0.185275 3.02456 43 54 38
-0.511583 -0.109165 1.9172 165 232 195
0.0466477 -0.180318 3.09169 74 102 82
7.81551 -1.09178 18.6146 124 171 155
-0.0383048 -0.154185 2.9074 66 95 69
-0.414542 -0.112338 2.23677 185 206 174
-0.312655 -0.118972 2.43585 164 222 197
-0.681833 -0.0746216 1.73978 87 126 104
-0.53114 -0.0799178 1.8908 74 114 86
-0.270938 -0.106364 2.50806 99 152 125
-0.312085 -0.0995132 2.4406 66 140 112
-0.413554 -0.085205 2.23657 191 246 213
-0.259534 -0.0913092 2.51933 164 242 219
-0.253603 -0.0930782 2.52997 73 122 102
0.00934989 -0.110812 3.01217 130 150 138
-0.222215 -0.0925404 2.61069 27 66 58
0.0405769 -0.109997 3.0885 118 148 119
-0.534791 -0.0641668 1.89268 116 181 149
-0.51956 -0.0609846 1.92525 94 164 141
1.08707 -0.179455 5.33236 102 148 142
-0.448085 -0.0650342 2.15819 89 99 69
1.47736 -0.169969 6.12647 95 122 113
-0.0232874 -0.072254 2.96039 138 195 170
-0.378381 -0.0473466 2.30881 190 231 204
-0.143035 -0.0617205 2.81707 37 43 38
-0.0194184 -0.0611374 2.9615 110 132 113
-0.515075 -0.0360886 1.94131 168 238 197
1.33015 -0.116446 5.85041 123 175 175
-0.390166 -0.039558 2.27294 182 245 205
-0.178991 -0.0492855 2.73494 146 203 182
-0.0127775 -0.0508268 2.98382 193 242 222
1.29616 -0.100733 5.78413 104 147 138
1.72523 -0.114291 6.65157 140 167 188
-0.514569 -0.0280617 1.94152 68 123 98
-0.492303 -0.0274491 1.97937 55 83 54
-0.191775 -0.0365042 2.69026 156 208 178
-0.380791 -0.0263383 2.29871 83 87 68
-0.178581 -0.0303313 2.72771 58 71 57
-0.197152 -0.0222992 2.68202 56 86 61
-0.507238 -0.0147649 1.961 32 65 51
-0.184549 -0.0122494 2.72127 138 197 153
-0.515071 -0.00483954 1.94116 163 210 172
-0.29415 -0.00915547 2.45462 65 77 57
-0.21982 -0.0050002 2.61594 113 163 123
-0.159849 -0.00145497 2.74606 205 241 211
-0.523147 0.00241829 1.91754 155 207 177
-0.283124 0.00549524 2.47066 77 109 74
-0.374888 0.00829931 2.29462 163 189 159
1.27792 0.0222479 5.77036 106 161 136
-0.115723 0.0148199 2.82651 93 126 105
-0.280037 0.0192795 2.48179 87 131 108
3.14684 0.0671424 9.56518 77 111 110
0.520904 0.0326301 4.1993 173 246 208
-0.216169 0.0329919 2.62924 52 86 62
0.43464 0.0512031 4.0499 95 131 101
-0.0629509 0.0480694 2.91275 30 58 39
0.48793 0.0700175 4.15322 139 188 156
3.06365 0.162976 9.41584 123 177 172
-0.0403803 0.0543227 2.95941 189 217 197
0.498402 0.0944079 4.15172 153 233 204
-0.210333 0.0704223 2.61755 97 145 109
-0.0535679 0.0801329 2.92748 80 116 92
-0.138173 0.0818999 2.78231 93 124 93
-0.111901 0.0898169 2.84876 182 222 197
-0.377631 0.0730399 2.23888 133 170 136
-0.166797 0.0886185 2.70752 50 78 49
0.656905 0.144996 4.50891 174 235 197
-0.167038 0.0958232 2.71034 136 167 136
0.52899 0.17035 4.22801 67 97 92
6.18694 0.686452 15.869 137 178 180
-0.392222 0.101032 2.2014 51 52 36
-0.384574 0.109634 2.21275 101 135 124
3.59975 0.540825 10.6078 128 182 177
-0.127622 0.148221 2.82818 56 72 48
-0.315253 0.128393 2.38825 146 195 175
4.15893 0.647957 11.7637 131 179 181
-0.396511 0.130561 2.19054 162 201 180
-0.285133 0.15893 2.4279 186 250 221
-0.359915 0.152008 2.26588 166 253 220
0.837555 0.333136 4.93745 112 162 152
0.448701 0.27937 4.13115 141 217 183
-0.195138 0.180726 2.58442 169 223 188
-0.339399 0.167051 2.31712 92 141 95
-0.216483 0.179103 2.52971 185 249 213
-0.393215 0.165739 2.18853 135 183 155
-0.284423 0.188306 2.40827 62 99 65
-0.253109 0.204858 2.4675 46 85 59
0.439168 0.339451 4.0935 185 246 202
-0.364489 0.192854 2.24541 40 56 32
0.471597 0.367231 4.1567 93 143 109
0.522181 0.377222 4.27772 107 145 133
-0.354307 0.203213 2.27623 150 216 175
0.431522 0.370915 4.0777 153 233 204
0.64122 0.454643 4.55015 102 159 150
0.60981 0.452372 4.48362 78 115 105
0.510577 0.434779 4.2702 90 123 108
0.685622 0.476409 4.65153 174 206 211
-0.301344 0.245233 2.34824 197 255 230
-0.267042 0.252557 2.42056 179 246 209
0.157809 0.322393 3.05603 30 56 33
-0.293917 0.256363 2.3581 75 116 88
-0.269335 0.261586 2.4095 49 131 89
-0.188921 0.28244 2.57132 194 251 218
0.666456 0.506936 4.61123 236 250 255
0.957159 0.584766 5.22349 109 179 156
0.53133 0.487152 4.32173 124 160 154
-0.268577 0.283656 2.4135 103 122 101
0.513126 0.504566 4.28175 80 91 83
7.5615 2.26469 19.129 161 206 197
5.9308 2.11569 15.6891 118 148 153
0.806423 0.726278 4.92086 99 144 147
0.27318 0.508438 3.24024 73 100 74
0.168196 0.538427 3.05206 145 217 194
2.07412 1.38962 7.63796 134 180 174
0.204626 0.598513 3.13003 61 106 90
0.197353 0.60332 3.10892 68 110 93
3.5631 2.13685 10.8455 129 161 156
0.699793 0.965012 4.70616 115 159 152
0.742928 1.02254 4.80019 80 120 108
1.11676 1.23536 5.59775 95 147 140
6.39134 3.98438 16.9602 131 173 178
5.6337 3.77773 15.3547 118 174 163
2.48513 2.3712 8.61355 148 171 187
8.70475 6.31734 22.0492 140 182 194
5.94862 4.67479 16.0923 124 155 170
2.00848 2.49991 7.598 253 255 255
3.41457 3.68181 10.7285 162 188 194
2.78771 3.23168 9.32589 151 164 180
1.53993 2.3486 6.60351 124 164 169
-0.0444334 -1.12846 2.5817 211 225 221
-0.357492 -0.902946 2.08597 75 85 72
2.72303 -3.01781 6.9262 117 155 143
-0.346437 -0.875479 2.12631 55 83 64
-0.465757 -0.814119 2.01225 164 240 206
0.32177 -1.28748 3.113 157 208 181
0.341158 -1.29421 3.15166 78 109 94
2.52928 -2.78333 6.74003 148 165 168
-0.371518 -0.831286 2.08397 77 105 85
-0.305656 -0.867999 2.18203 193 255 233
-0.466294 -0.800226 2.02364 75 128 108
-0.227046 -0.91394 2.31419 62 72 59
-0.326554 -0.842168 2.15447 79 123 100
-0.152974 -0.981968 2.48719 156 196 154
-0.351735 -0.824881 2.1214 194 239 223
-0.306066 -0.845948 2.18823 64 82 65
-0.334205 -0.831441 2.15704 185 248 232
-0.163296 -0.919619 2.47869 142 186 150
-0.414972 -0.746174 2.04621 128 173 164
0.0521924 -0.980614 2.67069 181 223 198
-0.162044 -0.904784 2.48373 172 218 176
-0.249033 -0.832916 2.30802 76 102 84
-0.702842 -0.555576 1.58368 53 107 94
-0.739586 -0.522041 1.5023 179 231 201
-0.358979 -0.762769 2.15053 225 250 246
-0.240729 -0.824727 2.3256 76 101 81
-0.460216 -0.711167 2.03346 106 146 134
-0.165166 -0.865776 2.47572 74 83 56
-0.403064 -0.716573 2.08272 69 85 74
-0.176995 -0.852452 2.45775 64 73 47
-0.340596 -0.748393 2.18699 154 241 208
-0.167273 -0.85497 2.4798 134 150 119
-0.345049 -0.738551 2.1863 22 62 51
-0.645545 -0.544709 1.66972 78 95 81
3.52734 -2.98131 8.77411 167 219 202
-0.366804 -0.705793 2.15201 101 155 142
4.88303 -3.67739 11.0668 119 164 161
4.68656 -3.51158 10.8023 110 163 153
-0.60346 -0.581273 1.85447 190 241 237
-0.588677 -0.578499 1.88226 159 235 194
-0.324925 -0.692104 2.23251 170 246 214
-0.336192 -0.682347 2.22015 37 74 54
-0.590929 -0.570935 1.88785 76 101 91
-0.191764 -0.732108 2.40401 134 188 153
-0.113134 -0.746552 2.50898 104 143 121
-0.590282 -0.543963 1.89707 129 174 155
-0.815709 -0.412246 1.46994 154 195 174
6.35938 -3.97632 13.8906 89 113 101
-0.320177 -0.637982 2.2879 74 129 96
6.03406 -3.79161 13.3025 163 233 193
-0.331443 -0.629635 2.26617 169 249 214
-0.0901567 -0.711523 2.57367 113 157 121
-0.319891 -0.62073 2.29474 161 241 210
-0.47654 -0.541124 2.04074 151 163 141
4.19318 -2.79351 10.2181 97 144 135
3.55704 -2.46763 9.14234 166 229 197
3.13586 -2.24371 8.49305 192 251 231
-0.462807 -0.518223 2.09749 152 195 174
-0.81453 -0.355412 1.47006 138 224 182
-0.62053 -0.45135 1.85446 100 130 125
-0.611938 -0.444629 1.87588 94 149 132
-0.467697 -0.497681 2.09063 174 233 202
-0.808286 -0.333094 1.48374 76 102 88
-0.589126 -0.428508 1.92566 91 140 126
-0.617284 -0.405692 1.86747 62 97 77
-0.433414 -0.476458 2.17951 113 151 133
-0.291862 -0.532054 2.41982 125 197 155
0.774709 -0.962803 4.33863 139 240 195
4.38359 -2.40486 10.8442 83 135 112
-0.155503 -0.555267 2.56688 62 104 81
0.602163 -0.882233 4.02872 201 246 220
-0.60506 -0.40324 1.89634 215 255 249
-0.596216 -0.399465 1.90796 153 210 185
0.746437 -0.931114 4.32566 66 104 74
-0.607089 -0.390915 1.89351 75 116 95
-0.606108 -0.39171 1.89097 85 122 106
-0.472712 -0.428329 2.09976 205 239 228
-0.602829 -0.382503 1.90328 127 173 161
0.0852689 -0.606591 2.95702 106 126 114
0.757178 -0.894308 4.34286 65 121 98
-0.50567 -0.405944 2.04234 109 157 139
-0.473235 -0.418797 2.10926 66 97 76
-0.153419 -0.513451 2.58065 124 182 154
0.601513 -0.821127 4.08093 104 157 118
0.0127342 -0.564886 2.84502 68 92 80
-0.802114 -0.286624 1.49434 161 235 209
-0.542215 -0.386956 1.9853 56 62 39
-0.79219 -0.291049 1.52061 61 79 62
0.0118424 -0.562263 2.86322 99 154 137
15.7024 -6.32692 31.9782 106 137 122
-0.619226 -0.355011 1.88079 146 211 190
0.73606 -0.843987 4.32819 59 108 76
-0.201672 -0.474433 2.48742 198 245 223
0.0519695 -0.561215 2.91852 100 128 128
4.56719 -2.21284 11.4803 82 137 120
-0.604926 -0.35578 1.90134 61 74 60
-0.321252 -0.44552 2.36438 59 123 94
15.234 -5.99646 31.3044 133 172 157
-0.609698 -0.348974 1.88268 73 116 105
-0.0186151 -0.519878 2.80235 187 232 213
-0.439933 -0.39092 2.14442 166 237 197
0.198128 -0.589003 3.19803 141 215 167
0.486755 -0.712545 3.83169 104 131 98
4.38637 -2.08122 11.134 210 255 235
-0.610818 -0.339151 1.89418 158 211 214
0.548383 -0.736382 3.95528 131 193 141
-0.449348 -0.383583 2.12753 70 85 58
-0.473775 -0.371076 2.0804 116 178 142
-0.158394 -0.46292 2.57701 106 144 122
-0.0338489 -0.50166 2.78633 229 255 244
0.202322 -0.583152 3.21657 150 225 179
2.28049 -1.33736 7.31013 129 178 162
0.558678 -0.720938 4.0035 121 149 113
-0.0937745 -0.48365 2.71478 39 71 47
0.0248773 -0.51414 2.89604 107 148 141
-0.439004 -0.369418 2.15237 178 230 212
2.21798 -1.26884 7.21376 154 191 189
-0.519199 -0.342851 2.0229 172 223 196
2.73712 -1.4142 8.18963 113 144 135
-0.50025 -0.341753 2.04954 32 50 37
0.155381 -0.531691 3.13662 159 184 188
0.418404 -0.587216 3.59142 171 217 188
-0.409889 -0.356475 2.22042 25 65 47
2.00776 -1.12677 6.86303 120 144 144
1.25261 -0.869745 5.44184 111 152 145
2.0037 -1.10372 6.85627 106 151 142
3.70758 -1.60694 10.063 148 199 191
-0.474243 -0.320561 2.07645 165 230 191
3.06228 -1.40344 8.85031 119 168 160
0.0677455 -0.462929 2.99544 162 233 213
4.76614 -1.89544 12.0929 134 163 172
-0.0481651 -0.428591 2.80641 159 216 178
0.203329 -0.496491 3.25103 78 92 90
2.93466 -1.33623 8.64087 148 192 191
-0.467419 -0.311664 2.08514 51 80 55
0.256287 -0.492806 3.32985 43 87 100
0.679839 -0.635291 4.23764 105 161 142
-0.404674 -0.325295 2.23897 48 55 40
-0.494574 -0.294471 2.04328 58 74 56
-0.719525 -0.232751 1.67221 64 93 67
-0.272405 -0.339969 2.40944 188 229 198
0.257635 -0.471139 3.33881 156 223 202
0.79372 -0.629717 4.4398 71 91 78
3.13077 -1.29592 9.01764 117 166 164
-0.735323 -0.220465 1.63499 82 103 105
0.201239 -0.446534 3.24146 226 250 250
0.228635 -0.453108 3.29837 70 113 110
0.257994 -0.467826 3.36076 205 255 239
-0.532868 -0.257899 1.98228 129 196 169
0.510398 -0.506817 3.80354 162 236 194
-0.172525 -0.338627 2.61959 77 143 118
-0.739058 -0.205893 1.63269 181 224 243
-0.354659 -0.292354 2.30438 32 40 29
-0.394417 -0.285989 2.26316 130 195 163
-0.041907 -0.364281 2.85341 99 146 114
-0.714184 -0.206709 1.67639 91 127 115
-0.669779 -0.218777 1.76938 75 106 97
7.50343 -2.231 17.4247 135 173 167
-0.0777131 -0.34553 2.78362 188 237 217
-0.481568 -0.249898 2.0766 118 188 158
-0.435433 -0.26382 2.16947 70 106 90
-0.451503 -0.256058 2.13708 169 238 205
-0.0539058 -0.346241 2.83794 75 118 97
-0.535746 -0.232834 1.96135 169 228 190
-0.48152 -0.249095 2.07873 125 195 164
-0.39131 -0.270837 2.25713 109 121 101
-0.494056 -0.234681 2.03707 111 150 118
-0.474671 -0.239626 2.0908 44 65 43
0.0990252 -0.361517 3.10942 60 66 49
2.97812 -1.04765 8.84632 124 181 182
-0.111035 -0.31614 2.7374 88 131 110
0.137477 -0.36453 3.18952 133 207 179
-0.69317 -0.191708 1.72217 67 93 87
-0.497956 -0.230726 2.04213 126 164 136
-0.700236 -0.187391 1.71173 132 157 147
-0.35811 -0.253786 2.29022 115 160 127
0.119711 -0.356717 3.15385 143 198 171
-0.710291 -0.184176 1.68465 159 231 195
0.0808809 -0.341362 3.08301 52 72 53
-0.716504 -0.17886 1.67984 53 79 63
-0.669216 -0.187083 1.77041 81 112 83
-0.360485 -0.242312 2.29373 147 197 167
-0.353588 -0.24687 2.30217 157 218 190
-0.710595 -0.174565 1.68191 65 101 79
-0.429982 -0.223144 2.1719 50 57 42
-0.710072 -0.171608 1.68311 72 95 80
-0.447333 -0.216534 2.13412 57 93 63
-0.46909 -0.206988 2.09654 59 79 50
-0.676235 -0.167115 1.75961 44 81 73
-0.464287 -0.199545 2.09278 94 114 95
-0.431196 -0.205681 2.16198 60 69 56
-0.0734494 -0.271146 2.81531 135 204 153
-0.422978 -0.205266 2.17553 136 199 167
0.138005 -0.305586 3.21856 72 117 98
-0.476548 -0.186646 2.07577 187 234 201
-0.37808 -0.204983 2.25761 171 234 208
0.447916 -0.342779 3.71264 200 243 222
-0.436722 -0.189151 2.14273 54 77 49
-0.693563 -0.150609 1.72118 150 215 183
1.64195 -0.565654 6.33059 98 113 105
-0.619103 -0.153192 1.79213 168 226 202
-0.440964 -0.1768 2.13355 56 107 69
0.117272 -0.269912 3.19839 202 247 221
-0.710435 -0.131523 1.68235 130 204 162
-0.0287901 -0.23038 2.91685 129 171 130
-0.3895 -0.168614 2.22395 103 162 142
-0.710887 -0.124994 1.67465 48 84 54
7.5107 -1.36846 17.8908 129 168 160
-0.706495 -0.118895 1.6731 151 232 193
-0.26793 -0.182744 2.51165 52 53 43
-0.674659 -0.119485 1.74051 106 159 146
0 0 0 123 155 168
1.11393 -0.378709 5.34995 94 149 140
-0.477517 -0.136605 2.07898 58 74 56
-0.293505 -0.164853 2.46879 126 196 165
-0.297196 -0.163198 2.44326 49 78 63
0.138881 -0.218193 3.295 173 231 183
-0.703113 -0.106889 1.693 113 177 142
-0.539038 -0.114136 1.89254 140 168 149
0.155087 -0.207203 3.32509 175 220 187
-0.326823 -0.12775 2.4035 96 154 125
0.00757429 -0.157792 3.01374 49 56 41
1.94154 -0.374893 7.01736 87 141 136
-0.536728 -0.0942199 1.888 44 63 30
0.0453433 -0.157634 3.08368 185 252 221
-0.49809 -0.0954849 1.95149 58 80 56
0.977251 -0.257937 5.09782 126 179 170
-0.15884 -0.130392 2.7315 100 136 124
-0.673611 -0.0785289 1.75183 55 78 56
-0.0396218 -0.132811 2.9102 185 240 201
-0.528811 -0.0813893 1.8909 72 114 89
-0.237519 -0.114135 2.56804 39 56 47
-0.133308 -0.116396 2.81413 173 219 206
-0.00906079 -0.122689 2.96971 62 75 59
-0.0278393 -0.120645 2.94192 41 67 53
-0.411752 -0.0850184 2.23762 180 234 197
1.08032 -0.21042 5.31147 120 172 155
-0.38025 -0.0804502 2.31194 41 72 51
1.51718 -0.230462 6.20663 97 140 137
0.0167524 -0.105101 3.03591 123 139 122
-0.312481 -0.0817973 2.43437 128 170 135
-0.519777 -0.0607302 1.92577 94 164 141
-0.464342 -0.0649373 2.13347 119 145 109
-0.301999 -0.0759153 2.45394 70 99 73
-0.441413 -0.0509708 2.19212 164 193 167
-0.343161 -0.0570871 2.38554 90 105 78
-0.507026 -0.0450056 1.95162 52 108 85
-0.38197 -0.047232 2.29887 82 112 87
