ply
format ascii 1.0
element vertex 1269
property float x
property float y
property float z
property uchar blue
property uchar green
property uchar red
end_header
0.00775734 -0.637342 4.3867 189 237 238
-0.863723 -0.608071 4.23698 98 149 145
-0.772108 -0.611396 4.25061 77 150 134
-0.819111 -0.609534 4.24886 82 152 139
-0.14611 -0.620882 4.36107 149 221 201
-1.00652 -0.56831 4.22086 96 156 148
-0.0387023 -0.588743 4.38819 96 147 140
-0.622502 -0.573091 4.28779 110 171 161
-1.92901 -0.536583 4.0736 152 214 200
-1.83423 -0.533966 4.09423 110 163 154
0.175983 -0.575989 4.42607 85 151 140
0.107796 -0.562188 4.41644 165 225 214
-0.00717406 -0.556715 4.40165 153 228 207
-1.61621 -0.515738 4.12945 179 231 221
-0.83661 -0.525739 4.25937 167 230 214
-1.03222 -0.51975 4.22811 89 149 143
-0.842069 -0.523538 4.265 81 143 129
-1.11916 -0.511455 4.20774 96 162 150
-0.752033 -0.507612 4.27915 96 156 145
-1.82555 -0.48595 4.10405 170 218 212
-1.85662 -0.477224 4.10377 171 223 216
-1.61289 -0.47714 4.13729 94 151 143
-1.32555 -0.478989 4.18032 97 147 137
-0.0769222 -0.498828 4.39278 158 221 201
-0.208159 -0.49289 4.37813 97 158 144
-2.17975 -0.451297 4.06227 102 159 150
-1.84311 -0.452002 4.10736 73 131 126
-0.277649 -0.479616 4.36387 94 154 143
-2.25553 -0.444839 4.05459 79 139 129
0.0764352 -0.467344 4.42738 81 143 127
-0.143816 -0.455737 4.38915 111 179 162
-0.387355 -0.447679 4.35022 87 154 145
-0.0778538 -0.451163 4.40043 100 166 147
0.462509 -0.451185 4.50075 104 164 153
0.137507 -0.430977 4.44073 114 170 165
-0.742752 -0.408879 4.29454 88 161 145
-0.708495 -0.399472 4.30258 159 225 213
-0.695733 -0.395556 4.30617 160 222 206
-0.994955 -0.387882 4.25988 163 220 212
-0.465444 -0.39 4.34499 164 225 215
-2.38129 -0.359132 4.0619 84 138 138
-0.555653 -0.37664 4.32692 89 153 134
-0.67459 -0.354997 4.31935 169 232 216
-1.31009 -0.321743 4.22952 155 212 204
1.75528 -0.35837 4.73483 164 217 203
-0.813706 -0.319426 4.30249 166 226 215
-0.691579 -0.313859 4.32595 169 228 220
-1.08863 -0.307781 4.2643 92 157 142
-0.991242 -0.310254 4.2819 170 233 213
-0.88509 -0.305741 4.30119 169 220 222
-1.88788 -0.282422 4.14965 167 221 216
-2.07987 -0.273736 4.13142 121 146 136
1.78511 -0.313548 4.749 137 175 163
-1.67154 -0.274768 4.18187 173 216 213
-1.58675 -0.275841 4.19761 164 214 214
-1.96708 -0.266094 4.14534 97 157 146
1.87666 -0.302842 4.77856 131 177 148
-0.434136 -0.264629 4.37555 77 156 142
1.85334 -0.283564 4.76732 132 185 171
-2.09899 -0.237 4.13279 124 182 171
-1.55485 -0.23976 4.21402 169 214 218
-0.675464 -0.244645 4.34757 110 175 159
1.67098 -0.265371 4.72942 160 209 193
-1.63163 -0.232418 4.20178 82 142 134
1.84574 -0.262125 4.77574 145 203 198
-0.445822 -0.236101 4.37814 169 226 218
-0.654141 -0.232779 4.35486 80 147 126
-0.271848 -0.236289 4.40559 91 160 145
-1.05207 -0.222233 4.29179 116 163 160
1.83704 -0.240577 4.76663 128 168 157
-0.311421 -0.221046 4.40399 87 149 137
-0.452386 -0.217749 4.38208 167 224 215
-0.220193 -0.21764 4.41761 67 140 124
-0.213733 -0.210519 4.42389 91 164 148
-1.53708 -0.186699 4.22513 75 133 132
-2.16703 -0.168761 4.14757 153 204 196
-1.21051 -0.159961 4.28097 183 227 221
-0.41524 -0.163185 4.40103 169 227 216
-0.0150029 -0.164674 4.46309 114 178 173
-0.315576 -0.161288 4.4103 147 213 201
-1.27933 -0.155282 4.27284 187 230 227
-0.311164 -0.157636 4.41401 82 131 129
1.97835 -0.164323 4.80893 72 117 114
-2.09745 -0.131746 4.17042 101 145 139
-0.547214 -0.133817 4.38519 95 163 146
-0.305395 -0.132645 4.425 86 146 136
-0.489325 -0.127287 4.39819 154 222 199
-0.319701 -0.123935 4.41957 101 149 143
1.32995 -0.128329 4.68382 103 175 153
-0.459183 -0.114909 4.40256 100 173 151
-0.0457187 -0.0977951 4.47161 99 166 161
-0.775048 -0.0808887 4.36482 96 149 146
-0.351978 -0.0818629 4.42157 164 228 209
-2.48897 -0.0732509 4.12102 143 203 185
1.95424 -0.0850971 4.80457 137 195 184
1.27947 -0.0772946 4.6792 108 175 154
1.2444 -0.0741063 4.68048 128 195 180
-0.209625 -0.0703001 4.4391 68 114 101
-0.122225 -0.0708489 4.45729 85 139 126
-2.43534 -0.0627149 4.13698 192 207 203
-0.152367 -0.0647113 4.45764 76 92 74
-0.142212 -0.0641704 4.45612 156 210 181
-0.201585 -0.0599394 4.4417 151 206 187
-0.833433 -0.0510885 4.36564 71 140 130
-0.63848 -0.0503569 4.39009 76 143 134
-0.615313 -0.0486569 4.39149 94 142 136
1.20929 -0.042902 4.67717 104 173 160
-0.566174 -0.0360402 4.40323 108 156 158
-0.539182 -0.0307468 4.41109 120 174 174
-2.44737 -0.0256232 4.14705 124 153 144
-0.596714 -0.0252606 4.40932 83 133 129
-0.120072 -0.0248928 4.47088 98 158 147
0.023422 -0.0179827 4.49744 94 161 146
-1.78976 -0.0142547 4.24436 85 148 139
-1.8083 -0.0126663 4.2455 67 120 111
-0.789556 -0.0114722 4.38285 94 152 151
-0.575714 -0.00649181 4.40993 93 152 148
0.359371 -0.00697142 4.54907 111 165 165
-0.622833 -0.0058572 4.40315 70 130 122
-0.589881 -0.00534944 4.40641 88 152 147
-0.0403677 0.00417599 4.4855 73 149 138
-0.744617 0.0129594 4.3972 163 226 216
1.3337 0.0176737 4.69745 148 228 197
-1.05685 0.0247277 4.35448 88 149 139
0.0965004 0.0654902 4.52069 89 158 145
0.482764 0.0821644 4.59181 103 172 162
-1.19817 0.0856482 4.34669 100 152 145
-1.32671 0.0892106 4.32899 89 140 136
0.0792431 0.0995758 4.52555 83 140 132
0.334947 0.101154 4.57291 83 143 135
0.248256 0.10429 4.55207 170 230 220
-0.767482 0.12372 4.41307 74 137 127
-1.74618 0.137378 4.29726 73 136 120
-1.16956 0.141926 4.3658 76 132 133
-1.19199 0.145954 4.36868 81 142 144
0.758196 0.157657 4.64885 93 154 144
-0.45054 0.166392 4.46648 105 149 148
-2.45419 0.166709 4.22627 184 227 230
-1.10623 0.186093 4.38521 79 129 119
-0.0671691 0.194163 4.5268 154 225 205
-0.878468 0.198366 4.4218 85 130 121
-0.874232 0.202741 4.42191 152 197 188
-0.0963629 0.210238 4.5167 69 129 121
-0.48292 0.209561 4.47532 171 232 222
-0.0980099 0.211654 4.52195 80 142 136
-1.17589 0.2079 4.39046 175 225 225
-0.985315 0.20831 4.40892 90 145 136
-0.760714 0.2173 4.44077 77 137 119
-0.2413 0.220802 4.50776 74 139 123
-0.71092 0.226897 4.44603 149 208 200
0.32766 0.248109 4.59979 91 161 148
0.832326 0.255438 4.67953 170 229 221
-0.667075 0.252652 4.46131 79 135 124
-0.0848282 0.257729 4.53876 112 174 168
0.0635542 0.266821 4.55791 160 234 210
-0.128293 0.270666 4.53213 159 230 210
0.385654 0.277482 4.61124 182 235 225
0.066881 0.278198 4.56544 96 165 145
0.787203 0.285144 4.67174 95 156 146
-0.830051 0.27503 4.44739 113 164 156
-0.00746833 0.288808 4.5623 84 146 132
-0.525971 0.286411 4.49077 61 130 103
-0.713312 0.285742 4.46272 83 141 136
-0.493482 0.293759 4.49704 74 148 130
-0.594561 0.294023 4.47953 89 154 138
-0.717499 0.294907 4.46081 97 147 147
-0.722369 0.300943 4.46398 189 232 229
-0.20835 0.310259 4.53451 87 150 141
0.136252 0.315243 4.57579 163 229 218
0.0201361 0.316334 4.56148 92 161 141
0.279083 0.32334 4.60213 160 230 213
-0.140354 0.327376 4.54343 94 154 143
-1.2418 0.320457 4.40661 89 139 137
-0.525649 0.333863 4.50054 84 149 140
-0.753118 0.331487 4.47107 193 227 226
0.143102 0.341446 4.58637 77 151 139
-0.826636 0.335928 4.46614 79 133 134
0.575754 0.352612 4.65977 95 154 146
0.710444 0.357747 4.67784 95 162 155
-1.00732 0.353271 4.4422 92 149 140
0.142274 0.371521 4.59497 64 139 123
0.192349 0.372537 4.60543 82 143 129
0.225864 0.372394 4.60909 71 139 122
-0.374858 0.369858 4.53025 185 229 230
-0.134151 0.375501 4.55821 68 128 118
-0.895664 0.368933 4.46269 91 148 140
0.268868 0.383665 4.61528 97 152 127
-1.13581 0.379727 4.43755 111 157 164
0.361162 0.395776 4.63382 98 159 145
-1.46735 0.385596 4.40266 86 142 137
-1.451 0.391882 4.40608 175 212 216
0.260473 0.415537 4.62004 77 144 117
0.348867 0.416026 4.64099 101 160 146
-0.116197 0.422061 4.56605 151 194 183
-0.618169 0.419883 4.50631 173 206 215
-0.564745 0.425944 4.5197 166 229 220
-0.0364695 0.432625 4.5831 90 138 126
1.90799 0.46011 4.83447 72 117 121
-1.67851 0.422133 4.38946 76 139 129
-0.242408 0.439332 4.56157 148 219 203
0.42458 0.449139 4.65242 102 171 156
-1.52173 0.436464 4.41813 64 103 112
0.118967 0.459443 4.61498 169 237 212
0.425652 0.469812 4.66274 155 227 205
0.459945 0.478024 4.66913 86 158 138
-0.485702 0.467423 4.53863 159 221 205
0.47085 0.480807 4.67461 77 152 130
0.0776043 0.481958 4.6117 122 175 166
0.458335 0.501541 4.67418 163 231 214
-0.68556 0.485872 4.52034 70 144 132
0.26845 0.520492 4.64624 120 169 171
-0.0879024 0.517249 4.59731 87 160 144
0.785338 0.538848 4.72616 72 132 114
-1.41693 0.509278 4.45045 176 225 227
0.207183 0.530275 4.6398 91 149 138
0.288901 0.533997 4.65207 104 164 158
0.682678 0.554079 4.71736 167 229 213
-0.0210019 0.543569 4.61284 168 220 210
-0.941709 0.539296 4.51411 79 129 125
-0.183248 0.547741 4.59286 144 223 180
-0.191855 0.551454 4.59256 69 125 90
-0.94532 0.543548 4.51623 98 154 149
-2.24587 0.530435 4.36847 171 219 213
0.312402 0.570711 4.67246 155 218 209
0.524285 0.584113 4.69546 73 128 119
-1.23237 0.559567 4.48099 85 145 144
0.617507 0.599997 4.71396 102 164 152
0.457361 0.600982 4.69851 163 223 212
-0.0775287 0.606276 4.61988 176 231 222
0.443509 0.616812 4.69432 115 181 170
-0.397115 0.606635 4.58485 68 142 124
0.350117 0.623774 4.67868 101 150 148
0.485763 0.631128 4.70722 168 231 221
0.0522078 0.625628 4.64185 69 150 131
-1.36466 0.608211 4.48615 68 121 118
-1.54601 0.616544 4.46835 67 128 118
-1.71893 0.614573 4.45186 163 216 207
-1.19652 0.625846 4.5072 164 212 213
-1.75385 0.621822 4.44392 173 219 213
-0.220531 0.647313 4.6135 167 223 212
-0.548951 0.649113 4.58241 154 215 195
-0.0119278 0.66342 4.64729 78 146 129
-1.45829 0.660368 4.49476 77 137 127
-0.109884 0.682057 4.63825 93 131 149
-1.39906 0.665976 4.49886 185 222 220
-0.262502 0.683422 4.621 103 175 162
0.468859 0.696826 4.71915 80 140 129
-0.263314 0.68682 4.63032 97 171 159
-1.50789 0.668109 4.49272 82 130 134
-1.41535 0.671179 4.49561 127 169 174
-1.39297 0.682082 4.50483 174 201 205
0.476382 0.71806 4.72416 82 151 131
0.124458 0.718015 4.67477 94 161 140
-0.131711 0.720725 4.64888 86 141 132
-0.307937 0.719119 4.62672 155 228 206
0.223173 0.737849 4.69257 69 129 95
-1.2539 0.715523 4.54008 111 150 159
-1.75784 0.713543 4.4829 146 203 194
-0.150854 0.738791 4.64438 173 222 208
-1.23002 0.72721 4.53806 191 233 240
-0.235982 0.745358 4.64157 88 144 131
-2.2131 0.717318 4.44611 78 140 128
-0.250031 0.757261 4.63914 86 147 121
-2.31761 0.727783 4.44272 83 141 140
-0.444323 0.758191 4.62475 92 148 137
-0.379515 0.76508 4.63407 80 129 115
-0.0352845 0.771993 4.67466 182 240 216
-0.379234 0.770888 4.63528 94 140 134
-0.053485 0.778628 4.67391 100 161 133
-0.373632 0.773387 4.63388 159 218 198
0.0459514 0.781857 4.67655 159 227 192
0.564217 0.793395 4.74972 88 151 141
0.22093 0.788151 4.70137 77 148 108
-1.98384 0.751201 4.4772 174 218 212
-0.23528 0.779371 4.65325 82 152 129
-0.0672531 0.783594 4.66808 89 149 125
-0.251614 0.785142 4.64683 74 132 108
0.0650616 0.791959 4.68704 63 124 96
0.0862808 0.791672 4.68828 96 148 138
0.617075 0.806383 4.75965 106 165 151
-0.23396 0.790572 4.65044 167 230 210
-0.14432 0.793716 4.66315 95 168 146
-1.84376 0.771778 4.49197 66 97 90
-1.78249 0.773125 4.49697 154 204 192
-0.290265 0.799739 4.64945 96 162 143
0.334119 0.811707 4.72073 153 226 188
-0.103058 0.811955 4.66498 143 208 182
0.0862193 0.815897 4.69175 155 212 214
-1.84837 0.78442 4.49544 182 219 215
0.373405 0.826547 4.7363 81 161 124
-1.75682 0.786429 4.49279 140 165 197
0.00479543 0.819042 4.67891 146 225 182
-0.148019 0.820875 4.66897 76 126 116
0.337849 0.833655 4.73569 203 243 232
0.0104856 0.826768 4.67531 90 175 130
-1.76004 0.798776 4.49141 62 77 123
-0.153506 0.827586 4.66104 156 227 201
0.0214591 0.834742 4.68244 72 141 104
-0.0793676 0.836779 4.67481 160 239 196
-1.91241 0.832193 4.51239 85 140 131
-0.271882 0.866399 4.66737 82 147 131
0.0544515 0.87439 4.6945 66 139 107
-0.891407 0.864899 4.62126 84 139 130
0.149386 0.88553 4.71306 140 216 174
0.499522 0.897872 4.77533 89 160 140
0.0143367 0.888154 4.69819 75 140 125
0.194112 0.895048 4.7232 155 218 192
0.194025 0.895006 4.72309 155 218 192
0.146266 0.899946 4.71917 159 238 205
0.557431 0.912145 4.78007 106 167 153
-0.289377 0.895105 4.67197 95 153 125
0.00963932 0.898586 4.6972 71 139 114
0.0987125 0.903429 4.71518 88 153 131
-0.333526 0.898509 4.67319 78 144 115
0.123726 0.909603 4.72055 111 155 142
0.34598 0.918605 4.75107 60 142 93
-0.00653742 0.909318 4.69453 73 136 110
0.0595037 0.926217 4.7083 154 210 197
-0.0429088 0.92995 4.69529 93 132 134
-0.0431681 0.93424 4.70573 93 135 134
0.152308 0.938292 4.71946 155 219 183
0.170633 0.940588 4.73195 158 228 188
-0.58092 0.930399 4.6671 90 152 134
-0.0775749 0.937735 4.69721 161 219 208
0.181669 0.945601 4.73479 69 123 93
-0.303391 0.936457 4.67889 102 172 142
-0.257758 0.942021 4.68922 94 139 136
-0.40326 0.941776 4.68477 91 150 130
-1.5754 0.924586 4.58335 171 218 215
-0.0164953 0.948948 4.70467 177 220 223
0.14953 0.956999 4.72513 85 152 125
0.0595503 0.957683 4.7214 110 173 163
0.113298 0.959395 4.72581 133 210 183
0.166837 0.970323 4.74551 165 223 205
-0.187333 0.963775 4.70054 102 138 154
0.386063 0.982597 4.779 63 145 102
0.253948 0.981753 4.75552 83 172 139
-0.0195812 0.972413 4.70651 67 124 103
-0.267507 0.972274 4.69697 120 167 158
-0.105603 0.972771 4.70154 76 168 155
-0.286971 0.975388 4.70201 103 167 148
-1.31631 0.963155 4.60999 171 228 220
-0.529399 0.980799 4.68445 79 127 129
-0.160687 0.992823 4.70862 65 124 109
0.0583348 0.996028 4.72258 90 159 148
0.140384 1.00117 4.74159 84 134 124
0.340462 1.01014 4.76828 128 182 147
-0.232858 0.997242 4.71082 66 124 106
0.14563 1.0098 4.75556 164 220 207
0.46737 1.01854 4.79506 82 155 123
-0.443702 1.00124 4.70481 143 198 181
-0.217896 1.00307 4.7107 78 143 117
0.0590488 1.01608 4.73706 169 213 214
-0.105195 1.01362 4.71563 144 214 191
0.0632548 1.02085 4.73736 84 126 139
-0.105591 1.01868 4.71377 66 135 114
-0.417132 1.02035 4.70769 76 150 120
-0.149846 1.02064 4.71018 166 224 213
-0.0952683 1.021 4.71553 74 116 109
0.0374583 1.02393 4.73002 112 143 142
0.0146203 1.02958 4.73629 109 155 163
-0.649441 1.01861 4.68342 101 167 155
-0.185834 1.02829 4.71933 89 176 142
-0.130867 1.0262 4.71738 71 139 132
-0.259662 1.02796 4.7165 159 225 214
0.0199416 1.03182 4.72935 147 200 191
0.0539001 1.03497 4.73596 85 138 135
0.16721 1.04563 4.7627 114 168 163
0.0396592 1.04128 4.72893 145 208 182
0.0417186 1.04222 4.73112 142 194 176
0.129625 1.04553 4.75157 103 141 153
-2.0105 1.00862 4.56839 171 226 217
0.305571 1.06355 4.7891 72 134 110
0.428922 1.06812 4.80868 82 169 133
-0.487971 1.05381 4.71484 143 202 174
-0.303769 1.05726 4.72469 74 162 122
0.121344 1.06353 4.75092 148 214 195
-1.03288 1.04532 4.66733 93 137 136
0.0716449 1.06175 4.7358 138 212 170
-0.00264395 1.06356 4.73459 68 126 102
-0.241604 1.06711 4.73149 88 152 133
0.110282 1.07272 4.7581 147 205 180
0.110667 1.07263 4.75789 147 205 180
0.121791 1.07331 4.76414 77 131 108
0.26516 1.08409 4.77986 82 137 128
0.326087 1.09077 4.79797 88 151 125
-0.0592842 1.07829 4.73773 58 98 110
0.0860515 1.08138 4.74898 58 121 95
0.116707 1.08625 4.76333 89 148 128
1.08494 1.11341 4.88028 111 180 165
0.304052 1.10246 4.79378 154 237 199
0.155051 1.09743 4.76048 73 134 100
0.20847 1.10127 4.77297 164 222 194
0.240947 1.10458 4.7814 86 129 118
0.104914 1.10211 4.76196 78 140 122
0.232307 1.11449 4.78628 84 138 125
-0.465336 1.10332 4.7276 74 147 121
0.533808 1.1299 4.83707 94 153 133
1.1728 1.1427 4.89803 92 155 145
0.161575 1.12309 4.78721 93 155 141
0.208464 1.12483 4.77995 173 241 206
-0.252875 1.11688 4.74713 111 168 170
0.213841 1.13246 4.78771 109 154 135
0.12896 1.13214 4.77303 186 227 222
1.16813 1.16298 4.90338 71 147 113
0.209868 1.14304 4.79697 157 212 195
0.29198 1.14505 4.80707 166 219 209
-1.06919 1.12068 4.69132 183 230 228
-0.232241 1.13488 4.74756 96 144 148
-0.219043 1.14135 4.75948 90 136 144
0.104751 1.14426 4.77088 100 159 144
0.0688043 1.15553 4.77415 144 196 186
0.377639 1.16742 4.82591 156 229 191
0.151853 1.16132 4.78982 79 138 123
0.526373 1.18057 4.85071 159 222 206
-0.184203 1.16026 4.76141 162 223 213
-0.547425 1.15518 4.73681 175 224 216
0.300189 1.17678 4.81528 91 156 130
0.304298 1.17914 4.8229 75 135 111
0.12686 1.17602 4.79475 159 193 187
0.045139 1.17593 4.77378 95 158 142
-0.662069 1.16813 4.73558 93 150 142
0.0777663 1.18398 4.78119 143 207 178
-0.992069 1.16746 4.70799 173 223 219
-0.139705 1.18403 4.77254 81 143 131
0.00360908 1.18435 4.77142 93 126 122
1.37965 1.22547 4.93631 82 152 121
0.125251 1.19241 4.7953 75 132 123
1.25377 1.22747 4.92711 113 162 154
-0.332267 1.18769 4.76364 106 170 141
-1.06782 1.17742 4.70711 101 162 152
-0.0223231 1.19442 4.77216 119 155 165
-0.164135 1.19596 4.76897 154 224 211
0.0450794 1.20156 4.78857 79 136 121
-0.588991 1.20144 4.75543 169 230 220
-0.436728 1.20733 4.7669 147 208 194
0.156931 1.21953 4.80993 158 231 199
0.429085 1.23177 4.84499 169 226 205
-1.15404 1.19845 4.70766 103 146 149
0.0656601 1.22021 4.79117 97 146 132
0.0581176 1.22247 4.79046 140 189 167
0.304198 1.2326 4.83155 169 239 203
0.270638 1.23323 4.82702 148 217 172
0.421387 1.24289 4.85504 78 133 114
-0.130358 1.22473 4.76925 160 228 203
-0.090536 1.22839 4.77565 88 151 131
-0.268014 1.23119 4.77766 147 205 194
0.0138499 1.23247 4.78394 151 208 169
-1.68007 1.20621 4.67503 137 203 192
-0.2382 1.22945 4.76923 171 226 211
0.0138497 1.23638 4.7923 127 170 133
0.228643 1.24938 4.82764 111 158 156
1.4966 1.2841 4.95884 107 160 146
0.0041776 1.24038 4.7828 129 179 149
1.17283 1.27716 4.92806 86 160 126
-0.114612 1.24123 4.7816 96 143 135
0.0160517 1.25723 4.7985 124 193 166
0.0430683 1.26166 4.80092 100 162 138
-0.133662 1.25988 4.78639 110 154 147
-0.0632945 1.25942 4.78766 82 133 125
0.032805 1.26482 4.80224 110 154 141
1.30663 1.30413 4.94887 81 148 127
-0.0501166 1.27629 4.79783 179 213 202
0.31482 1.2881 4.84591 78 130 107
1.08379 1.31892 4.93737 92 168 134
0.0834975 1.29187 4.82079 85 148 122
-0.0400171 1.29415 4.80916 125 181 158
0.0471336 1.29401 4.81136 141 206 184
-0.106503 1.29403 4.80101 59 125 106
-0.0201057 1.29427 4.80216 101 145 138
0.170397 1.30983 4.8434 110 162 152
-0.0484365 1.30575 4.7968 84 139 112
0.199494 1.31916 4.84675 101 162 142
1.40346 1.35685 4.9671 85 151 132
0.0420197 1.31753 4.81848 167 230 204
-0.0476864 1.32106 4.81464 90 165 119
0.344808 1.33634 4.87258 62 150 110
-0.281307 1.32721 4.79409 83 141 146
-0.0759069 1.33935 4.81478 88 162 132
-0.307729 1.33967 4.80333 63 118 131
0.342709 1.36925 4.88493 82 146 124
-0.27488 1.34637 4.79922 72 126 127
0.832181 1.3884 4.93621 154 226 196
-0.114909 1.36074 4.81628 148 224 183
0.485313 1.38674 4.9089 99 166 151
-0.246024 1.3582 4.79752 92 146 147
-0.237215 1.35827 4.79959 154 210 191
-0.280839 1.3607 4.79148 163 218 225
-0.146593 1.3728 4.82042 57 113 94
-0.435236 1.37833 4.82263 79 132 118
-0.222572 1.37441 4.80682 136 172 158
-0.176251 1.38754 4.81267 86 140 123
-0.173682 1.39752 4.81709 151 210 189
-0.197966 1.40275 4.82303 141 191 197
0.992465 1.44069 4.95703 86 156 139
0.137431 1.4216 4.87386 92 160 137
-0.267686 1.40414 4.79585 103 146 161
-0.140491 1.41446 4.83579 155 229 201
-0.589456 1.41306 4.82246 145 216 196
1.44725 1.46563 4.99157 96 156 132
-0.218724 1.42482 4.81539 87 139 132
0.0115965 1.44075 4.86259 130 206 165
0.278391 1.45832 4.90871 89 142 122
-0.264621 1.42382 4.78696 167 210 227
0.13498 1.44959 4.87798 144 193 171
-0.234638 1.43349 4.81658 162 210 216
0.274423 1.45806 4.90097 159 204 187
0.128438 1.45362 4.87789 68 127 106
0.128994 1.4541 4.87884 77 136 115
-0.192384 1.44562 4.83995 62 94 113
0.0826888 1.46644 4.87915 161 226 201
-0.117211 1.46288 4.84875 89 142 129
-0.891948 1.45562 4.81851 76 130 123
-0.424672 1.46403 4.8438 79 151 138
-0.136122 1.47258 4.86535 78 137 123
-0.173356 1.47182 4.84771 87 121 137
1.08164 1.51535 4.98773 87 152 126
0.274999 1.49615 4.91609 85 162 125
0.229635 1.49785 4.9136 155 219 184
-0.00169815 1.49152 4.88152 84 150 131
-0.0943681 1.48863 4.8703 76 152 111
0.0530869 1.49424 4.88917 93 160 131
-0.171128 1.49523 4.86103 177 237 213
-0.342615 1.48895 4.83422 142 215 223
0.258022 1.51702 4.92079 75 148 116
0.2592 1.51689 4.92054 83 155 125
-0.313206 1.49554 4.83337 66 113 157
-0.534284 1.51549 4.85881 136 215 202
0.116003 1.5346 4.90875 74 132 107
-0.785474 1.51917 4.84952 77 134 125
-0.468688 1.5248 4.86172 81 145 133
-0.307303 1.52107 4.84317 119 157 205
0.100737 1.54511 4.91896 107 162 147
-1.05985 1.5204 4.83698 62 118 97
0.283782 1.56137 4.9343 169 212 209
-0.295136 1.5429 4.85452 84 130 164
1.25415 1.60598 5.03564 97 162 137
0.236369 1.57988 4.93668 156 212 199
-0.417602 1.56833 4.8887 101 156 161
0.0789493 1.58135 4.92021 91 147 126
-0.591017 1.57242 4.87496 98 149 142
-0.129807 1.58727 4.9056 69 138 123
0.080917 1.60041 4.92968 73 147 111
-1.04802 1.5992 4.8643 75 135 127
-0.542408 1.64408 4.91024 64 126 112
0.0802677 1.69173 4.95931 155 219 190
-0.368175 1.69421 4.93532 59 116 107
1.1788 1.74933 5.07116 96 153 132
-0.109418 -1.8164 4.26428 104 154 150
-0.151564 -1.80857 4.26069 92 154 142
-1.21358 -1.68158 4.00493 103 157 152
-0.87364 -1.7113 4.0881 92 151 136
1.9918 -1.95392 4.72377 90 150 140
-1.30402 -1.6446 3.9904 167 226 218
-0.797586 -1.65317 4.11572 105 159 146
-0.336207 -1.69153 4.21169 95 154 139
-0.903575 -1.63732 4.08746 127 174 171
-0.201281 -1.6984 4.24442 123 162 170
-0.893759 -1.62733 4.09176 197 238 231
-0.533008 -1.65698 4.17007 101 161 143
-0.15751 -1.69128 4.2643 108 161 158
1.79561 -1.85787 4.70442 242 255 251
-1.16847 -1.59352 4.0426 187 231 224
-0.00346605 -1.69128 4.30475 109 162 149
-1.27237 -1.57594 4.02394 200 237 235
2.56652 -1.89536 4.87889 132 175 160
0.675342 -1.71547 4.44802 127 181 174
-0.231481 -1.63484 4.24008 110 156 157
-0.657689 -1.59708 4.15391 109 168 154
-1.32251 -1.53784 4.01708 165 226 212
-2.13522 -1.46382 3.84654 154 198 192
-0.166139 -1.60752 4.26662 112 160 166
1.82492 -1.76522 4.7094 117 192 184
-0.256424 -1.58623 4.24057 120 174 174
-1.11486 -1.51249 4.06728 116 160 161
-0.853968 -1.52526 4.12254 108 160 153
-2.03528 -1.42646 3.86993 93 141 135
1.7885 -1.73003 4.7013 232 254 252
-1.70487 -1.44788 3.94731 240 255 255
-1.9885 -1.42492 3.88449 157 199 198
0.493692 -1.61089 4.41078 213 246 249
-0.0131404 -1.55939 4.29534 84 158 140
-0.353187 -1.53328 4.23051 117 172 155
0.590316 -1.60742 4.43293 172 224 224
-0.949342 -1.48765 4.11249 133 184 186
-0.106207 -1.54 4.2704 158 189 192
-1.05783 -1.4653 4.07564 123 160 174
-1.60117 -1.41753 3.96695 187 223 231
-0.127548 -1.52792 4.27913 118 168 158
-0.54623 -1.49688 4.19799 125 162 160
-1.90073 -1.35378 3.9064 82 130 131
-0.902819 -1.42033 4.11672 122 158 164
-0.846789 -1.4135 4.13242 125 174 172
-0.114504 -1.46993 4.29687 131 181 171
-2.33952 -1.28518 3.76324 155 187 168
-0.24827 -1.45336 4.26643 104 163 149
-0.0993204 -1.43383 4.30721 134 179 170
0.438591 -1.45257 4.41491 130 170 182
-0.463747 -1.38522 4.22267 119 161 160
-2.17312 -1.26363 3.84749 100 137 127
0.282424 -1.43705 4.3847 131 174 177
2.798 -1.61533 4.93223 171 214 193
-0.183065 -1.39157 4.28617 118 175 167
1.67521 -1.51596 4.66669 112 165 175
-1.31481 -1.30879 4.03632 166 218 211
-0.789599 -1.34628 4.15113 129 167 171
-2.20661 -1.24862 3.8497 81 108 104
0.803274 -1.44157 4.4862 130 197 182
0.0626637 -1.38387 4.34663 109 158 150
0.30704 -1.39563 4.39914 126 168 167
1.82907 -1.49106 4.69632 133 187 187
-1.19866 -1.28676 4.07165 168 224 229
-1.02931 -1.29352 4.10597 93 144 147
3.09345 -1.56476 4.99125 116 163 154
0.0928041 -1.35797 4.34831 106 166 156
-0.64676 -1.3001 4.18738 172 222 218
-1.9314 -1.18913 3.92508 181 222 215
0.629112 -1.34564 4.47312 91 145 128
-1.51969 -1.20465 4.01011 169 227 216
0.447385 -1.32401 4.42765 99 156 141
-2.31953 -1.14824 3.8593 103 163 155
1.64452 -1.3879 4.65982 113 167 160
2.98838 -1.4754 4.96752 144 174 163
-0.645382 -1.24129 4.19136 90 150 142
0.761341 -1.32456 4.5034 117 176 168
-0.182136 -1.2578 4.2899 101 135 148
-0.259266 -1.2484 4.27457 123 159 165
-1.2058 -1.18236 4.07106 93 149 154
-0.176798 -1.24605 4.2918 94 139 150
-0.589854 -1.2181 4.20501 117 162 166
-0.468443 -1.22552 4.22919 129 183 184
-0.568338 -1.21661 4.21123 117 163 171
0.889488 -1.29465 4.53109 127 186 171
1.72046 -1.3353 4.68097 145 190 193
-0.31302 -1.20494 4.26853 119 170 172
-0.210507 -1.2036 4.2858 176 224 225
-0.319077 -1.19264 4.26461 119 144 160
-1.3245 -1.12002 4.0623 181 226 223
-0.545274 -1.16124 4.21406 114 148 154
0.901742 -1.24089 4.52321 96 161 136
-0.673977 -1.14386 4.19188 180 222 221
-0.525936 -1.14228 4.20888 181 220 234
-0.0855101 -1.17369 4.31881 108 157 159
-0.04364 -1.16985 4.32473 95 149 142
0.104502 -1.17408 4.35769 139 186 194
0.0479445 -1.16625 4.3395 116 163 167
-0.519578 -1.13175 4.21572 135 168 184
-0.365688 -1.14152 4.25265 180 234 234
-2.35168 -1.0305 3.87931 166 217 213
0.0916062 -1.14702 4.35585 101 161 150
0.159111 -1.14926 4.37073 130 168 180
-1.64456 -1.05197 4.01268 96 147 139
0.211581 -1.13281 4.38155 130 172 177
1.64254 -1.1998 4.68321 241 255 255
-1.80466 -1.00292 3.98761 182 227 230
0.654368 -1.10093 4.47091 117 156 154
-0.0940748 -1.0555 4.31763 111 146 160
-0.649917 -1.02351 4.202 196 234 234
-0.960403 -1.00878 4.14984 171 227 228
1.81741 -1.14618 4.72095 237 250 252
1.75134 -1.12853 4.71515 243 251 250
-0.519179 -1.00665 4.22869 123 177 170
0.70081 -1.06836 4.48814 221 251 240
0.709615 -1.06889 4.49281 135 174 166
-0.126651 -1.00139 4.31201 118 162 169
-0.360534 -0.984508 4.2683 112 170 165
0.969862 -1.03671 4.54565 134 175 170
0.142771 -0.992162 4.36676 145 176 199
0.263353 -0.991673 4.39169 141 174 193
-0.253727 -0.955818 4.29218 111 158 156
-1.8099 -0.876075 4.01649 213 242 239
-0.733018 -0.915906 4.2027 92 132 137
-0.600911 -0.923277 4.23289 178 232 225
-0.563435 -0.922674 4.23431 122 150 161
-0.33624 -0.931232 4.27896 100 148 142
0.420055 -0.963168 4.42999 119 156 170
-1.81638 -0.860608 4.01252 186 232 226
-0.581866 -0.897694 4.23675 117 169 169
-0.504506 -0.897337 4.24407 216 237 245
-1.03537 -0.869279 4.1628 203 242 244
-0.83404 -0.873255 4.19331 160 212 205
-2.31789 -0.812657 3.93599 92 137 134
-0.661953 -0.86085 4.22159 120 165 168
-0.422387 -0.86529 4.27432 107 168 164
0.420003 -0.895207 4.44649 125 169 168
-0.873459 -0.832274 4.19228 109 168 164
-0.164493 -0.856553 4.32728 138 188 188
-0.481261 -0.829294 4.26796 105 157 150
-0.563872 -0.818801 4.25754 187 228 230
-1.07312 -0.788474 4.16764 103 152 154
-1.08271 -0.785511 4.16462 183 223 221
-1.48712 -0.769668 4.09624 102 155 145
-0.397813 -0.759218 4.28607 118 170 170
-1.5794 -0.702085 4.09608 173 214 209
-0.730163 -0.705072 4.24985 179 232 219
-1.19971 -0.684593 4.16808 94 164 151
-0.541073 -0.691161 4.27806 103 161 150
0.275806 -0.703516 4.42835 104 174 168
-1.18072 -0.639797 4.18229 179 227 221
-0.835176 -0.647864 4.23721 102 162 152
1.94714 -0.700066 4.76767 180 225 229
1.9151 -0.684713 4.75385 177 219 226
-0.863629 -0.608103 4.23664 98 149 145
-0.693171 -0.602416 4.27072 76 150 138
-0.173948 -0.613844 4.35148 111 152 147
-0.906982 -0.577667 4.23695 204 235 238
-1.00675 -0.56817 4.22224 99 162 153
-1.53994 -0.552932 4.13676 94 154 144
-1.14414 -0.542156 4.1999 177 228 224
-0.625613 -0.533466 4.29501 88 130 123
-2.3914 -0.493576 4.02027 89 138 136
-0.665588 -0.516676 4.28138 96 152 133
0.326365 -0.523499 4.46014 106 172 161
-0.653928 -0.492142 4.29137 94 160 141
-0.51056 -0.491059 4.3203 165 234 214
-0.512943 -0.48648 4.31907 88 150 136
-2.18054 -0.450905 4.06624 93 150 141
-0.906402 -0.461199 4.26094 159 220 210
-0.632096 -0.46144 4.3007 91 154 138
-1.80659 -0.427843 4.1212 84 146 132
-0.301651 -0.444643 4.3662 91 153 141
0.298807 -0.447186 4.46711 94 169 155
-0.0114377 -0.440443 4.41699 106 166 148
-0.030263 -0.436899 4.42008 105 170 149
-0.742514 -0.409008 4.2936 95 169 151
-0.689558 -0.409061 4.30837 169 231 209
0.126181 -0.41883 4.44125 166 226 215
-0.522188 -0.406123 4.32889 83 153 136
-0.833217 -0.392242 4.28819 174 229 220
-0.960715 -0.381181 4.26947 179 231 224
-2.38151 -0.359048 4.06245 84 138 138
1.83823 -0.405543 4.76112 162 222 211
0.00453326 -0.373706 4.43612 91 163 143
-0.40909 -0.329122 4.36521 172 235 219
-1.38151 -0.300561 4.22471 74 128 121
-0.971281 -0.299796 4.28874 167 223 218
-1.88796 -0.282611 4.14852 169 223 218
-1.32432 -0.286733 4.23382 71 138 131
-1.27704 -0.282813 4.23728 174 231 230
-1.66973 -0.269247 4.18949 109 159 155
1.63813 -0.299557 4.72156 168 228 210
1.80662 -0.272198 4.75668 154 202 184
-0.675571 -0.244805 4.34289 110 175 159
-2.19545 -0.225464 4.13823 88 149 139
-0.272037 -0.23603 4.40707 95 163 146
1.07747 -0.241628 4.63439 100 165 149
1.66291 -0.238461 4.72819 144 194 176
1.90349 -0.231974 4.7888 117 153 137
0.0201281 -0.210566 4.45663 93 166 156
-2.14322 -0.182169 4.14476 192 232 231
-0.66365 -0.184274 4.35176 98 157 149
-2.19614 -0.156383 4.14911 171 221 219
-2.25066 -0.137464 4.14207 150 210 200
-0.339947 -0.134464 4.41745 97 147 143
1.87029 -0.136516 4.77754 116 148 124
1.89326 -0.136385 4.78628 122 164 147
-0.109672 -0.115209 4.45495 101 169 158
-2.50618 -0.0906264 4.11706 43 80 70
-0.77506 -0.0809699 4.36443 96 149 146
-2.44346 -0.0726468 4.13956 104 137 130
-2.4309 -0.0719344 4.13837 182 224 217
-0.27194 -0.0716897 4.44314 169 222 209
-2.29865 -0.064729 4.15932 156 200 201
-0.17808 -0.067707 4.44869 135 184 156
-2.52618 -0.0562977 4.10881 153 209 190
-0.131909 -0.0561557 4.44652 78 115 99
-0.107991 -0.0559345 4.4662 96 158 146
-0.190458 -0.0531684 4.43529 135 177 176
-0.190147 -0.0492561 4.45364 87 113 143
-2.50715 -0.0411986 4.12533 145 207 183
-0.195457 -0.0429549 4.40558 82 124 161
-0.185666 -0.0418987 4.43205 144 172 226
-2.44739 -0.0255256 4.14748 124 153 144
-0.137701 -0.0169935 4.46805 163 211 205
-2.38909 -0.00804093 4.16952 71 103 98
-0.136202 -0.00649837 4.46763 65 130 109
-2.39086 0.0126261 4.16749 194 227 220
-1.19835 0.085741 4.34706 100 152 145
-1.32755 0.0894947 4.3301 89 140 136
0.334823 0.100472 4.57008 59 126 119
-0.717085 0.122601 4.41778 99 156 148
-1.19648 0.127034 4.35026 88 152 146
-0.887369 0.14667 4.40683 195 231 241
-2.455 0.16687 4.22683 184 227 230
-1.08469 0.19922 4.38664 87 138 130
-0.815949 0.248156 4.44903 170 226 213
0.376245 0.259226 4.60589 87 138 130
-0.0849241 0.257145 4.53665 108 170 164
0.133661 0.317271 4.5807 168 236 225
-0.0245496 0.318443 4.56298 100 170 153
-0.182119 0.330534 4.53736 179 236 228
0.620545 0.343893 4.66223 106 156 152
-0.315657 0.347494 4.53207 70 145 131
-0.289282 0.35572 4.53733 82 154 142
-0.799275 0.354875 4.47225 170 231 227
-0.772417 0.353684 4.47217 178 218 217
-0.699487 0.359898 4.48704 114 174 173
-2.3068 0.344323 4.2947 193 230 226
-0.895665 0.368933 4.46269 91 148 140
-0.302387 0.374885 4.54001 88 157 144
-1.46752 0.385559 4.40254 86 142 137
-0.572483 0.397804 4.51425 64 144 131
-0.399595 0.406721 4.53395 166 233 224
-0.11682 0.421532 4.56434 124 186 170
-0.384011 0.428909 4.54146 68 140 128
0.0395161 0.451581 4.59977 195 235 230
0.117238 0.451391 4.60659 75 151 133
-0.656157 0.444625 4.513 199 237 239
-1.72591 0.44094 4.39141 187 226 224
0.0774964 0.481784 4.61116 122 175 166
0.80356 0.524573 4.7277 117 177 169
0.269034 0.520727 4.64986 120 169 171
0.414338 0.527032 4.66949 71 138 123
0.207035 0.530849 4.64154 93 148 139
-0.551847 0.524491 4.54554 173 232 224
-1.29964 0.524111 4.46885 190 228 233
-1.29679 0.523164 4.46613 191 223 229
-2.24381 0.519146 4.36012 87 120 123
0.345739 0.56197 4.67011 79 143 131
-0.220216 0.556803 4.5873 204 238 237
0.133545 0.57523 4.64073 85 158 136
0.449854 0.599684 4.69002 163 229 217
0.24332 0.601288 4.66229 193 230 226
0.330525 0.601553 4.67735 74 153 140
0.36332 0.605248 4.68002 192 236 235
0.0428647 0.60737 4.63354 186 225 223
0.0176373 0.61019 4.63229 196 243 235
-0.0106041 0.619661 4.63121 210 239 243
-0.25867 0.620601 4.60681 178 231 217
-1.54578 0.616714 4.46884 67 128 118
0.242844 0.65019 4.67859 56 115 95
-1.36898 0.627973 4.49431 181 223 228
-1.39954 0.666498 4.50027 185 222 220
-1.40739 0.67897 4.50179 201 228 232
0.222791 0.736548 4.68905 69 129 95
-1.25379 0.715028 4.53876 110 150 155
-0.0831751 0.732748 4.65419 79 150 123
0.108877 0.741194 4.68004 81 146 120
-1.26778 0.718135 4.52466 203 235 246
-1.24017 0.719252 4.53288 198 229 238
-1.24 0.732247 4.52933 188 226 231
-2.31673 0.727105 4.44097 83 141 140
-0.0383803 0.770077 4.67013 186 241 222
-0.266438 0.774929 4.64462 68 135 98
0.617075 0.806383 4.75965 106 165 151
-0.0748781 0.810053 4.66837 82 151 118
-1.7142 0.791872 4.5133 71 107 101
-0.148518 0.82089 4.669 76 126 116
-1.7353 0.792495 4.49633 121 139 132
-0.164361 0.820771 4.6504 95 160 145
-1.86122 0.797851 4.50176 72 134 122
-0.235432 0.846333 4.66636 85 149 127
0.00468709 0.849112 4.67562 162 239 188
0.0594268 0.857571 4.6951 79 158 117
-0.0914497 0.861206 4.67913 80 150 127
-0.116659 0.863162 4.67517 88 150 136
-0.271994 0.865293 4.66461 82 147 131
-1.73849 0.845126 4.51498 91 110 137
0.172543 0.885717 4.71698 60 127 96
0.497326 0.896107 4.77039 66 133 112
-0.0129042 0.895568 4.69949 171 239 208
-0.332786 0.899225 4.67497 80 147 118
-0.220718 0.901867 4.68243 96 161 145
0.0901513 0.910174 4.71889 89 164 132
0.0906642 0.91164 4.72251 92 167 135
0.0410996 0.929615 4.71359 78 150 130
0.0320121 0.932357 4.70098 159 234 218
0.236141 0.945115 4.74166 62 139 101
0.181984 0.945647 4.7349 69 123 93
-1.1034 0.926516 4.6193 96 147 140
0.175945 0.952205 4.73385 132 222 179
-0.018984 0.949016 4.70549 184 221 229
-0.303329 0.9547 4.69005 159 221 199
-0.198883 0.956546 4.69713 173 245 232
-0.0488007 0.960809 4.69896 47 118 101
0.1666 0.969216 4.74284 165 223 205
-0.0289025 0.966089 4.69886 173 243 207
-0.0269241 0.964967 4.6962 153 218 192
-0.611226 0.965271 4.68103 89 152 136
-0.0906219 0.980804 4.70477 91 166 150
-0.243662 0.992209 4.70188 73 128 111
-0.438944 0.995911 4.70792 90 146 127
-0.111257 0.996934 4.71473 86 143 134
0.320325 1.0124 4.77244 146 218 171
0.363828 1.01264 4.776 127 195 160
0.0526635 1.01019 4.73163 117 159 166
0.183194 1.01833 4.75628 102 154 147
0.0234336 1.02454 4.7344 213 247 253
0.131393 1.02425 4.74433 116 172 161
0.310731 1.03045 4.76991 131 180 152
0.258649 1.06232 4.7828 75 113 85
0.124702 1.06178 4.7608 85 142 133
-0.00266014 1.06175 4.73044 68 126 102
-0.0615412 1.07458 4.72823 59 90 113
-0.0543325 1.07842 4.71618 100 157 149
0.19572 1.08937 4.77441 92 154 136
-0.21422 1.08361 4.73479 88 158 141
0.155051 1.09743 4.76048 73 134 100
0.0766369 1.09878 4.75913 106 173 152
0.26982 1.11169 4.7969 69 118 104
0.245758 1.10955 4.7815 75 132 111
0.267034 1.11629 4.78975 171 233 203
0.160238 1.11731 4.77417 115 177 163
0.53376 1.12986 4.83697 94 153 133
-1.66391 1.08671 4.62672 192 233 235
0.345349 1.12969 4.81052 87 138 124
0.212925 1.13624 4.79998 108 150 133
0.129812 1.13221 4.77238 191 226 222
0.0974182 1.13527 4.76713 172 237 222
-0.221454 1.14032 4.75714 96 142 150
0.0677162 1.15043 4.7744 83 131 132
0.384719 1.16482 4.83726 74 131 106
-0.181703 1.15669 4.7613 106 155 153
0.0790485 1.16495 4.78061 73 126 106
0.259221 1.17511 4.81438 169 231 215
-0.497099 1.16098 4.7452 152 205 192
-0.393573 1.16592 4.75217 109 171 155
-0.0547167 1.17649 4.76226 185 218 237
0.115037 1.18572 4.79477 123 191 166
0.018398 1.18802 4.77675 85 120 116
0.127211 1.19407 4.79834 87 137 133
-0.260898 1.18644 4.76219 48 110 96
0.0340855 1.19154 4.77664 88 125 121
-0.164222 1.19667 4.7705 154 224 211
-1.13493 1.18187 4.70041 97 138 131
-0.446721 1.20371 4.76929 71 123 100
0.272469 1.23055 4.83226 65 132 95
0.00883406 1.21953 4.77042 126 200 166
0.0234713 1.22186 4.77768 122 181 150
-1.24714 1.20336 4.69993 107 160 157
-0.268048 1.23034 4.77584 147 205 194
-0.616295 1.23074 4.75789 90 150 142
-0.0195827 1.25204 4.77785 132 179 153
1.17908 1.29178 4.93059 160 229 192
-0.0638885 1.25958 4.78799 82 133 125
0.0293988 1.26143 4.79352 109 142 135
-0.0352713 1.26447 4.79478 157 227 210
1.50595 1.31536 4.9688 100 152 128
0.142281 1.27744 4.82059 163 235 199
-1.52264 1.25038 4.70481 90 150 144
-0.0406295 1.27171 4.79135 62 98 84
0.334886 1.28846 4.85237 82 133 105
0.092082 1.29112 4.82627 86 141 124
-0.256429 1.28245 4.78523 175 226 236
0.0941225 1.30457 4.82869 90 157 142
-1.22434 1.28092 4.73208 116 162 173
0.0609655 1.30335 4.821 70 142 122
0.16867 1.31003 4.84398 98 154 141
0.0268995 1.30786 4.81654 84 117 103
0.0962665 1.31969 4.83674 91 155 136
-0.0771929 1.31818 4.81057 133 189 176
0.341022 1.33354 4.86713 69 152 114
-1.3616 1.30528 4.73736 82 146 141
-0.360882 1.32207 4.79805 71 109 109
-0.0809195 1.32214 4.80176 59 109 97
-0.0881944 1.32402 4.79997 116 173 158
-0.281678 1.32692 4.79348 83 141 146
-0.0988639 1.33715 4.81238 170 243 203
0.0301592 1.34037 4.82652 84 146 122
0.0373143 1.3461 4.83143 142 230 200
-0.308027 1.33742 4.79649 84 137 140
-0.254705 1.33961 4.79401 166 223 220
-0.159039 1.34517 4.80877 162 225 199
0.0604312 1.35254 4.83944 82 147 115
-0.229234 1.35318 4.8099 77 115 119
0.108352 1.36307 4.8456 91 154 138
0.152783 1.3719 4.85581 56 114 90
-0.237556 1.36035 4.80382 163 219 200
-0.187482 1.36213 4.81001 159 224 198
-0.0690394 1.37046 4.8283 93 159 147
-0.444258 1.37714 4.81622 161 215 198
-0.236997 1.37393 4.79627 170 220 210
-0.862063 1.3801 4.79586 164 215 217
-0.120322 1.39306 4.82809 83 145 127
-0.17423 1.39945 4.82095 153 212 191
-0.0493185 1.40643 4.84207 90 145 112
-0.198373 1.40038 4.81826 145 195 195
0.0954525 1.42899 4.86489 67 152 114
-0.206286 1.42694 4.82397 167 212 215
-0.445065 1.43338 4.83159 75 130 121
-0.265777 1.42754 4.7943 168 215 229
-0.109938 1.44821 4.85564 160 229 214
-0.0103907 1.44992 4.86125 63 148 110
0.299918 1.46399 4.90794 84 145 117
0.21335 1.46557 4.89854 161 225 196
0.140367 1.47134 4.90241 160 229 192
0.310334 1.47641 4.91598 94 155 127
-0.117226 1.46201 4.84704 69 122 109
1.08025 1.51366 4.98438 88 153 127
0.0471798 1.4871 4.89134 80 140 116
0.174901 1.49197 4.90467 65 127 105
-0.43279 1.47547 4.84292 105 168 166
-0.366875 1.47504 4.84111 78 117 155
0.169817 1.49716 4.90156 161 239 202
-0.096817 1.48813 4.8692 74 142 107
0.0512453 1.49424 4.89061 97 164 135
0.125605 1.50101 4.9044 192 233 236
-0.329077 1.48509 4.83633 170 215 255
-0.171083 1.49641 4.86451 179 236 215
0.278776 1.51012 4.91314 79 150 117
0.000585283 1.50699 4.88891 90 155 140
0.216582 1.52134 4.91896 78 143 117
-0.310801 1.50665 4.84523 164 208 237
-0.785649 1.51975 4.85064 77 134 125
-0.468464 1.52601 4.86407 70 136 124
-0.0394941 1.55675 4.9041 99 155 132
-0.289599 1.55157 4.85554 74 96 124
1.17612 1.60617 5.02167 77 140 98
-1.92498 1.53758 4.79003 75 135 129
-0.588491 1.56822 4.86774 96 149 140
-0.586882 1.56822 4.86776 93 146 137
-0.0659105 1.59463 4.91342 97 132 122
0.0635642 1.59995 4.92957 84 147 121
-0.399509 1.6009 4.89183 93 146 136
-1.13055 1.58322 4.84063 178 219 222
-1.06081 1.59698 4.86055 76 144 133
-1.85104 1.5887 4.81176 91 133 132
-0.486375 1.62774 4.90117 92 155 145
-0.381307 1.6302 4.90407 91 157 152
-0.413263 1.66427 4.91934 164 238 208
1.17855 1.74901 5.07057 90 147 126
-0.111281 -1.79453 4.26546 96 164 153
-0.672329 -1.73601 4.13146 96 148 138
-2.06054 -1.61159 3.84165 126 176 164
1.91393 -1.96979 4.72383 117 177 171
-2.04419 -1.59802 3.8409 141 189 190
-1.73169 -1.62739 3.91095 111 156 160
-0.408115 -1.73988 4.19083 116 160 154
0.359167 -1.81686 4.37764 216 243 240
1.00634 -1.8803 4.52571 215 243 243
-1.93743 -1.60601 3.86924 197 232 228
1.0545 -1.88514 4.54295 123 175 165
-0.881742 -1.68167 4.09169 130 179 177
-0.71576 -1.68262 4.12243 103 164 150
-2.14073 -1.53835 3.83269 174 218 212
-0.217327 -1.70364 4.24101 108 149 142
0.365512 -1.75368 4.37578 109 153 146
-1.35311 -1.60071 3.99907 115 154 156
-0.903424 -1.6364 4.08775 127 174 171
-0.359985 -1.679 4.20118 118 159 151
-2.27969 -1.51571 3.80497 178 210 209
-1.74157 -1.55682 3.92284 106 147 150
-0.606536 -1.6473 4.16156 89 157 140
1.8434 -1.85735 4.71838 228 255 251
1.55873 -1.82679 4.65914 218 249 240
-1.27245 -1.57601 4.02442 200 237 235
-1.62509 -1.54227 3.94956 214 239 243
-1.3204 -1.56809 4.01608 146 184 189
-1.18937 -1.57218 4.04068 105 155 143
2.85835 -1.9198 4.93859 125 170 143
2.90393 -1.93424 4.96887 91 118 108
2.56691 -1.89393 4.87836 139 184 168
-1.01516 -1.57604 4.08049 148 186 191
2.64133 -1.89516 4.9027 112 162 144
-1.06843 -1.57076 4.06917 111 161 149
-0.656779 -1.59681 4.15204 109 168 154
-2.11528 -1.47861 3.85012 164 202 196
-0.962461 -1.56888 4.09068 122 145 147
-0.325031 -1.61513 4.21331 107 164 139
2.72138 -1.87985 4.92985 101 152 145
1.91707 -1.79601 4.72764 241 255 253
-1.23353 -1.53333 4.04421 121 170 162
-0.825794 -1.56348 4.12425 139 181 180
-0.318639 -1.5963 4.21816 107 158 144
-0.39305 -1.59071 4.21064 129 186 171
1.7898 -1.77588 4.71173 216 255 251
-1.8813 -1.46946 3.90524 123 162 164
2.45912 -1.82935 4.85601 149 202 169
2.72241 -1.85003 4.92109 159 226 211
0.415394 -1.64805 4.38506 126 180 173
-0.961929 -1.53603 4.09709 101 149 143
-0.588102 -1.5532 4.17446 86 109 125
-2.14415 -1.43035 3.84734 155 189 182
-1.72579 -1.46547 3.94048 148 183 197
2.58908 -1.81867 4.89316 137 192 183
-2.03397 -1.43615 3.86974 165 210 213
-0.655997 -1.54424 4.15897 87 139 129
-0.111867 -1.58953 4.2831 85 137 127
-0.78308 -1.53295 4.1365 200 231 228
-0.757431 -1.53519 4.14412 102 136 129
2.84413 -1.82837 4.93864 131 192 166
-0.854091 -1.52544 4.12396 108 160 153
-0.732088 -1.53405 4.14606 199 234 230
-1.44765 -1.474 3.99608 139 165 179
-1.2233 -1.49455 4.049 139 169 188
-0.682449 -1.52721 4.16105 111 156 153
-1.70305 -1.44737 3.9428 240 255 255
-1.38866 -1.46537 4.00146 138 177 185
-1.95396 -1.42346 3.88935 125 168 171
-1.84367 -1.4335 3.91426 100 152 152
-1.6697 -1.44634 3.95598 121 159 164
-1.90468 -1.42093 3.90051 201 238 236
-0.9815 -1.49306 4.10166 107 161 156
-0.937146 -1.4933 4.10063 127 175 177
0.0212409 -1.56137 4.31453 120 181 171
-2.19196 -1.36491 3.78556 109 137 114
-0.745319 -1.4993 4.15409 102 139 137
-0.105055 -1.53995 4.26993 132 165 168
1.90652 -1.70008 4.71355 124 189 180
-1.68348 -1.4219 3.95519 81 128 125
-1.02559 -1.47118 4.09043 138 161 169
-2.16587 -1.36693 3.82499 114 146 127
-0.14724 -1.5287 4.27746 109 154 137
-1.21571 -1.44385 4.04769 204 234 239
-0.127151 -1.52829 4.28212 112 165 155
-1.88023 -1.39242 3.90984 122 149 159
-1.52772 -1.41855 3.98699 124 172 178
-1.87077 -1.39197 3.91436 189 233 234
-1.03904 -1.4534 4.08675 227 251 255
-2.15867 -1.35839 3.83713 111 142 121
-1.31155 -1.42223 4.03316 219 248 253
-0.140089 -1.51148 4.28446 102 167 145
2.97615 -1.75294 4.97253 114 164 154
2.95657 -1.75077 4.97272 103 132 139
2.97624 -1.75268 4.97993 138 184 172
-1.8812 -1.37124 3.91286 80 117 109
-1.71932 -1.38225 3.94764 89 148 140
-1.04068 -1.43088 4.092 143 185 190
-1.47884 -1.39393 3.99741 175 221 229
-1.43244 -1.39321 4.00671 187 232 235
-1.01066 -1.42094 4.0933 120 171 167
-0.805412 -1.43678 4.1377 123 168 171
-1.33665 -1.39794 4.03362 129 171 176
2.84409 -1.71476 4.94981 155 206 179
-2.18149 -1.31532 3.80587 133 203 180
1.76052 -1.61877 4.68297 119 170 163
-0.90041 -1.41628 4.11286 101 140 149
-1.3845 -1.38412 4.01836 180 222 221
-0.11451 -1.47006 4.29811 131 181 171
0.880463 -1.53863 4.5038 130 178 179
-1.17154 -1.38954 4.07797 121 160 169
-0.20084 -1.45274 4.28434 110 163 153
-2.23147 -1.28635 3.79695 126 151 125
-1.13246 -1.37839 4.0689 96 124 141
2.97398 -1.68208 4.969 93 138 129
0.934282 -1.5223 4.50921 111 169 164
-2.1383 -1.29642 3.85239 80 135 116
-1.04508 -1.37473 4.09495 211 240 247
-2.15802 -1.28698 3.84077 49 95 82
0.161432 -1.45799 4.35976 213 244 243
-2.1974 -1.27586 3.82716 63 108 92
-2.05012 -1.28528 3.85377 138 172 155
-1.03892 -1.36597 4.10152 122 152 171
-0.0602972 -1.4376 4.31226 128 173 170
-1.35893 -1.33988 4.03382 156 214 203
-0.990857 -1.36276 4.10592 133 181 193
-0.633961 -1.3879 4.17802 106 130 154
-0.175617 -1.42653 4.29579 100 156 143
1.78953 -1.55804 4.68735 112 176 164
-1.3805 -1.33134 4.02942 160 221 207
0.439132 -1.4525 4.41423 122 161 175
-0.0914502 -1.41746 4.30959 89 161 139
-0.742003 -1.3643 4.15088 95 149 150
-0.461793 -1.38291 4.22227 117 150 159
0.282308 -1.44233 4.40074 131 174 177
1.20898 -1.49546 4.56993 112 154 159
1.65397 -1.52505 4.65984 248 255 255
0.362696 -1.43947 4.40108 108 170 158
-2.2694 -1.24413 3.81529 97 122 118
-1.18668 -1.32668 4.06517 95 155 147
2.87185 -1.61444 4.94677 76 102 102
-2.25194 -1.2454 3.82003 73 115 108
-2.10632 -1.25945 3.86847 81 127 121
-0.936717 -1.33995 4.11563 204 239 243
0.0964808 -1.41545 4.35057 118 169 165
-2.27393 -1.2447 3.82402 93 126 122
-1.31547 -1.30898 4.03883 166 218 211
-0.80528 -1.34451 4.14998 118 163 166
-0.787961 -1.3466 4.15334 125 164 172
-1.37784 -1.30323 4.03014 172 220 221
-1.34104 -1.30618 4.03579 89 137 131
0.144774 -1.41079 4.35773 99 153 160
-1.67548 -1.28013 3.96635 91 138 135
-0.483389 -1.36077 4.22057 216 245 252
0.0849218 -1.39876 4.34939 112 161 153
2.8907 -1.58686 4.94685 147 205 200
-0.957964 -1.31973 4.12123 97 160 158
0.278644 -1.40448 4.39086 121 159 163
-0.828099 -1.32143 4.14359 112 157 170
-0.681901 -1.32991 4.17892 198 229 244
-0.702992 -1.32536 4.17017 111 153 158
1.87307 -1.49246 4.70041 255 254 255
-0.82273 -1.3095 4.14633 174 210 216
0.208166 -1.38229 4.38197 130 173 170
0.127182 -1.37443 4.35977 103 155 155
-1.86933 -1.2363 3.93431 75 127 110
-1.80935 -1.24051 3.94657 71 131 120
-2.24044 -1.21143 3.86627 85 134 120
-1.84447 -1.23559 3.93827 139 214 193
3.19785 -1.57109 5.011 118 156 150
-0.963392 -1.28596 4.11536 86 146 138
-1.82757 -1.23069 3.94338 83 139 128
-0.742 -1.2988 4.16542 192 234 239
0.241005 -1.36658 4.38525 109 167 162
1.75717 -1.45857 4.6874 137 191 186
3.08532 -1.55 4.98133 148 201 187
-0.64654 -1.30018 4.18852 172 222 218
1.6991 -1.45104 4.67786 230 255 253
0.46612 -1.37434 4.43431 112 162 152
2.82313 -1.52771 4.93786 160 213 193
2.92036 -1.53062 4.94249 127 181 168
-0.578251 -1.28408 4.20564 93 145 138
2.97383 -1.50995 4.95896 132 167 153
-0.512389 -1.27969 4.21578 213 243 248
-0.454722 -1.28183 4.22989 122 162 181
-1.70291 -1.20204 3.97226 109 161 154
-1.93228 -1.18691 3.92726 184 220 214
-0.561856 -1.26619 4.20482 188 229 224
-0.524861 -1.26931 4.21964 102 159 156
-0.484631 -1.27158 4.22553 105 158 155
-1.06691 -1.22758 4.0947 113 146 161
-0.425463 -1.26784 4.23835 126 169 186
-1.1452 -1.21766 4.07904 112 159 156
-1.05313 -1.22328 4.09912 102 128 144
-0.791002 -1.2378 4.15849 137 176 190
-0.455998 -1.26053 4.23725 101 158 160
1.64522 -1.388 4.66108 108 162 157
-2.32096 -1.14839 3.86312 97 162 153
-0.974414 -1.22139 4.12154 119 157 162
1.60041 -1.37865 4.64868 125 183 172
-1.6895 -1.17458 3.96765 181 226 223
-1.52494 -1.18776 4.01084 84 130 124
-1.12641 -1.20676 4.08923 99 164 165
-0.784937 -1.22805 4.16448 222 250 255
-0.359283 -1.24955 4.25481 208 240 253
-0.182409 -1.2578 4.28991 102 135 150
0.700711 -1.31606 4.48778 101 151 141
-1.73704 -1.16277 3.97217 172 231 223
3.01111 -1.45463 4.97341 130 173 164
-1.47503 -1.1751 4.0257 196 236 235
-0.973053 -1.19835 4.11281 115 150 164
-0.378276 -1.23611 4.24938 90 153 151
-1.19411 -1.18358 4.08236 112 156 157
-0.608115 -1.22082 4.20079 103 133 150
0.689109 -1.30145 4.49074 113 174 160
1.74034 -1.35694 4.68757 125 174 158
2.99995 -1.43987 4.96075 146 172 158
-0.934446 -1.19566 4.13834 97 147 147
-0.958089 -1.19063 4.12213 122 177 174
-2.23225 -1.10279 3.87878 175 226 218
-0.312911 -1.20511 4.27188 107 158 160
0.00604028 -1.22307 4.32913 131 163 182
0.825263 -1.27336 4.51745 105 162 147
0.962549 -1.27186 4.54081 106 169 160
-0.290975 -1.19767 4.27844 105 159 159
-0.318109 -1.19199 4.2639 109 141 160
1.69237 -1.30088 4.66116 116 164 165
-1.60808 -1.11604 4.01505 103 159 154
-1.32254 -1.12934 4.05933 178 232 225
-0.755795 -1.15723 4.16937 195 230 233
-0.462276 -1.17856 4.23602 109 163 164
1.69776 -1.30184 4.67596 141 189 190
-0.266729 -1.1858 4.27803 121 166 170
-0.359054 -1.17627 4.25689 196 232 238
-0.773976 -1.14823 4.1679 200 226 232
-0.544422 -1.16068 4.21283 114 148 154
1.45072 -1.27391 4.62415 247 255 253
0.688191 -1.22394 4.48643 111 167 156
-0.525821 -1.14235 4.21068 192 227 240
-0.480536 -1.14649 4.22615 104 143 145
-0.227594 -1.16144 4.2863 121 150 159
-0.524574 -1.14284 4.22464 208 237 246
-0.168551 -1.16341 4.29979 105 156 166
-0.0434771 -1.16992 4.32629 95 149 142
0.582263 -1.20705 4.45944 90 155 134
-1.48226 -1.09161 4.0375 173 232 224
-0.674095 -1.13258 4.18838 119 167 173
-0.618982 -1.13401 4.20296 122 163 165
-0.15458 -1.16316 4.30849 201 236 239
