ply
format ascii 1.0
element vertex 1266
property float x
property float y
property float z
property uchar blue
property uchar green
property uchar red
end_header
-1.5384 -1.40019 3.54503 160 220 209
-0.419143 -1.45125 3.66505 90 126 114
0.223289 -1.46174 3.72796 113 166 152
-1.58615 -1.38143 3.52149 170 234 212
-1.90897 -1.36257 3.48559 123 161 149
-0.702162 -1.41748 3.61616 71 118 109
0.14731 -1.4559 3.72628 162 217 208
0.158123 -1.45971 3.73327 105 157 150
0.223173 -1.45443 3.71948 90 150 140
-1.70349 -1.36497 3.51165 140 209 182
-0.572088 -1.41662 3.65442 125 160 156
-1.20657 -1.38358 3.57543 172 231 223
-0.680268 -1.40493 3.64317 176 224 218
0.0699778 -1.43246 3.71223 105 154 138
-1.64867 -1.35709 3.53005 81 102 94
-0.53267 -1.40912 3.66023 184 217 210
0.931126 -1.45575 3.7781 117 150 143
1.16253 -1.46069 3.79879 143 184 186
-0.404897 -1.40578 3.67233 99 128 119
1.05339 -1.44766 3.78395 113 162 154
-0.723669 -1.37739 3.62498 176 230 217
-0.408602 -1.39622 3.66762 165 216 208
-1.6239 -1.33883 3.53096 174 221 212
0.202852 -1.41304 3.72655 111 152 144
0.734041 -1.42538 3.76757 102 183 150
-1.69356 -1.32754 3.51868 150 215 190
-1.76218 -1.326 3.51902 82 136 119
-1.41823 -1.34258 3.5665 87 131 118
-0.53777 -1.38845 3.67169 179 232 219
1.10145 -1.4217 3.79201 144 197 187
-0.365466 -1.37385 3.6736 125 156 149
0.267324 -1.39471 3.72612 121 161 149
-1.58694 -1.32169 3.5361 100 160 152
-1.49166 -1.32881 3.55821 150 219 209
-0.667415 -1.36 3.63995 163 216 206
-0.531997 -1.36687 3.66895 180 223 210
0.495025 -1.39829 3.75007 80 123 110
-1.51591 -1.31644 3.5488 92 108 97
0.269805 -1.37948 3.73028 113 146 139
0.288531 -1.38298 3.73806 168 203 206
-1.35384 -1.31322 3.56685 125 200 184
0.176503 -1.37147 3.72362 160 223 203
0.498209 -1.38269 3.7497 174 232 208
-0.475274 -1.34592 3.67463 101 134 130
-1.85052 -1.27644 3.49928 92 135 122
0.980802 -1.37924 3.79025 127 161 155
-1.73021 -1.27534 3.53058 71 117 105
-0.381937 -1.3301 3.68127 91 119 113
-0.0802077 -1.33057 3.70632 96 122 109
0.194053 -1.34092 3.73241 105 148 137
-2.02245 -1.24445 3.475 57 112 85
-1.71417 -1.26299 3.53606 111 171 161
-0.0743392 -1.32335 3.70758 78 123 104
-1.79011 -1.24869 3.51783 163 219 198
-1.45074 -1.26576 3.56149 97 128 119
1.03059 -1.34594 3.78449 110 150 138
-1.88602 -1.23972 3.49068 166 231 205
-1.62884 -1.25249 3.53707 70 119 111
0.350798 -1.32194 3.72374 123 164 157
-0.677998 -1.29022 3.65438 98 146 140
-0.652055 -1.29345 3.66227 123 144 146
-1.57782 -1.2533 3.55435 45 83 77
-1.37822 -1.26321 3.58705 109 155 143
-0.484399 -1.29215 3.67649 89 111 106
0.284843 -1.31234 3.74028 124 167 152
0.736248 -1.32325 3.77807 106 148 137
0.947201 -1.32201 3.78818 118 152 141
1.52712 -1.34936 3.8605 131 202 186
0.170639 -1.29773 3.71833 95 121 108
-0.0753252 -1.29593 3.72111 105 161 150
-1.77747 -1.22067 3.52743 159 229 212
0.378664 -1.29971 3.75371 132 172 161
-1.63334 -1.22163 3.54348 102 160 149
-1.18325 -1.23665 3.5909 111 163 146
-0.216905 -1.27283 3.70398 181 228 220
-0.179223 -1.2734 3.70218 103 152 132
-0.680222 -1.24036 3.65797 79 118 103
-0.982818 -1.2176 3.6282 110 152 145
-1.61365 -1.17922 3.53999 83 151 134
-0.21354 -1.23096 3.70998 182 230 224
-1.80684 -1.15859 3.51375 161 214 187
-0.0329456 -1.22768 3.72155 194 247 234
-0.542681 -1.20644 3.67039 213 241 242
-2.09518 -1.13663 3.47329 79 102 97
-0.185612 -1.21844 3.71605 85 122 112
-1.49982 -1.16685 3.56792 86 137 129
-1.77011 -1.1488 3.52753 94 141 132
-1.63247 -1.15562 3.54765 94 151 143
-1.54624 -1.15992 3.55409 90 123 119
-0.793275 -1.18648 3.64747 98 138 126
-1.80463 -1.13902 3.51338 141 193 175
0.284337 -1.2182 3.74888 132 172 161
-1.82475 -1.13594 3.51044 97 157 139
-1.11036 -1.16437 3.60887 82 140 122
-1.92869 -1.13018 3.50432 84 140 127
-1.80798 -1.13335 3.5127 72 127 110
0.911193 -1.22314 3.78848 124 164 153
0.976337 -1.22348 3.79382 133 176 165
1.13242 -1.23068 3.82362 128 169 161
-1.70179 -1.13733 3.53798 130 189 174
-1.49979 -1.14623 3.55921 138 210 197
-1.80736 -1.13139 3.5252 71 134 118
-0.739729 -1.1776 3.66184 98 138 133
0.041503 -1.19734 3.73365 76 122 103
-1.9933 -1.11687 3.49755 59 75 68
-0.794733 -1.16641 3.65029 59 85 72
-1.6977 -1.12657 3.53781 86 141 122
1.04531 -1.2165 3.81619 127 149 155
-1.67316 -1.11913 3.54508 92 142 132
-2.02926 -1.09794 3.48582 93 126 119
-1.98077 -1.1018 3.49891 126 192 173
-0.722574 -1.14805 3.6654 70 113 104
0.317209 -1.17566 3.75971 131 183 159
-1.91978 -1.09523 3.49976 72 102 89
-0.519478 -1.15156 3.68891 217 246 243
-1.51058 -1.11148 3.57784 126 194 183
-1.53411 -1.09702 3.54273 162 221 206
1.09399 -1.19008 3.83032 198 245 237
-1.6625 -1.09855 3.54878 99 139 134
-0.80122 -1.12871 3.65531 120 170 160
-1.70522 -1.09368 3.54127 66 124 113
0.194023 -1.14482 3.71179 193 233 221
-1.91114 -1.07671 3.52036 56 87 78
1.10271 -1.17648 3.83483 182 224 217
1.59484 -1.19255 3.88662 101 165 146
0.309687 -1.15082 3.77318 167 228 214
0.418109 -1.15147 3.76726 73 106 91
-1.98253 -1.06789 3.50561 86 140 127
-1.51048 -1.08075 3.571 155 224 211
-1.12055 -1.09507 3.60939 90 151 141
-0.947775 -1.09765 3.63421 88 140 122
-2.04428 -1.0509 3.48225 145 200 173
-0.921151 -1.09978 3.64439 171 233 217
1.0432 -1.14768 3.81742 183 245 227
-1.64822 -1.06439 3.55043 144 213 200
-1.7554 -1.05209 3.53176 167 236 221
0.483964 -1.12953 3.77488 102 146 129
1.11248 -1.14319 3.82529 94 137 128
-1.8256 -1.04671 3.52236 87 114 110
-1.89935 -1.0412 3.50937 80 122 111
-1.89063 -1.04529 3.51417 131 210 189
-0.963011 -1.07763 3.62672 110 169 155
-1.78351 -1.04827 3.53485 175 225 221
-1.75743 -1.04741 3.53465 161 217 204
0.261886 -1.10744 3.73858 140 225 187
-1.72979 -1.0409 3.53242 171 230 215
0.242324 -1.10106 3.74898 61 116 97
0.986905 -1.12162 3.81349 113 120 115
0.30436 -1.09603 3.75826 95 134 113
0.417455 -1.09952 3.76923 63 111 83
0.338858 -1.1025 3.78539 102 148 126
-1.88939 -1.0174 3.51078 77 138 124
-0.206225 -1.07219 3.71172 103 179 155
-1.62444 -1.02341 3.54508 74 117 106
0.143977 -1.08229 3.75297 88 148 124
0.237969 -1.07468 3.74896 80 137 112
-1.50179 -1.02192 3.57877 201 232 233
-0.850356 -1.04491 3.66182 124 185 175
0.301095 -1.0705 3.75524 164 226 202
-1.91554 -0.991623 3.51578 68 131 111
0.00314872 -1.05188 3.74004 104 163 155
-2.0124 -0.984264 3.50337 156 200 187
-1.99357 -0.983132 3.50468 80 105 101
-1.31253 -1.00414 3.60288 102 175 159
-0.127899 -1.04085 3.73531 98 157 137
0.445136 -1.04203 3.77411 118 176 152
-0.424216 -1.0131 3.69451 175 217 216
-0.363373 -1.01811 3.72805 153 215 199
-1.75043 -0.959668 3.52889 86 115 100
0.293302 -1.0235 3.75401 128 188 157
0.658131 -1.0366 3.80552 92 132 120
-1.98925 -0.9524 3.50994 81 121 109
0.274216 -1.01606 3.75459 83 109 93
-0.365096 -1.00774 3.72731 75 131 118
-1.65836 -0.958697 3.56297 99 149 137
0.316783 -1.01101 3.75962 76 106 87
0.564964 -1.01633 3.79359 98 142 125
0.724935 -1.01485 3.81151 88 136 118
-0.906219 -0.972613 3.65512 152 211 203
0.549931 -0.999696 3.78869 57 83 65
1.02788 -1.016 3.83338 144 177 180
-2.02588 -0.920686 3.50393 133 169 157
-1.48726 -0.937781 3.58131 90 148 137
-0.281199 -0.97816 3.72154 94 150 139
0.312557 -0.990264 3.78803 159 229 206
-1.77383 -0.917103 3.52696 104 139 135
-0.261003 -0.972553 3.72451 102 174 161
1.89187 -1.02281 3.93179 110 188 165
-1.77404 -0.917099 3.52721 104 139 135
-1.69371 -0.917746 3.54602 90 143 130
-0.395445 -0.960521 3.71206 97 156 142
-0.37464 -0.960008 3.71189 92 149 140
-1.57953 -0.908655 3.57068 90 161 144
-0.514588 -0.937002 3.68239 105 160 141
-1.73023 -0.895169 3.55099 147 215 192
-0.0425308 -0.949775 3.75098 158 230 210
-1.97639 -0.88758 3.52275 103 163 152
-1.72034 -0.8947 3.54865 75 133 115
0.768191 -0.961595 3.81494 198 234 228
0.940327 -0.961781 3.82842 211 245 239
0.320763 -0.94362 3.78193 145 212 191
-2.03559 -0.874269 3.50873 83 149 130
-2.02098 -0.872403 3.50667 145 221 203
0.526742 -0.944664 3.79576 177 226 212
0.933756 -0.953702 3.82935 96 145 129
1.08198 -0.952848 3.85186 209 239 240
1.31106 -0.956561 3.88014 116 174 156
0.958108 -0.943315 3.83354 124 178 161
-0.792008 -0.882277 3.66564 173 228 225
-0.225856 -0.900262 3.73539 79 132 123
-0.903171 -0.880647 3.66093 109 169 159
-0.0115605 -0.898064 3.75143 162 234 212
0.207492 -0.897502 3.73522 165 239 209
1.03412 -0.919982 3.82532 88 122 111
-0.104883 -0.891307 3.74648 90 149 135
-1.74649 -0.842912 3.55456 91 148 133
-1.36126 -0.853679 3.60029 105 147 140
-0.849604 -0.865789 3.66246 103 146 135
-0.851448 -0.849594 3.66078 170 223 209
1.11188 -0.897131 3.85474 109 166 151
-0.83779 -0.847599 3.67394 68 132 110
-0.326632 -0.858434 3.72209 60 101 93
-0.690307 -0.84542 3.68633 84 134 124
0.809688 -0.872645 3.82113 141 200 180
0.0399173 -0.8589 3.7626 101 164 144
-1.02533 -0.833689 3.65296 91 153 141
-2.02465 -0.792397 3.51112 82 139 124
-0.0957551 -0.84412 3.76006 89 139 127
-1.33834 -0.805659 3.60345 114 154 149
0.853145 -0.856379 3.83174 108 151 136
1.22139 -0.865467 3.8728 129 178 170
-0.919022 -0.814636 3.66746 89 150 140
0.970528 -0.852688 3.8511 100 153 140
-0.670971 -0.814046 3.68716 167 219 219
-0.301437 -0.814809 3.72793 167 230 220
0.118073 -0.821493 3.76359 90 150 119
-1.01348 -0.791468 3.65499 78 126 114
-0.104003 -0.807467 3.75766 74 117 104
-2.06617 -0.735303 3.51636 86 155 145
-0.0625218 -0.787735 3.7594 132 189 180
0.531173 -0.795643 3.81297 152 216 204
-1.99894 -0.731105 3.51347 95 157 151
-1.39619 -0.740189 3.59804 121 164 155
-0.910649 -0.754831 3.66118 108 168 168
0.905906 -0.791866 3.83716 112 139 135
-1.39797 -0.730271 3.59994 119 182 166
1.80251 -0.80092 3.95221 93 176 151
0.619435 -0.758437 3.82108 152 216 187
-1.96743 -0.691166 3.52993 105 162 154
-0.7323 -0.721501 3.69881 81 137 126
0.442476 -0.733033 3.79154 125 164 148
-0.729698 -0.7068 3.69181 159 219 219
-1.05204 -0.692857 3.65608 93 138 135
-0.861416 -0.697835 3.67382 72 87 106
-0.789306 -0.69704 3.68693 61 83 78
-2.12681 -0.663074 3.50776 59 128 107
0.872709 -0.722258 3.82306 105 140 126
-1.89992 -0.663939 3.52935 51 106 89
0.840791 -0.720678 3.83469 160 198 186
0.41169 -0.711265 3.80027 103 149 137
0.442489 -0.695099 3.78904 88 140 110
-1.52043 -0.65792 3.59873 140 211 184
0.456142 -0.687638 3.79454 82 118 102
0.937136 -0.7026 3.85384 122 158 146
2.15075 -0.709125 4.00727 243 255 250
1.79199 -0.696283 3.96111 101 174 142
-1.50753 -0.625431 3.5921 189 227 221
0.936225 -0.671098 3.86747 97 147 135
1.35599 -0.68169 3.93831 93 163 146
-1.31903 -0.620894 3.60782 144 210 199
-1.40511 -0.614387 3.60638 128 170 163
-0.96052 -0.622521 3.66926 74 136 118
-1.37816 -0.604881 3.59363 175 211 205
-0.91402 -0.619567 3.6777 82 130 124
-1.47273 -0.596151 3.58627 203 240 232
1.86587 -0.660933 3.97146 109 179 149
-1.51118 -0.592223 3.59262 144 196 189
-1.22577 -0.586208 3.62948 176 239 223
0.701635 -0.620229 3.84615 113 147 136
1.86407 -0.635283 3.97553 104 182 158
-1.00493 -0.58294 3.64733 79 127 115
-0.504701 -0.577813 3.62645 73 133 115
1.87766 -0.629468 3.97084 137 211 183
-1.35497 -0.566724 3.58929 179 205 205
-0.380934 -0.566499 3.64086 149 221 199
-1.03405 -0.564689 3.66905 150 216 187
0.100729 -0.581201 3.78586 166 225 210
-1.2166 -0.551232 3.63074 140 203 193
-0.340018 -0.549209 3.64166 100 154 141
0.731419 -0.578879 3.83701 117 160 147
1.93558 -0.602559 3.99439 93 181 151
0.323401 -0.569888 3.80277 58 122 100
0.718628 -0.578782 3.84672 103 144 123
-1.30671 -0.539203 3.62174 93 131 119
-1.2665 -0.535498 3.62619 177 232 223
0.598894 -0.56683 3.83177 203 237 231
-1.43219 -0.524638 3.57169 87 110 106
-0.994172 -0.54048 3.67232 158 206 194
0.309011 -0.556624 3.79289 96 170 136
-1.43983 -0.519439 3.5871 64 87 82
-0.968737 -0.526667 3.67846 67 96 87
-0.956687 -0.526944 3.66622 122 163 158
0.449647 -0.547461 3.81642 85 147 123
-1.37578 -0.512004 3.59208 104 138 132
-0.945026 -0.525621 3.67711 60 100 89
-1.54228 -0.507597 3.57993 58 97 81
-1.0299 -0.514302 3.65545 56 87 78
-0.983373 -0.518497 3.67213 97 121 119
0.450412 -0.537597 3.8186 178 244 225
0.981216 -0.542768 3.87821 120 164 157
-1.44635 -0.498703 3.58412 101 135 125
-0.864931 -0.508753 3.68669 149 201 201
-1.45984 -0.491532 3.58638 184 225 220
-1.39038 -0.489553 3.60379 52 89 81
0.383344 -0.520406 3.81664 99 148 132
-1.22187 -0.490865 3.63539 85 139 126
0.0294176 -0.510858 3.775 200 232 231
-1.19233 -0.485404 3.63791 95 128 114
-0.756562 -0.492634 3.68239 89 158 161
0.401276 -0.50918 3.82738 76 120 97
-0.977958 -0.482459 3.65825 155 232 204
-0.786279 -0.489065 3.68988 205 241 247
-0.193724 -0.487703 3.69879 106 146 128
1.03217 -0.514262 3.88797 99 136 126
-0.859596 -0.481662 3.68664 80 139 131
-0.39519 -0.478761 3.65968 152 206 193
0.36595 -0.500699 3.80514 155 224 191
1.94169 -0.524603 4.00581 95 165 125
-0.840141 -0.480834 3.70258 105 159 160
0.3321 -0.498811 3.81036 152 223 196
-0.993715 -0.470663 3.65158 152 212 194
0.28675 -0.490576 3.80231 83 128 111
0.149871 -0.483328 3.7907 53 102 82
1.74423 -0.508469 3.98179 105 163 139
1.60503 -0.50314 3.96595 118 177 162
1.76569 -0.507139 3.9856 127 177 159
2.03896 -0.509625 4.01937 113 181 146
-1.52135 -0.454314 3.58296 62 85 77
-0.984214 -0.461339 3.65259 167 222 213
-0.729843 -0.462371 3.70328 197 231 244
0.340864 -0.476552 3.80041 136 204 187
-0.983927 -0.454842 3.67118 124 175 168
0.47364 -0.473707 3.82509 97 138 117
0.584624 -0.477479 3.84477 126 179 169
-1.38432 -0.448016 3.62293 81 121 103
-1.29643 -0.446044 3.62529 169 229 219
-0.963312 -0.453286 3.67638 65 108 99
0.456927 -0.471515 3.83704 189 220 223
1.0596 -0.48276 3.89608 118 165 157
1.79314 -0.490965 3.9855 73 146 108
-1.29948 -0.433962 3.62078 63 112 98
-0.760122 -0.44043 3.68694 70 120 126
-0.960722 -0.429991 3.67298 176 234 216
0.358152 -0.442859 3.77823 156 211 184
0.631859 -0.451459 3.85208 192 231 223
-1.28337 -0.421853 3.62839 53 101 89
0.624643 -0.449382 3.85972 99 140 132
0.693596 -0.447231 3.85811 105 132 116
-1.34966 -0.419999 3.63124 156 225 210
0.643472 -0.444502 3.84754 74 109 99
0.517856 -0.439644 3.83179 76 108 97
0.541717 -0.434044 3.83742 152 222 199
0.764905 -0.437541 3.86446 119 167 149
2.08029 -0.451299 4.02533 100 158 129
-1.40796 -0.398706 3.61751 84 109 99
2.00664 -0.438431 4.01377 139 221 186
-1.14248 -0.395571 3.64515 158 216 211
0.183333 -0.414137 3.80794 80 131 117
0.941013 -0.418323 3.871 107 132 122
1.6484 -0.429811 3.97697 122 187 166
0.0377224 -0.403366 3.78849 169 238 217
0.132162 -0.403535 3.8007 94 142 136
0.476321 -0.406472 3.82074 82 119 115
-0.114723 -0.387031 3.72799 89 129 124
-0.103148 -0.39134 3.74683 130 176 177
0.0135864 -0.392657 3.76415 155 232 195
0.60285 -0.397847 3.84495 61 105 88
0.603774 -0.397858 3.84472 89 135 116
-1.4184 -0.371505 3.598 109 127 120
-1.40393 -0.373481 3.62078 81 116 106
-1.35216 -0.372275 3.61872 71 106 92
-0.914238 -0.377641 3.67925 166 228 216
-0.000417679 -0.387017 3.78142 69 118 98
1.0879 -0.399661 3.90406 91 158 137
2.10317 -0.407317 4.03403 123 185 161
-1.33209 -0.365349 3.60985 151 212 202
1.01622 -0.387865 3.8951 102 159 126
-1.40853 -0.354278 3.60989 85 116 107
0.749729 -0.374058 3.86741 112 178 143
-1.16569 -0.349699 3.65025 118 155 153
0.811199 -0.366931 3.8653 108 145 141
-1.27199 -0.33979 3.62162 183 226 217
-1.11671 -0.340902 3.6636 137 195 184
0.497071 -0.354584 3.83641 168 223 208
-1.73166 -0.315825 3.57532 88 143 134
-1.47138 -0.320358 3.60485 70 129 101
0.765135 -0.341993 3.8655 84 135 101
2.32501 -0.352665 4.07133 106 177 151
0.665086 -0.322821 3.8615 111 152 137
2.02987 -0.325092 4.03855 113 184 151
2.1184 -0.313754 4.05876 85 136 108
-0.958902 -0.279306 3.67699 141 191 179
-0.856215 -0.27836 3.68691 89 123 113
-0.81387 -0.279613 3.69713 64 101 93
0.454986 -0.282653 3.83683 196 238 227
-1.72333 -0.264265 3.58514 242 255 254
2.13473 -0.297158 4.05951 112 164 141
2.15682 -0.298152 4.05467 103 179 148
0.485591 -0.278196 3.8366 115 153 141
-1.00978 -0.260809 3.66522 98 135 125
-1.28541 -0.257341 3.62764 120 161 164
-1.94359 -0.245343 3.54814 64 107 92
1.15451 -0.270882 3.92858 90 142 118
0.719422 -0.262045 3.877 103 150 128
2.17709 -0.274697 4.06962 96 162 143
2.18542 -0.275054 4.07213 98 161 145
0.153348 -0.253064 3.81031 82 119 109
0.376845 -0.25599 3.82176 91 146 119
-0.925482 -0.24182 3.68678 153 198 182
-0.835515 -0.240013 3.69611 81 121 109
0.276939 -0.251658 3.82179 132 187 178
0.234276 -0.24416 3.8197 76 102 96
-0.0600713 -0.229928 3.77817 90 146 123
0.71965 -0.237088 3.8859 126 179 159
0.832301 -0.235087 3.88915 184 231 223
2.15469 -0.23414 4.06948 103 169 150
-0.903224 -0.207207 3.69029 68 127 106
0.328397 -0.214483 3.82656 112 148 142
0.789045 -0.21397 3.88396 102 156 126
0.987541 -0.217216 3.91046 92 162 145
-1.23153 -0.20087 3.64138 87 134 118
-0.892742 -0.200437 3.68627 97 171 159
1.11244 -0.214719 3.93346 70 127 96
0.502492 -0.207285 3.83633 78 121 94
0.690763 -0.208114 3.88299 146 235 196
2.27952 -0.220609 4.10009 108 177 156
1.10513 -0.206897 3.92608 170 236 207
0.657992 -0.196511 3.87349 58 108 90
0.733136 -0.197199 3.88014 98 127 102
-0.863072 -0.182767 3.69502 77 131 114
0.389054 -0.190327 3.82239 82 119 99
-0.390909 -0.183091 3.76597 133 227 193
1.85495 -0.196337 4.03243 99 151 127
0.09417 -0.183041 3.81676 158 218 207
1.13455 -0.18583 3.92882 147 227 190
-0.0368882 -0.17676 3.80223 104 145 137
-1.21295 -0.167935 3.64654 69 133 121
0.247264 -0.174388 3.82292 135 186 178
1.98333 -0.186133 4.04658 102 177 149
-0.131589 -0.165859 3.77906 172 234 222
-0.065581 -0.169132 3.7967 84 112 106
1.14406 -0.17563 3.93867 71 133 93
1.26188 -0.176305 3.95391 113 173 162
2.04609 -0.182089 4.06459 97 161 139
-0.77707 -0.159395 3.71156 80 125 109
0.368398 -0.16385 3.82971 92 144 120
0.0684023 -0.157455 3.80068 96 141 125
0.612901 -0.15948 3.85885 114 147 143
0.275459 -0.154636 3.80806 97 149 131
0.616994 -0.155236 3.87824 97 125 125
0.671004 -0.148231 3.88594 96 144 132
0.467943 -0.143566 3.85661 114 154 143
0.493242 -0.14812 3.8543 98 120 115
0.648639 -0.142321 3.87032 81 139 110
-0.405251 -0.13307 3.75727 94 152 141
-0.269322 -0.134479 3.78367 80 144 132
1.96808 -0.145571 4.05488 102 167 141
-1.35274 -0.12657 3.628 90 141 137
-0.156047 -0.131065 3.78625 63 96 89
-0.963705 -0.12198 3.6878 183 229 223
0.570515 -0.116718 3.86228 86 130 107
0.973483 -0.118273 3.91771 117 181 169
-0.290926 -0.107858 3.78418 95 142 126
0.018026 -0.109139 3.80995 89 145 132
-0.110709 -0.106171 3.78877 71 101 90
-0.932826 -0.0968402 3.65841 171 224 215
-0.309736 -0.0937452 3.76788 69 119 107
-0.168397 -0.0917504 3.80512 107 173 161
-0.776318 -0.0893749 3.70611 106 158 148
-0.122646 -0.0830016 3.78525 171 231 223
1.33396 -0.0824557 3.98265 109 170 160
0.0125669 -0.0751213 3.82285 98 167 152
0.158591 -0.0730789 3.83214 72 140 123
-0.370323 -0.0687301 3.76759 156 221 212
-0.185605 -0.0719417 3.78955 110 181 164
0.531129 -0.0550794 3.8587 154 227 195
2.05719 -0.0572506 4.08049 66 142 111
2.19786 -0.0578806 4.10603 116 184 159
2.13465 -0.0532713 4.09967 111 160 138
0.563835 -0.0471278 3.86471 169 205 199
-0.251338 -0.0451035 3.77923 189 230 225
1.22687 -0.046191 3.95278 113 165 148
-0.22866 -0.0375103 3.77657 84 127 112
0.404654 -0.0340061 3.85718 105 156 142
0.143015 -0.0311779 3.82909 109 171 165
2.04115 -0.0319614 4.07084 69 124 97
0.16271 -0.0270133 3.83722 95 142 139
-0.677198 -0.0192522 3.75112 103 145 138
-0.190194 -0.0210782 3.79232 166 225 210
0.43485 -0.0205115 3.86147 88 157 144
0.356707 -0.0122622 3.86511 85 135 123
-1.802 -0.00778998 3.56908 95 146 138
0.103349 -0.00731617 3.81553 93 130 120
0.0601095 -0.00363324 3.81294 54 116 98
-0.304436 -0.000627011 3.76662 160 231 205
-0.173496 0.00328342 3.80144 175 230 211
1.00997 0.00321466 3.92293 89 156 127
0.196435 0.00565575 3.84135 88 150 136
-0.445912 0.0108226 3.76409 164 216 216
-0.436629 0.0111887 3.7594 68 138 125
1.01909 0.0109956 3.95326 102 150 138
-0.668136 0.0199187 3.734 77 130 121
1.02994 0.0240359 3.94336 183 238 223
-0.196065 0.0284161 3.80051 169 217 205
-0.133667 0.025584 3.80722 98 161 145
-1.83075 0.029241 3.56524 64 120 107
-0.173052 0.0421497 3.80236 150 207 199
0.661126 0.0413406 3.89117 109 144 130
-0.0900285 0.0447497 3.80986 87 155 144
-0.176328 0.0489027 3.79437 76 137 123
-0.114289 0.0501289 3.80963 79 126 124
0.21541 0.0517198 3.8538 83 159 147
0.716124 0.0550765 3.90479 112 171 157
0.75652 0.0582547 3.90521 99 150 136
-0.180287 0.0616627 3.80107 178 237 229
-0.211107 0.0645564 3.79628 79 149 136
0.768296 0.0687555 3.92128 83 120 110
0.0597961 0.0709679 3.81069 113 147 141
0.162185 0.0740582 3.83087 155 210 191
1.05401 0.0789231 3.95301 119 184 163
-2.06169 0.0874847 3.53032 68 123 114
0.480626 0.0924292 3.88122 80 129 113
0.466026 0.0959374 3.86394 157 222 213
-1.92908 0.0944701 3.54963 108 160 143
1.19937 0.107912 3.97649 109 171 155
0.194486 0.115263 3.83201 82 135 125
0.711291 0.115935 3.90914 96 156 150
1.14013 0.118694 3.9722 130 184 167
-0.310021 0.116117 3.78962 184 232 233
0.637541 0.120779 3.89397 216 247 244
0.841346 0.122538 3.92932 116 153 145
0.234357 0.119836 3.8524 99 149 139
-1.77984 0.119254 3.57275 93 135 128
0.1242 0.128347 3.83836 111 155 154
-1.93545 0.125912 3.55817 86 117 114
-1.40507 0.128225 3.62861 76 131 122
-0.0349748 0.141971 3.81702 84 149 133
-0.186683 0.150167 3.80043 65 109 92
-0.731431 0.158544 3.73284 168 223 214
-1.93187 0.150764 3.55259 99 136 128
-0.892494 0.158136 3.71195 73 129 116
-0.699795 0.156453 3.73412 161 227 216
0.21631 0.164964 3.85746 122 183 179
-2.05423 0.15863 3.53504 91 145 132
0.391741 0.172904 3.87932 81 153 141
-1.99649 0.165008 3.55183 94 139 130
-1.04323 0.169489 3.68494 96 146 136
-0.946844 0.170932 3.69832 137 188 181
-1.06514 0.184286 3.68251 109 139 134
-0.786673 0.188462 3.7197 51 93 82
0.142009 0.197546 3.8454 87 140 130
-1.10519 0.190983 3.67194 82 141 127
-1.16219 0.196465 3.66397 82 138 127
-0.0716752 0.206481 3.82472 61 108 100
-0.0407298 0.206313 3.83251 137 208 198
-0.715669 0.203605 3.73777 161 227 222
-0.103164 0.216681 3.81633 93 144 136
-0.221395 0.221524 3.79446 157 214 213
-0.0771554 0.225376 3.82248 66 138 116
1.28015 0.234482 4.00495 108 173 158
-0.93717 0.222788 3.70794 140 206 195
-0.138182 0.224564 3.80779 75 131 112
0.529912 0.232626 3.89675 80 142 128
0.708588 0.24389 3.92262 123 159 153
0.750873 0.240245 3.92882 110 135 137
-0.982687 0.230123 3.69808 177 227 223
0.577509 0.24675 3.89998 93 148 129
-0.991884 0.239198 3.6934 98 148 138
0.253342 0.249965 3.86684 69 127 116
0.942313 0.259265 3.95244 190 246 233
2.14087 0.27054 4.14252 104 181 154
-0.972732 0.243312 3.68836 82 100 93
0.836426 0.262892 3.93521 99 135 129
1.36504 0.273694 4.02177 87 148 134
-0.96191 0.25537 3.67549 59 70 54
1.28333 0.279131 4.01248 92 162 145
0.608338 0.276706 3.91522 98 148 136
1.35813 0.282681 4.02174 179 249 232
1.38324 0.290852 4.03097 96 155 147
-0.201617 0.274311 3.80358 72 114 96
8.46871e-05 0.276702 3.83714 95 153 142
-0.941448 0.271552 3.69937 63 88 78
1.36006 0.299001 4.02745 99 168 153
2.0136 0.308599 4.12852 90 164 138
1.08665 0.298448 3.98072 93 164 137
0.525148 0.295093 3.89134 100 121 112
0.885643 0.305319 3.95647 92 165 133
1.31796 0.314626 4.02087 92 165 149
-0.0106083 0.300817 3.8282 73 113 101
1.06705 0.320195 3.99574 78 180 125
0.0321618 0.312518 3.84093 139 205 186
-1.33507 0.309273 3.63946 84 146 128
-0.0283549 0.322749 3.82892 188 230 223
0.445916 0.331975 3.88952 88 109 94
-0.252639 0.33096 3.79824 85 138 124
-0.00909377 0.335981 3.83252 76 128 110
0.450005 0.342994 3.88167 180 225 208
0.0929727 0.347931 3.84665 93 140 131
-0.035932 0.349597 3.81999 82 135 122
0.491971 0.354883 3.8943 119 157 139
0.648783 0.358918 3.92285 99 156 135
0.805747 0.359085 3.93886 163 218 191
0.510403 0.360613 3.90167 173 228 209
1.2372 0.368953 4.01602 73 124 104
-0.0336728 0.358969 3.84019 86 140 127
-0.677354 0.354981 3.75621 87 161 143
-0.341435 0.360645 3.79195 119 152 138
0.744708 0.372934 3.93689 105 175 152
1.32544 0.383357 4.03694 96 173 146
-0.96506 0.365098 3.70532 56 95 79
-0.0197947 0.376387 3.83408 97 166 155
-1.73068 0.358093 3.59131 110 137 128
0.70313 0.390604 3.93384 88 129 121
0.4895 0.389661 3.88265 119 147 134
0.715512 0.395548 3.93724 163 228 212
-1.25874 0.371261 3.64704 149 215 196
0.0580006 0.398866 3.83753 123 179 174
1.60502 0.425504 4.06684 193 255 235
0.738681 0.413703 3.94338 70 90 78
0.791296 0.413906 3.93508 151 213 189
1.34176 0.423937 4.02495 67 115 86
0.594919 0.413632 3.91958 104 147 134
0.826166 0.421467 3.94496 166 228 198
1.71444 0.435605 4.09355 95 151 132
-1.21285 0.399683 3.65443 73 138 113
0.710364 0.429033 3.93184 154 199 190
-1.66522 0.398284 3.60652 104 154 144
-1.40241 0.401531 3.63836 75 117 100
0.360653 0.426206 3.87972 80 125 108
0.497729 0.426139 3.88436 71 100 84
0.725388 0.432086 3.92837 47 82 72
0.73934 0.4321 3.93395 171 223 206
0.80936 0.436629 3.93904 130 187 166
0.838172 0.435186 3.94952 69 115 93
-1.18031 0.408546 3.66652 149 211 193
-0.0449779 0.430206 3.83837 82 134 117
-1.34914 0.415985 3.6507 99 153 136
-0.420687 0.432682 3.78188 109 144 130
0.034583 0.438624 3.85135 96 157 147
1.76851 0.47262 4.1107 73 130 105
-0.0303319 0.443534 3.8363 73 133 122
0.0967237 0.444599 3.86106 92 137 128
0.12007 0.444814 3.86674 99 141 134
1.52649 0.470465 4.05536 162 232 196
1.48691 0.481602 4.04568 105 166 130
1.52644 0.487673 4.06169 90 129 107
-1.39514 0.440428 3.63053 90 131 124
0.679956 0.47387 3.93062 109 153 146
1.71122 0.501119 4.09411 79 136 105
1.63593 0.500788 4.07322 84 150 121
2.07382 0.512876 4.15329 99 164 143
0.364114 0.483937 3.90066 77 156 135
0.428891 0.483075 3.89926 111 184 168
0.950197 0.492872 3.97565 65 108 81
1.0826 0.496403 4.00103 106 163 148
1.39979 0.505589 4.04596 104 171 144
0.625126 0.494125 3.92531 66 127 107
1.70967 0.52336 4.09459 110 166 125
0.91941 0.504592 3.94645 74 126 86
-0.953649 0.477088 3.71189 91 156 141
-0.153285 0.495396 3.82855 156 213 204
-0.113044 0.492768 3.83392 117 170 160
0.216447 0.500501 3.87915 112 166 159
-1.15305 0.473667 3.66375 92 131 123
0.814331 0.512166 3.94464 160 209 201
0.858179 0.517209 3.94363 20 65 32
0.928536 0.520302 3.96693 160 215 188
0.953634 0.522976 3.9769 33 81 52
0.706658 0.52988 3.93035 177 217 212
0.721612 0.526081 3.92119 77 106 103
0.661788 0.537912 3.92715 149 180 177
0.977282 0.549431 3.9836 61 108 76
0.997555 0.561435 3.98638 78 128 94
-0.586987 0.537811 3.76716 106 147 132
1.88678 0.598606 4.12827 108 185 151
-1.03349 0.536728 3.69731 96 168 145
0.379213 0.575182 3.90647 77 140 124
0.921893 0.578413 3.93301 165 209 192
-0.537577 0.559687 3.77318 109 158 138
1.00519 0.594495 3.99441 85 123 95
-1.00021 0.555105 3.70963 77 132 115
0.529468 0.596343 3.92292 74 139 117
0.873054 0.593484 3.92108 71 88 77
0.912323 0.595542 3.91557 199 233 223
0.996415 0.605482 3.97566 112 172 141
1.21107 0.610546 4.00998 61 112 78
0.627999 0.604603 3.92849 93 126 112
1.21544 0.619161 4.02868 76 143 112
2.20332 0.65318 4.20511 92 142 118
0.117736 0.603406 3.87747 91 144 141
-0.708407 0.590784 3.75451 73 146 120
0.766475 0.61975 3.94707 123 195 148
2.25883 0.659239 4.19864 175 245 208
0.679687 0.623712 3.93998 162 213 209
0.949641 0.626003 3.93343 196 236 225
1.15706 0.639023 4.02495 90 160 123
0.7183 0.62733 3.93349 167 244 193
0.738826 0.631605 3.92799 106 185 141
0.775459 0.626418 3.94023 71 88 77
0.821698 0.63153 3.93283 156 230 194
1.46023 0.659387 4.07533 155 226 206
2.11595 0.672046 4.17851 157 237 200
0.1934 0.627405 3.89377 97 150 141
0.529746 0.635143 3.92988 96 178 155
0.626329 0.633994 3.93054 92 122 111
1.03318 0.648994 4.00791 105 165 135
1.09463 0.64999 4.01409 74 116 85
0.214928 0.635732 3.89435 69 144 136
1.29039 0.655219 4.03753 76 143 111
2.14019 0.683134 4.19696 79 127 109
-0.414701 0.623155 3.79751 82 131 123
-1.26211 0.598899 3.6565 108 159 145
0.633063 0.649683 3.93743 93 146 132
0.607458 0.653757 3.94135 74 108 98
0.621764 0.65197 3.93765 158 226 209
0.733411 0.647567 3.9148 131 191 167
1.2147 0.670261 4.02961 85 156 123
1.53709 0.677373 4.07755 156 227 194
0.514524 0.655676 3.93143 114 174 166
0.554151 0.659696 3.93199 100 170 139
1.08596 0.673756 4.0131 104 159 126
2.13656 0.701797 4.18333 97 129 105
0.186522 0.664961 3.90236 163 223 222
-0.518618 0.644927 3.77907 111 141 128
-0.942905 0.652348 3.71628 211 237 243
-0.837028 0.655174 3.72988 160 216 203
-0.550254 0.666965 3.78013 146 207 193
0.364703 0.689489 3.91162 112 167 158
-0.938662 0.665439 3.70397 60 96 80
-1.26093 0.659345 3.67248 82 135 121
1.33156 0.731834 4.06197 93 159 134
1.68158 0.751665 4.12665 92 143 116
-1.6928 0.665368 3.61378 71 101 90
-0.71717 0.689376 3.75265 62 125 99
-1.06316 0.681269 3.69773 100 149 129
-1.70235 0.667457 3.59579 157 234 231
0.279094 0.724535 3.91018 82 144 138
1.84063 0.773979 4.15695 104 181 144
-0.976249 0.694164 3.71724 173 214 209
2.19766 0.787267 4.2158 100 141 120
-1.43634 0.68652 3.63782 88 148 130
0.5319 0.746877 3.94908 100 175 153
-1.21684 0.700993 3.66516 174 221 218
-0.348618 0.736446 3.80728 51 110 95
-0.325149 0.743339 3.81001 71 110 102
0.712066 0.777408 3.95601 81 128 102
1.3456 0.803865 4.08313 103 165 147
2.07938 0.820858 4.19623 82 118 104
-0.32906 0.7548 3.80927 117 190 168
1.49558 0.814253 4.09305 102 178 146
0.510473 0.799836 3.94642 108 164 151
1.97835 0.846325 4.17674 101 172 152
0.699185 0.812555 3.95325 88 167 123
1.79167 0.854835 4.15872 112 186 152
0.537027 0.815728 3.95545 97 140 129
1.51656 0.848943 4.11543 97 170 144
-0.434952 0.791005 3.7899 93 138 129
0.422439 0.823559 3.9391 118 167 151
0.550673 0.825397 3.95585 97 176 157
1.26721 0.873236 4.07517 116 184 167
0.73879 0.858472 3.98289 109 168 154
-1.78662 0.780137 3.60009 87 134 138
-0.361504 0.814214 3.76755 161 218 209
0.629895 0.863456 3.97642 108 180 167
-0.313052 0.819977 3.77241 144 193 177
0.880825 0.888049 4.01465 111 173 159
1.5065 0.910814 4.12274 108 179 146
-0.740652 0.833703 3.76636 76 120 113
1.56434 0.914053 4.13045 82 140 116
1.68607 0.91736 4.15418 98 176 153
-0.22257 0.856279 3.84019 82 123 108
-0.28514 0.8526 3.78628 109 165 136
-0.437738 0.864738 3.78444 94 156 138
-0.512617 0.872614 3.79248 103 176 160
-0.282077 0.875037 3.79543 148 196 184
-0.221856 0.884516 3.83336 137 204 189
1.07151 0.949807 4.05524 102 171 151
0.82925 1.01977 4.02335 87 158 138
-1.76425 -1.56812 3.48317 101 131 118
-0.532029 -1.61949 3.60787 80 129 115
-1.65589 -1.58142 3.52413 95 152 143
-0.536489 -1.62387 3.6332 92 121 112
-0.0580839 -1.6323 3.66919 118 166 148
-0.598701 -1.61307 3.63643 169 231 215
-1.81274 -1.5381 3.50158 73 103 84
0.817895 -1.64646 3.74262 113 156 145
-0.670144 -1.59325 3.63006 161 206 197
-1.31956 -1.53702 3.55451 188 228 223
-1.64038 -1.52398 3.53181 89 139 129
-1.21045 -1.54004 3.56109 186 228 221
0.0131595 -1.5915 3.6874 95 114 105
-0.581862 -1.5545 3.62763 81 112 105
-1.12411 -1.53647 3.58238 105 114 124
-1.82361 -1.49428 3.50976 151 221 185
-1.34614 -1.51084 3.54903 232 255 253
-0.60852 -1.53693 3.61966 159 194 190
-1.2972 -1.50226 3.55539 84 140 127
-1.49799 -1.49089 3.54603 113 165 158
-0.35769 -1.54605 3.66938 114 164 152
-1.68588 -1.47609 3.52729 96 124 111
-1.82359 -1.46208 3.5075 78 117 101
-0.109751 -1.53343 3.67882 100 152 129
-1.93466 -1.43462 3.46198 107 157 133
-1.67693 -1.46087 3.5281 124 186 172
-1.48734 -1.47229 3.55461 82 132 122
-0.548236 -1.51539 3.6468 170 205 195
-0.567419 -1.49436 3.65236 141 194 184
0.158335 -1.52281 3.71556 101 127 113
0.133263 -1.50468 3.70088 131 188 149
0.168767 -1.50583 3.71869 103 158 139
-1.86151 -1.40565 3.49358 156 220 190
-1.57102 -1.4181 3.53496 66 80 76
-0.687397 -1.44954 3.61073 86 105 84
-0.322081 -1.48461 3.68795 94 158 139
-1.21359 -1.43647 3.57616 104 163 148
-1.67677 -1.40973 3.52991 152 224 204
-1.51672 -1.41635 3.54663 98 134 128
-0.593589 -1.45911 3.64721 78 104 91
0.94046 -1.50297 3.76097 106 163 148
-1.96168 -1.38375 3.4643 126 172 159
-0.613332 -1.45179 3.63232 75 85 79
-1.52295 -1.41824 3.56286 99 156 147
-0.313034 -1.46142 3.67792 77 112 102
0.152836 -1.4793 3.71981 93 120 111
-1.57865 -1.39325 3.51515 115 132 121
-0.329061 -1.44988 3.66888 94 149 140
-0.557699 -1.43267 3.64675 132 179 176
-1.90952 -1.36242 3.48385 91 128 118
-0.70368 -1.4194 3.62281 81 134 124
-0.678376 -1.42558 3.64401 102 129 125
-0.210842 -1.44777 3.69593 106 146 134
0.700798 -1.47307 3.7541 129 161 156
-1.55574 -1.38086 3.54208 141 211 198
-0.190468 -1.43429 3.68882 104 122 109
-0.678475 -1.404 3.63485 180 226 220
-0.256402 -1.43225 3.70087 109 152 137
-0.548608 -1.40812 3.65707 78 92 88
0.0706242 -1.4326 3.71358 103 154 140
-1.71239 -1.35996 3.53308 158 217 202
-1.64716 -1.35141 3.52772 84 107 99
-0.683284 -1.39274 3.64002 89 118 109
0.904856 -1.44155 3.76846 201 235 228
1.05443 -1.44786 3.78574 122 166 160
-0.503401 -1.38807 3.65501 103 148 132
0.734767 -1.42915 3.76523 105 185 150
-0.537982 -1.38859 3.67293 179 232 219
-1.77875 -1.31766 3.49715 147 213 178
-1.69291 -1.32742 3.51742 139 205 176
-0.0308074 -1.39979 3.70915 85 116 101
0.24439 -1.4066 3.72618 114 155 147
0.657306 -1.42256 3.78183 185 215 216
-1.41795 -1.34356 3.57026 82 126 113
-1.59023 -1.33049 3.53937 94 142 130
-0.692584 -1.35629 3.6324 189 234 225
-1.89856 -1.29136 3.49026 81 114 100
-1.80951 -1.30031 3.5299 85 112 103
0.152254 -1.3609 3.69265 117 156 141
-1.76606 -1.29894 3.52996 68 106 88
-1.39057 -1.31434 3.57171 84 124 113
-1.35422 -1.31369 3.57264 109 182 166
-1.4092 -1.3048 3.56702 166 226 218
-0.545078 -1.33597 3.65591 76 119 108
0.980649 -1.38381 3.78986 131 157 151
-0.0949935 -1.34822 3.71535 163 225 207
0.773906 -1.36416 3.77726 125 184 170
-1.44876 -1.28412 3.56876 130 178 166
0.25937 -1.33788 3.7292 188 238 228
-2.03596 -1.22421 3.44785 154 206 176
-0.189745 -1.31545 3.70511 108 151 136
-0.457836 -1.30531 3.67765 85 116 101
-1.90121 -1.23817 3.50081 71 110 94
-1.43426 -1.2556 3.5592 121 175 158
-1.37412 -1.26233 3.57478 106 148 137
-0.678092 -1.29039 3.65651 98 146 140
-0.31787 -1.306 3.69455 100 155 146
-2.03027 -1.22862 3.49031 150 214 178
0.061033 -1.31203 3.72185 87 151 139
0.120698 -1.3073 3.71849 121 163 140
-1.63671 -1.23786 3.54069 178 238 228
-0.370057 -1.2984 3.712 123 170 161
1.04155 -1.3291 3.80377 100 126 120
1.08449 -1.33414 3.81033 145 161 173
0.171048 -1.2979 3.72053 92 116 108
0.303182 -1.30291 3.73938 97 131 120
0.464401 -1.30305 3.76162 88 114 98
0.53812 -1.30508 3.76416 115 139 121
-1.82179 -1.21128 3.50786 108 157 149
0.229055 -1.28832 3.72918 101 153 130
1.08667 -1.31192 3.80347 100 128 122
-1.89182 -1.20421 3.51029 77 121 108
0.314318 -1.27215 3.74238 184 229 212
0.36904 -1.27482 3.74459 183 227 226
0.662157 -1.28553 3.76854 150 190 165
-1.18303 -1.21509 3.59327 195 230 226
-0.199115 -1.2494 3.71271 113 149 135
-1.97916 -1.16393 3.48005 70 98 85
-0.544367 -1.23415 3.68684 118 160 159
-0.00244075 -1.24825 3.71089 110 169 155
-0.190378 -1.2344 3.70861 175 223 217
-0.862593 -1.20792 3.64197 91 161 148
-0.713237 -1.21828 3.66322 119 175 164
-0.620887 -1.21545 3.65879 128 161 157
0.712518 -1.25956 3.78387 99 133 122
-1.57527 -1.17658 3.56254 61 98 96
-0.0326574 -1.2278 3.72376 184 237 224
0.787033 -1.24459 3.78169 128 162 156
-1.65881 -1.15953 3.54475 89 139 129
-0.18424 -1.21394 3.70756 74 112 100
-1.45662 -1.16223 3.57264 93 140 132
-0.778837 -1.18544 3.6412 175 231 218
0.453852 -1.22245 3.7619 90 118 105
-1.71577 -1.14416 3.54324 59 105 93
-0.542955 -1.18892 3.69294 117 180 171
-0.737748 -1.17743 3.6592 113 153 151
0.172337 -1.18664 3.69456 134 167 163
0.456602 -1.21299 3.77055 101 122 113
1.13068 -1.23053 3.8207 124 161 157
-0.992089 -1.16102 3.62637 97 130 116
-0.877494 -1.16652 3.64346 187 243 232
-0.28581 -1.1893 3.70839 94 155 135
1.18246 -1.23013 3.83842 88 153 137
0.999926 -1.20928 3.80287 144 179 169
1.04805 -1.2151 3.80596 121 152 149
-1.89517 -1.11406 3.51988 72 98 84
0.417631 -1.19168 3.74977 90 126 114
-1.06375 -1.14157 3.60641 102 139 119
-1.98475 -1.10201 3.50647 132 195 175
-1.25494 -1.13112 3.58972 119 176 173
1.05702 -1.20268 3.81536 176 223 215
-0.621499 -1.15023 3.66793 85 151 140
0.0611369 -1.16784 3.7231 107 165 147
1.49989 -1.2172 3.87631 132 191 177
-1.98748 -1.09562 3.49603 92 144 134
-1.51125 -1.11154 3.58013 129 192 182
-1.45128 -1.10819 3.56356 106 179 169
-0.557526 -1.14959 3.69538 88 139 135
0.360745 -1.17095 3.77141 106 158 140
-1.88773 -1.08226 3.51895 79 144 123
-1.82418 -1.08218 3.51585 77 120 105
-0.780204 -1.13402 3.66704 133 182 174
-2.00725 -1.07765 3.50426 66 122 103
-1.83272 -1.07502 3.51336 40 74 63
1.59244 -1.19231 3.8816 118 178 160
-1.30151 -1.09302 3.59005 79 113 106
1.04436 -1.15735 3.81515 105 126 134
-1.78583 -1.0608 3.52536 95 137 130
-0.375798 -1.10672 3.68848 95 159 147
-1.81388 -1.05416 3.52271 92 137 121
-0.619168 -1.10143 3.67733 115 182 167
-1.75367 -1.05204 3.52906 161 228 213
-1.82574 -1.04672 3.52354 85 112 108
-0.929319 -1.07654 3.63361 100 136 122
-1.99707 -1.02861 3.49518 63 89 75
-1.67708 -1.0446 3.54464 101 128 124
-0.192882 -1.0998 3.72773 100 144 131
-0.642566 -1.07769 3.6749 108 185 164
0.334991 -1.10651 3.77034 106 148 130
0.307627 -1.09737 3.75615 89 130 109
-2.04275 -1.01329 3.47638 114 149 145
-1.34533 -1.03272 3.57669 92 139 131
-0.193186 -1.0762 3.72266 171 235 223
0.14525 -1.08237 3.75795 89 145 126
-1.56697 -1.01799 3.55287 94 158 146
-0.442766 -1.05277 3.68042 112 155 152
-0.588042 -1.04796 3.68508 107 150 139
-0.726124 -1.03456 3.67602 79 117 105
-0.054396 -1.05199 3.74719 65 113 101
-0.582403 -1.02897 3.68826 97 138 123
-0.628119 -1.02585 3.67909 115 158 145
-0.45964 -1.01771 3.69277 135 173 167
0.0683209 -1.03278 3.75247 95 150 133
-0.164806 -1.02138 3.73268 127 170 159
0.0810034 -1.028 3.74837 104 156 138
0.710031 -1.04313 3.80146 104 138 131
1.31904 -1.06074 3.86779 124 179 164
1.85363 -1.07885 3.92629 129 195 160
0.223622 -1.02571 3.76603 100 157 136
-1.99008 -0.952363 3.51206 81 121 109
-0.36435 -1.00722 3.72005 76 134 116
-2.02977 -0.946324 3.49232 177 217 205
-0.587747 -0.993913 3.6729 171 223 216
-1.71031 -0.953424 3.54018 93 125 120
0.351275 -1.0134 3.78656 87 98 96
0.427225 -1.01334 3.77289 107 156 142
0.161796 -0.996076 3.76023 117 166 150
0.262308 -0.998948 3.75438 75 115 97
0.722278 -1.01485 3.80343 77 110 96
-0.456707 -0.972087 3.67635 126 137 134
0.784789 -1.00392 3.80986 112 154 147
-1.48782 -0.937739 3.58336 89 148 134
-0.355232 -0.972723 3.70728 89 123 116
0.842764 -1.00282 3.81243 100 142 131
1.11801 -1.01092 3.8462 92 137 121
-0.39898 -0.96469 3.70971 71 121 109
0.0245298 -0.97304 3.75441 79 144 128
0.793807 -0.977253 3.823 113 158 149
1.0224 -0.978301 3.83296 109 117 117
-1.74223 -0.895153 3.54689 80 111 104
0.756088 -0.965615 3.81845 133 183 165
-2.01902 -0.885109 3.51232 80 132 115
0.784642 -0.95721 3.82159 108 127 130
-1.82286 -0.886354 3.54313 103 155 145
0.0617319 -0.940211 3.75451 118 167 151
-2.03554 -0.874251 3.50909 83 149 130
0.818209 -0.942302 3.84493 112 139 129
-0.565918 -0.897566 3.69314 169 214 218
-1.7472 -0.842816 3.55659 92 154 138
-0.105181 -0.891339 3.74565 91 152 138
-0.910419 -0.8611 3.66244 106 156 152
-1.33277 -0.842201 3.59046 90 129 114
-2.00066 -0.819825 3.5157 100 153 144
-0.0129491 -0.876534 3.74947 68 98 85
1.1158 -0.896835 3.86504 120 195 174
-0.967568 -0.848237 3.65396 97 137 126
0.0105489 -0.873355 3.76164 91 149 138
-0.326345 -0.857419 3.72214 66 108 97
-0.690747 -0.845287 3.68942 80 134 121
-0.89398 -0.834528 3.66316 109 156 148
-0.425142 -0.84208 3.68853 69 121 104
0.44658 -0.862194 3.78762 94 150 129
-1.61629 -0.803272 3.57448 97 144 135
0.151999 -0.843331 3.76377 101 154 140
0.853268 -0.856439 3.82976 129 169 157
-0.878482 -0.816581 3.67667 73 111 99
-0.322384 -0.816014 3.72112 63 94 79
-1.42577 -0.777333 3.60051 66 102 88
-0.104546 -0.807545 3.75643 78 121 106
-0.128786 -0.792293 3.71948 87 115 109
0.969957 -0.817208 3.8517 104 147 136
-1.00014 -0.767401 3.65271 84 130 117
0.738878 -0.805055 3.81716 207 237 238
-2.06569 -0.73528 3.51649 90 158 151
-0.587576 -0.772181 3.66878 97 137 135
-0.0501003 -0.788813 3.76224 92 132 120
-0.0897118 -0.777487 3.74948 67 89 77
-1.38199 -0.745804 3.60857 168 227 219
0.982015 -0.796356 3.84372 107 128 125
0.16366 -0.774564 3.77399 89 135 112
-0.685539 -0.749369 3.69719 56 96 91
0.391021 -0.766329 3.80528 78 106 93
0.561572 -0.773506 3.8184 109 139 140
-1.51084 -0.720692 3.59478 82 151 131
0.375984 -0.749181 3.77689 94 133 117
0.197582 -0.744161 3.77631 66 87 72
-1.48185 -0.702887 3.59768 116 177 167
-1.36611 -0.704559 3.60442 79 143 131
-1.39235 -0.6994 3.59594 143 209 190
0.530903 -0.74525 3.81194 70 109 94
0.926622 -0.748682 3.85629 100 144 137
0.458876 -0.725381 3.79558 151 243 190
-0.0923367 -0.70952 3.74434 58 91 70
2.25979 -0.754458 4.01218 114 184 148
-0.871423 -0.686889 3.67853 137 179 184
0.216534 -0.70743 3.77927 69 110 95
0.800671 -0.70954 3.84105 128 156 156
0.605273 -0.699384 3.81011 74 113 88
0.624773 -0.705046 3.83429 117 170 160
2.28952 -0.735626 4.02854 116 181 155
-0.863882 -0.667722 3.674 65 82 91
-0.531974 -0.662154 3.67141 71 132 118
0.674899 -0.694668 3.8233 80 109 94
-1.06414 -0.659546 3.6533 160 216 205
-0.621494 -0.656304 3.69378 95 125 130
1.37859 -0.691999 3.92361 126 192 181
-1.30383 -0.622447 3.61652 66 102 85
-0.386601 -0.615087 3.6381 43 81 63
-1.31553 -0.61032 3.61799 78 118 106
-0.508187 -0.610737 3.67011 47 92 73
-0.486571 -0.607569 3.65586 61 102 87
0.886593 -0.631059 3.85007 113 153 141
-0.399129 -0.594024 3.64388 154 228 202
0.482452 -0.620939 3.81537 80 112 101
0.694889 -0.622059 3.84689 98 119 104
-1.51895 -0.580239 3.59507 66 113 91
-1.28724 -0.587355 3.62132 53 97 80
-0.0578784 -0.60558 3.76545 117 160 151
-0.791619 -0.588047 3.68338 205 239 245
0.510279 -0.606647 3.81694 118 158 153
1.86375 -0.635327 3.96988 112 188 164
-1.38774 -0.555821 3.58482 157 214 205
0.498362 -0.596593 3.82179 197 239 232
0.566019 -0.599584 3.83471 135 204 183
-1.31156 -0.560686 3.6233 86 111 101
-0.999169 -0.567382 3.66423 173 233 222
-0.381159 -0.56588 3.646 150 221 201
-0.35694 -0.566776 3.64516 83 122 114
0.53603 -0.585261 3.80795 113 158 149
-1.28432 -0.551715 3.62152 76 130 113
-1.38188 -0.54297 3.60811 93 115 110
0.804054 -0.580145 3.85103 92 148 129
-1.46571 -0.526142 3.58077 49 83 72
-1.26588 -0.535764 3.62413 178 231 222
0.494102 -0.558765 3.80526 168 227 206
-0.904083 -0.538536 3.66917 92 149 140
0.481794 -0.553782 3.80578 88 121 106
-1.17711 -0.525894 3.64557 74 117 106
-1.19534 -0.515849 3.64866 149 211 197
-0.361677 -0.516269 3.64424 66 135 115
-1.43083 -0.504725 3.58449 60 83 79
-1.28549 -0.504623 3.62586 72 106 96
0.594315 -0.532367 3.82484 149 218 185
-1.32575 -0.499858 3.618 95 124 121
-0.862867 -0.508416 3.68513 180 228 230
0.324207 -0.525984 3.80566 154 202 204
0.417495 -0.523591 3.8178 72 121 101
-1.51828 -0.4856 3.56904 69 95 82
0.602139 -0.516281 3.82346 72 100 87
0.907678 -0.515289 3.88116 187 228 221
-0.787872 -0.488184 3.6963 214 251 255
0.972579 -0.516391 3.86628 137 180 169
-0.840338 -0.480518 3.70479 94 145 147
-0.935837 -0.47424 3.68325 65 107 96
0.413585 -0.490586 3.84487 154 214 196
1.12625 -0.498078 3.91109 95 180 148
0.51979 -0.486537 3.82043 79 130 116
-1.46479 -0.457237 3.61154 96 111 107
-0.0325204 -0.471957 3.76785 59 89 78
0.664554 -0.483942 3.85042 106 159 145
1.62587 -0.503527 3.97774 134 196 180
-0.989179 -0.458228 3.67969 150 197 194
1.75586 -0.494722 3.96936 104 162 133
1.02022 -0.47429 3.88373 82 149 120
1.60776 -0.481053 3.97602 113 178 163
1.12942 -0.472146 3.90237 104 176 154
-1.03693 -0.436668 3.67619 93 125 120
-0.759606 -0.440671 3.68531 70 120 126
0.914901 -0.462686 3.85501 114 153 138
2.06592 -0.477747 4.00924 90 142 119
-1.35149 -0.426303 3.60687 86 127 112
0.295314 -0.445291 3.77623 47 86 71
-0.04098 -0.440839 3.76934 145 216 200
0.540929 -0.443964 3.84077 87 117 104
-0.215679 -0.42003 3.70434 34 92 64
-0.0274102 -0.431112 3.75274 92 125 121
0.346651 -0.419256 3.78348 58 107 85
1.31887 -0.429907 3.94632 117 191 173
0.181912 -0.415724 3.79777 70 116 103
0.0759042 -0.410746 3.79724 34 67 53
1.10988 -0.420715 3.91322 92 166 132
-1.28415 -0.38339 3.62625 173 239 214
-0.036539 -0.403734 3.77719 60 72 72
0.345778 -0.397274 3.75095 145 223 186
-0.943804 -0.38889 3.67831 70 111 96
0.427977 -0.388051 3.77551 149 234 184
0.918355 -0.397742 3.85266 178 222 209
-1.40103 -0.37362 3.64029 63 102 94
-1.35203 -0.372248 3.61885 71 106 92
-1.33323 -0.367557 3.61546 164 221 212
-1.52948 -0.363971 3.61089 90 129 114
0.0572638 -0.383872 3.79418 131 215 197
0.477816 -0.386288 3.84243 204 240 234
2.10488 -0.406925 4.03665 116 181 156
-1.11423 -0.362764 3.63298 102 139 135
-0.935151 -0.361235 3.7016 82 122 104
0.61882 -0.372055 3.84664 96 162 137
0.747037 -0.374431 3.86696 108 173 141
0.810992 -0.37412 3.86246 80 117 107
-1.29986 -0.344105 3.61953 186 217 216
-1.55918 -0.333365 3.59165 91 159 136
-1.41501 -0.329626 3.61742 109 159 147
-0.893321 -0.335424 3.68704 64 113 93
0.468031 -0.344408 3.81392 166 239 207
2.14406 -0.366007 4.04277 114 178 142
-1.57554 -0.310112 3.59922 93 153 135
0.46497 -0.328913 3.8291 48 87 62
-1.22458 -0.307014 3.64425 85 124 122
0.666761 -0.321989 3.86613 101 142 127
1.08519 -0.318571 3.91452 92 152 128
1.08154 -0.308287 3.91928 76 135 107
-0.993008 -0.288134 3.6637 101 133 122
0.659582 -0.300359 3.86262 83 113 102
-0.937729 -0.283644 3.67131 76 102 89
-0.645588 -0.280064 3.72173 88 143 146
-1.72752 -0.262495 3.59378 220 250 245
-0.870866 -0.270622 3.69676 154 223 208
0.710746 -0.284422 3.88337 89 137 111
-1.151 -0.263529 3.62982 175 240 214
0.0595633 -0.272746 3.8107 68 114 95
-1.00924 -0.260822 3.66509 102 139 129
-1.94441 -0.244904 3.55017 65 108 93
1.2042 -0.273752 3.92478 106 158 134
0.27538 -0.253922 3.82662 143 194 186
0.670755 -0.252781 3.85257 104 129 109
-0.0193326 -0.242454 3.78449 167 216 208
-0.924894 -0.228799 3.68139 57 105 87
-0.799237 -0.231482 3.71656 84 142 131
0.490176 -0.239293 3.85382 166 217 203
0.834375 -0.242168 3.88589 110 150 139
0.233711 -0.236039 3.83802 93 144 130
0.482892 -0.224817 3.84483 55 95 70
-0.114172 -0.219316 3.77382 84 121 117
0.303128 -0.217263 3.8276 186 217 216
0.392913 -0.216253 3.83805 188 228 226
0.83686 -0.222497 3.88217 75 89 85
0.372686 -0.214708 3.83999 58 89 74
0.815395 -0.217274 3.87606 90 136 114
0.879884 -0.21638 3.89851 127 170 157
-0.036432 -0.206385 3.77869 77 122 106
0.19733 -0.205634 3.83585 201 234 230
0.503673 -0.211973 3.83554 78 125 99
0.622477 -0.208193 3.85706 76 132 97
1.84583 -0.219114 4.03599 100 164 142
0.251135 -0.204749 3.83275 83 115 110
-1.68637 -0.181226 3.59035 77 139 123
0.615477 -0.196528 3.86526 171 253 211
-1.1726 -0.186319 3.64737 187 229 218
0.218798 -0.194171 3.8007 89 122 107
0.390881 -0.18897 3.82866 67 110 83
-0.658633 -0.181744 3.72862 89 151 139
1.21112 -0.184088 3.95136 100 159 144
0.102789 -0.168925 3.83794 88 147 133
2.09907 -0.185307 4.06719 104 169 144
-0.132573 -0.163971 3.78771 178 234 223
1.26284 -0.175529 3.95767 102 165 155
0.954323 -0.167492 3.908 107 170 160
-1.03142 -0.146185 3.66329 86 104 97
-1.09351 -0.141626 3.64691 164 203 187
0.121844 -0.149301 3.81158 68 136 119
0.221057 -0.142353 3.83247 103 144 129
1.23154 -0.145684 3.96681 101 149 131
-0.345464 -0.134451 3.7647 61 109 91
-0.842442 -0.127114 3.69832 116 181 165
-0.156588 -0.131405 3.78484 56 85 76
-1.96834 -0.112742 3.5472 83 132 124
2.08898 -0.127646 4.07578 112 170 142
-0.772972 -0.110951 3.71454 157 218 208
-1.5212 -0.106636 3.61116 96 149 135
-0.732125 -0.106244 3.72355 134 199 184
-0.0243957 -0.111202 3.79348 91 136 119
0.358397 -0.1139 3.85182 106 156 146
-0.666794 -0.105883 3.72935 81 140 126
-0.0947007 -0.107044 3.77137 102 152 134
0.908293 -0.109323 3.90675 99 158 144
-0.291743 -0.105178 3.77603 97 138 123
0.822413 -0.10411 3.89598 70 102 91
-0.851957 -0.0960548 3.70002 147 215 204
-0.785606 -0.0964144 3.69255 152 212 206
-0.10649 -0.0950209 3.79761 173 228 211
-0.241319 -0.085068 3.7905 70 114 101
-1.18442 -0.0745724 3.63577 77 114 104
0.121549 -0.072207 3.82779 216 250 244
0.157004 -0.0709136 3.82561 84 153 133
0.345149 -0.0678584 3.8469 110 169 148
0.6 -0.0669782 3.88116 89 141 117
-2.07719 -0.0435225 3.52403 146 198 191
-0.00722841 -0.0466812 3.81766 92 156 134
0.221396 -0.0460914 3.83658 77 144 129
2.13844 -0.0518114 4.10595 105 163 134
0.0506122 -0.0408829 3.81207 99 165 146
-2.08028 -0.0289646 3.52811 76 118 107
-1.48159 -0.0321872 3.6157 177 228 230
0.673464 -0.0294558 3.8745 98 153 114
-0.844761 -0.0266325 3.6897 130 191 181
-0.214877 -0.026969 3.78573 172 228 217
0.106525 -0.0237589 3.81279 162 226 214
-0.674773 -0.0222082 3.73977 82 128 116
