ply
format ascii 1.0
element vertex 1198
property float x
property float y
property float z
property uchar blue
property uchar green
property uchar red
end_header
-0.294291 -0.55985 1.10593 106 157 130
-0.247791 -0.662286 1.34364 140 200 182
-0.300737 -0.527842 1.05342 77 138 104
-0.177736 -0.774433 1.65959 167 204 196
0.170717 -1.42945 2.87282 156 239 194
-0.00448882 -1.06058 2.36018 159 200 193
-0.248207 -0.521624 1.28511 98 134 140
-0.143302 -0.671092 1.82377 115 151 157
0.171454 -1.17951 3.19628 118 157 155
0.238218 -1.19739 3.52196 82 102 97
0.367012 -1.3883 4.07399 113 163 161
0.196306 -1.08195 3.34711 152 202 190
0.0232096 -0.828932 2.59306 156 212 217
1.29296 -2.17396 8.33494 107 150 147
-0.107183 -0.392149 1.73172 143 194 190
0.626764 -0.902349 5.30412 164 196 202
0.907827 -0.788167 6.49196 142 154 148
0.926733 -0.787077 6.58596 135 149 145
0.912978 -0.778906 6.52469 177 188 180
0.983156 -0.766676 6.83108 171 184 192
0.990275 -0.755395 6.8477 80 100 95
1.01047 -0.755272 6.94755 112 140 134
1.19531 -0.767409 7.76649 136 150 148
1.06492 -0.409414 7.00316 157 200 189
1.8851 -0.504918 10.7265 126 158 157
0.30905 -0.220309 3.43654 131 174 161
1.67956 -0.123881 9.62051 102 156 143
-0.187687 -0.813122 1.59721 138 210 187
-0.29829 -0.54337 1.07518 129 171 154
-0.154011 -0.840652 1.75046 106 151 132
-0.277256 -0.570717 1.18455 104 142 130
0.106527 -1.31781 2.6631 98 131 124
0.173502 -1.43128 2.88472 81 153 117
-0.258721 -0.590352 1.275 118 167 129
0.542394 -2.11266 4.12283 122 147 151
-0.289376 -0.514216 1.09161 30 77 51
-0.136907 -0.808426 1.85165 75 141 122
-0.236257 -0.592649 1.38709 150 175 177
0.697521 -2.23681 5.00152 101 158 150
-0.234848 -0.578805 1.38442 105 160 145
-0.234142 -0.560376 1.37507 125 190 164
-0.0250285 -0.92074 2.34295 88 115 111
0.290878 -1.45153 3.61972 87 130 119
-0.264525 -0.487392 1.18243 153 201 183
-0.207656 -0.542723 1.47427 114 153 155
-0.10144 -0.669268 2.00377 134 155 157
0.827761 -2.04114 6.05134 180 212 207
-0.225806 -0.423489 1.25788 108 139 140
-4.53092 5.22414 -17.4315 97 144 128
1.29296 -2.17396 8.33495 107 150 147
-0.100758 -0.475833 1.87739 134 165 158
0.0862047 -0.593893 2.77292 180 208 215
0.0997671 -0.599439 2.84557 89 112 104
-1.34096 0.666818 -3.76188 103 161 143
0.646964 -0.7389 5.27495 229 237 236
0.942904 -0.775886 6.65873 199 209 203
2.72518 -1.59795 14.8524 239 255 255
1.47013 -0.603013 8.90756 88 95 90
1.67476 -0.199139 9.58758 88 117 102
-0.178454 -0.828289 1.63254 90 123 108
-0.124868 -0.936851 1.82413 73 101 88
-0.267733 -0.625086 1.25334 161 215 180
-0.306543 -0.526909 1.02974 153 221 190
-0.300371 -0.537547 1.05736 137 198 162
-0.131725 -0.908048 1.81178 151 224 198
-0.0829811 -1.00268 1.97909 111 156 130
-0.00344324 -1.15834 2.23903 101 135 129
-0.172527 -0.821875 1.66404 148 200 190
-0.164958 -0.839009 1.69548 139 214 198
-0.289078 -0.56199 1.12899 106 142 118
-0.291236 -0.554692 1.11455 149 228 189
0.138597 -1.40929 2.67797 142 192 174
-0.233632 -0.685884 1.41015 74 116 98
-0.294384 -0.545046 1.09283 195 241 205
-0.269493 -0.603214 1.23454 55 111 88
-0.0569541 -1.04197 2.08068 154 239 195
-0.0563548 -1.03706 2.09228 85 123 111
-0.230728 -0.683388 1.42348 56 92 75
-0.171089 -0.807943 1.67901 93 105 107
-0.125038 -0.898954 1.85346 138 241 213
-0.292778 -0.53981 1.0965 39 73 49
-0.240737 -0.65598 1.37547 148 190 167
-0.15401 -0.83313 1.75265 137 201 172
-0.230847 -0.671991 1.42194 129 173 160
0.0603346 -1.24306 2.50726 116 145 152
-0.276855 -0.566612 1.18408 106 161 136
-0.0205114 -1.08775 2.24424 129 156 160
-0.266735 -0.586374 1.23729 124 182 157
-0.29408 -0.519402 1.07537 76 134 99
-0.00929359 -1.09768 2.29074 144 162 161
-0.0966954 -0.927664 1.97811 85 122 106
0.176589 -1.43473 2.89522 81 151 111
-0.231859 -0.658086 1.42156 60 116 93
-0.255005 -0.60625 1.30288 121 189 148
-0.0545139 -1.0019 2.13237 149 202 182
-0.2339 -0.649043 1.41239 67 101 90
-0.0938586 -0.924398 1.99209 96 112 105
1.31639 -3.55617 6.64359 93 173 136
-0.152011 -0.810178 1.77404 69 111 100
0.0534996 -1.20064 2.53129 97 135 129
-0.0379137 -1.02593 2.20634 165 231 202
-0.273279 -0.554542 1.19467 124 197 159
0.542228 -2.10576 4.15728 172 234 220
-0.152184 -0.801361 1.76821 74 108 98
0.063015 -1.20352 2.58624 109 161 154
-0.0343403 -1.01327 2.24042 79 110 103
-0.22403 -0.64417 1.45616 126 167 162
-0.218101 -0.655569 1.48555 117 155 155
-0.00367192 -1.06021 2.3625 103 128 124
-0.136798 -0.808381 1.85203 86 150 131
1.7429 -4.22427 8.49337 127 159 158
-0.167366 -0.741258 1.71696 91 122 125
0.251035 -1.50653 3.29557 118 146 147
-0.0793274 -0.902529 2.08572 125 185 167
0.835719 -2.55648 5.34691 85 137 120
-0.155451 -0.755416 1.76885 119 149 160
-0.115274 -0.828849 1.93706 91 123 112
-0.277195 -0.511759 1.14477 35 71 49
-0.272122 -0.522539 1.17838 151 219 184
0.0148246 -1.06095 2.46784 183 215 210
0.262666 -1.5011 3.38147 167 199 194
-0.236456 -0.590533 1.38471 115 134 142
0.167368 -1.32147 3.04323 168 211 202
-0.177925 -0.696222 1.67189 93 118 122
-0.170074 -0.701871 1.70576 111 133 138
0.697116 -2.23427 4.99671 101 158 150
0.891137 -2.57764 5.7114 111 152 144
0.507622 -1.89976 4.32642 131 192 178
-0.211039 -0.620924 1.50917 161 193 192
0.0731698 -1.11998 2.71364 185 222 214
-0.187066 -0.657888 1.62518 122 156 156
0.00364693 -0.981861 2.44165 157 198 190
-0.234293 -0.560329 1.37515 125 190 164
-0.168199 -0.681725 1.71181 109 140 155
0.358206 -1.59086 3.8403 88 122 105
-0.107309 -0.785579 1.99116 100 114 112
0.142376 -1.22067 3.0174 138 205 198
-0.229326 -0.561106 1.39553 77 102 82
-0.274145 -0.475026 1.12264 148 198 188
0.801861 -2.32231 5.55209 113 159 146
-0.0722053 -0.835653 2.14256 184 225 218
-0.264515 -0.487327 1.18261 153 201 183
0.123803 -1.15439 2.94727 131 169 157
0.260573 -1.38964 3.49754 125 156 147
0.263978 -1.39103 3.51157 112 156 149
0.0335601 -0.998386 2.58706 65 84 81
0.285858 -1.42216 3.60197 106 151 142
0.281845 -1.40062 3.59367 128 168 163
-0.261994 -0.479449 1.17962 134 175 160
0.0615669 -1.0155 2.71571 78 102 92
-0.0608255 -0.81692 2.20541 115 149 143
0.15797 -1.17569 3.12705 115 153 153
0.254376 -1.3287 3.5235 118 153 149
0.108634 -1.08115 2.92336 73 103 90
0.11656 -1.09325 2.9544 183 224 226
-0.176488 -0.615046 1.65857 91 105 103
-0.222588 -0.532495 1.40491 88 100 100
-0.111778 -0.720316 1.97323 121 159 159
-0.20181 -0.566067 1.51448 108 151 142
-0.172648 -0.618059 1.67523 171 202 203
-0.0224361 -0.85625 2.37313 85 113 114
0.634726 -1.91004 5.0901 126 167 159
0.424536 -1.56324 4.24907 115 155 150
0.0777088 -1.00449 2.79771 78 117 109
-0.208963 -0.542558 1.46862 87 118 119
-0.165574 -0.609578 1.70277 110 154 155
0.216307 -1.21287 3.39817 90 121 112
-0.0960959 -0.718116 2.04455 171 215 214
-0.0953256 -0.715943 2.0482 118 158 163
0.0860473 -0.99489 2.83798 89 125 113
-5.96832 8.40635 -22.7861 95 118 114
2.32346 -4.41543 12.1958 86 143 122
2.34672 -4.42198 12.3086 142 225 186
0.772296 -2.00668 5.73111 121 147 141
0.831093 -2.10479 5.9935 155 216 202
0.110235 -0.989434 2.96907 91 135 128
3.5527 -6.13248 17.4738 109 143 137
0.375783 -1.37929 4.13344 104 138 138
-0.0969855 -0.666916 2.02764 128 157 161
0.207388 -1.12147 3.41278 110 137 133
0.933026 -2.1882 6.49272 134 164 169
0.897587 -2.12504 6.34042 168 226 215
0.0458308 -0.870843 2.69151 169 225 214
0.736045 -1.87234 5.68065 140 180 178
0.911248 -2.12176 6.42836 147 193 194
1.15043 -2.45739 7.4587 127 145 152
0.0212947 -0.823505 2.58384 153 207 208
0.62652 -1.67006 5.20592 168 219 199
0 0 0 89 158 143
-0.190579 -0.498047 1.51058 127 189 171
-5.51847 6.85624 -21.4171 174 229 214
1.02374 -2.16897 6.97977 114 155 147
0.6219 -1.60147 5.21146 100 144 138
-0.209205 -0.458928 1.38442 101 149 143
2.29344 -3.78434 12.5669 145 173 173
-0.225836 -0.423456 1.25794 110 135 137
2.38837 -3.88141 13.0417 188 229 222
-0.168302 -0.489893 1.59704 107 160 151
2.62845 -4.08366 14.1171 121 160 152
1.28808 -2.32509 8.21663 195 229 228
-0.203784 -0.430585 1.36643 140 184 183
1.29633 -2.31192 8.26903 179 207 207
-0.0877845 -0.560389 2.00667 108 170 158
-0.15192 -0.476296 1.65159 97 107 101
-2.1776 1.9839 -7.38542 106 134 128
-0.188389 -0.422652 1.42075 86 115 112
-0.133173 -0.480973 1.73836 149 163 162
-0.138379 -0.468971 1.70026 136 179 170
-0.148187 -0.455988 1.64294 106 146 141
-0.205452 -0.389777 1.27828 139 182 173
-0.151071 -0.445663 1.61403 77 106 97
-2.10035 1.72801 -7.11806 180 227 224
-0.154565 -0.420173 1.56227 124 141 137
-0.0999516 -0.475842 1.87878 143 165 160
-0.0818485 -0.484447 1.96184 155 202 194
0.976574 -1.58711 6.96442 185 225 224
1.04504 -1.63187 7.27792 218 245 249
0.00987854 -0.566845 2.43976 117 132 134
-0.00521303 -0.551031 2.36353 114 140 154
-0.186365 -0.370055 1.32749 146 169 177
-0.0265774 -0.515712 2.23708 166 207 209
-0.0740641 -0.463787 1.9628 142 175 161
-0.0354109 -0.495211 2.16768 162 174 186
-1.92257 1.34058 -6.36425 144 152 175
0.410152 -0.904708 4.34049 118 160 159
-0.0055265 -0.509881 2.31514 157 195 183
0.925019 -1.37538 6.71212 80 85 76
-0.00247039 -0.508106 2.3232 52 90 94
0.184362 -0.656029 3.24736 71 94 89
-0.0710004 -0.432136 1.95127 82 101 98
0.166546 -0.626366 3.14552 74 95 97
-0.110055 -0.397195 1.72714 83 108 98
-0.110153 -0.394651 1.72302 144 179 165
-0.0989342 -0.396288 1.77421 136 183 167
-0.0702856 -0.403618 1.91936 140 178 166
-0.093216 -0.386645 1.78612 138 173 163
-0.0329211 -0.428378 2.11636 73 109 95
-0.0807857 -0.382448 1.83952 86 120 103
-1.28188 0.542561 -3.50222 117 162 153
-1.20666 0.471756 -3.15763 102 121 112
0.819016 -0.93477 6.1652 78 89 73
0.902065 -0.921396 6.53596 76 82 77
0.205041 -0.468811 3.22025 246 255 255
0.901116 -0.813055 6.47968 179 204 214
0.904631 -0.795836 6.47231 202 215 217
0.909323 -0.794726 6.50875 205 210 209
0.913026 -0.778906 6.52183 177 188 180
-2.61184 1.0187 -9.54798 241 255 255
1.04843 -0.75098 7.11822 111 147 147
1.0848 -0.750035 7.27778 171 201 206
1.18404 -0.76749 7.72294 140 145 144
1.15163 -0.725273 7.56682 80 103 98
1.5221 -0.84954 9.24419 208 234 228
1.49498 -0.79094 9.11089 187 227 225
0.373161 -0.336373 3.84876 139 172 158
1.63268 -0.711077 9.72166 139 149 159
0.633145 -0.386801 5.06198 83 97 93
1.43577 -0.615764 8.77142 183 214 213
0.736766 -0.408369 5.54618 118 152 145
1.47606 -0.601229 8.94886 99 106 103
0.238888 -0.265151 3.14903 88 126 104
0.241114 -0.256484 3.15877 174 221 212
1.79735 -0.608679 10.371 109 132 128
0.244293 -0.254426 3.17051 135 185 175
0.909936 -0.387667 6.31416 122 146 128
1.83179 -0.602671 10.5447 106 138 137
1.9278 -0.536871 10.9179 100 114 120
1.10378 -0.369521 7.14995 145 184 168
1.84191 -0.509881 10.5237 121 132 129
1.40824 -0.310489 8.47521 177 218 211
2.19695 -0.366704 12.0746 130 148 147
-2.37272 0.14473 -8.34095 101 154 141
1.69922 -0.187592 9.72854 138 198 168
0.777984 -0.109818 5.51998 92 113 98
0.727014 -0.106593 5.28712 143 181 169
3.23841 -0.0897025 16.5791 160 192 197
0.0911527 -0.144854 2.21524 119 160 133
3.20262 -0.0563699 16.426 80 110 99
0.133861 -0.128762 2.43173 131 154 140
2.0198 0.0438698 11.0732 113 156 147
1.55235 0.263678 8.85226 115 144 129
9.11612 1.79851 42.2725 158 185 181
1.45289 0.340249 8.34305 74 130 119
0 0 0 102 132 137
0 0 0 58 64 63
-5.26778 -2.58002 -20.9457 128 172 171
-0.249618 -0.665046 1.33561 115 194 155
-0.131099 -0.907802 1.81483 130 212 177
-0.289622 -0.563871 1.12497 182 234 197
-0.0732781 -1.02029 2.00794 152 202 184
-0.00905423 -1.1468 2.22887 170 202 207
-0.202809 -0.755525 1.54136 64 85 82
-0.185955 -0.793385 1.61422 60 86 70
-0.29242 -0.554226 1.10957 64 96 85
-0.230001 -0.695632 1.42687 137 200 168
-0.197463 -0.76677 1.56849 75 111 105
-0.285577 -0.569134 1.14875 103 128 108
-0.29112 -0.554743 1.11446 142 222 187
-0.235719 -0.67803 1.40021 38 62 52
-0.302139 -0.517901 1.03825 111 167 132
0.00738241 -1.15688 2.30755 103 134 135
-0.157255 -0.835997 1.7386 56 85 76
-0.0813986 -0.978674 2.01457 72 116 93
0.43458 -1.95582 3.63127 68 81 65
-0.145511 -0.850331 1.78434 151 221 181
1.29606 -3.56177 6.32139 140 168 169
-0.287852 -0.54286 1.11995 90 122 105
-0.297766 -0.516898 1.05575 144 226 183
-0.267249 -0.586706 1.23603 106 174 149
-0.236839 -0.649835 1.39173 67 112 85
-0.264436 -0.585353 1.24704 151 217 182
-0.256706 -0.605988 1.29917 124 187 147
-0.254603 -0.609091 1.30967 155 217 181
-0.233907 -0.649027 1.41245 67 101 90
1.3146 -3.54897 6.62607 92 165 127
-0.184208 -0.746689 1.63518 152 210 181
-0.152394 -0.810391 1.77123 48 90 72
-0.0533879 -0.997223 2.14567 165 214 198
-0.0538597 -0.987484 2.14109 112 130 129
0.147883 -1.36372 2.84867 80 96 89
-0.289905 -0.51247 1.0891 137 205 158
0.06168 -1.20619 2.57048 163 221 216
-0.284572 -0.523301 1.11981 79 111 87
-0.147261 -0.806036 1.79351 133 199 164
-0.181593 -0.736084 1.64614 100 143 128
-0.171806 -0.76043 1.69758 107 138 131
-0.148101 -0.803698 1.79641 84 129 103
-0.277113 -0.537043 1.16578 63 95 84
-0.241292 -0.615522 1.37334 100 139 131
1.5684 -3.93875 7.80846 190 223 216
-0.137636 -0.808186 1.84749 92 148 127
0.816654 -2.54121 5.2408 102 155 135
-0.159718 -0.75757 1.75279 125 172 163
-0.220509 -0.636787 1.47104 102 122 117
-0.0787339 -0.902503 2.08542 142 204 186
-0.276466 -0.515519 1.1491 40 57 44
-0.221365 -0.633463 1.46874 147 181 174
0.729965 -2.36958 4.99069 89 123 117
1.69489 -4.07208 8.46972 131 189 164
-0.248241 -0.572514 1.32294 53 79 56
-0.150415 -0.76029 1.79648 112 144 150
0.251514 -1.48802 3.33712 99 120 112
1.10384 -2.9984 6.35262 202 235 228
0.0148811 -1.06087 2.46518 191 227 221
-0.131876 -0.786049 1.877 115 143 144
-0.246187 -0.56331 1.31707 165 227 179
0.158544 -1.3084 3.01525 118 149 150
-0.179688 -0.686652 1.65909 117 141 141
-0.210706 -0.627436 1.50885 107 126 129
-0.063331 -0.89798 2.16975 101 114 116
1.45376 -3.56732 7.81289 72 132 108
-0.240073 -0.565842 1.35137 57 96 80
0.120006 -1.21441 2.88653 102 141 133
0.198696 -1.35804 3.19478 116 153 151
-0.11182 -0.794219 1.96804 74 98 88
5.29831 -10.3113 22.6426 108 153 150
0.529437 -1.90868 4.4379 99 139 127
0.135457 -1.22349 2.96577 144 197 194
-0.0493914 -0.898203 2.23536 143 218 196
-0.264568 -0.506091 1.20388 90 132 125
-0.0244497 -0.938911 2.34293 72 111 103
0.682809 -2.15312 5.08032 111 169 151
-0.231272 -0.560786 1.3876 72 92 73
0.0302654 -1.01276 2.55766 101 137 120
-0.0990467 -0.795319 2.0315 117 142 146
0.571661 -1.93846 4.66887 120 150 155
0.657829 -2.07965 5.01694 221 243 248
-0.175327 -0.653751 1.67604 95 125 126
0.0471141 -1.02807 2.6254 174 208 201
0.149629 -1.21326 3.06341 81 116 106
1.10954 -2.83366 6.76692 102 139 131
-0.265654 -0.484706 1.17219 66 79 71
-0.264448 -0.487497 1.18349 148 198 180
0.0373977 -1.0087 2.59708 83 104 95
-0.10349 -0.771477 2.00954 170 212 219
-0.267499 -0.476991 1.15371 140 173 159
-0.152908 -0.685499 1.78491 122 161 159
-0.0977703 -0.781023 2.03603 137 154 157
0.0474129 -1.02402 2.65014 95 120 110
0.0728135 -1.06502 2.75834 183 221 221
0.162627 -1.21388 3.12826 102 123 125
-0.229557 -0.542844 1.38158 54 66 60
-0.125444 -0.726321 1.91436 99 150 146
-0.260859 -0.485687 1.19762 94 122 122
-0.209985 -0.575655 1.48913 212 233 235
-0.259719 -0.483069 1.19811 173 209 215
0.0740212 -1.05291 2.768 135 192 177
-0.0493008 -0.841276 2.25035 99 140 133
0.522966 -1.78983 4.5736 131 174 159
0.295243 -1.40145 3.65382 66 109 96
0.157775 -1.17581 3.12859 112 150 150
0.483547 -1.71387 4.44007 146 175 182
0.108263 -1.08104 2.91895 60 96 82
1.07994 -2.66835 6.84404 140 150 160
-0.250099 -0.487567 1.24322 124 151 148
0.759984 -2.14225 5.56064 102 155 135
1.08904 -2.67647 6.87773 128 148 153
-0.219225 -0.539811 1.4229 187 221 227
1.89823 -3.98493 10.1506 141 163 161
-0.222741 -0.532493 1.40483 88 100 100
0 0 0 110 159 143
0.252027 -1.31052 3.52907 96 123 120
0.803375 -2.17702 5.79471 114 141 145
0.395512 -1.51843 4.13008 105 142 134
-0.210343 -0.542572 1.46554 89 110 112
-0.106659 -0.708185 1.98696 108 144 138
0.473072 -1.63392 4.44268 84 131 123
-0.100339 -0.718716 2.02449 98 125 121
0.744423 -2.05188 5.58404 126 170 164
-0.170984 -0.596587 1.67236 125 162 170
0.272545 -1.29834 3.64179 125 161 161
1.31078 -2.90436 7.86267 109 142 128
-0.0961323 -0.715663 2.04577 109 154 157
-0.0970367 -0.711181 2.03923 155 203 204
0.0501914 -0.929444 2.69455 116 153 151
4.38536 -7.6352 20.7974 122 155 158
0.755457 -1.99224 5.64137 157 206 190
0.189177 -1.13574 3.30773 122 159 155
-0.243386 -0.463261 1.24439 120 180 180
3.15502 -5.64873 15.7251 119 149 144
0.206897 -1.14798 3.39995 111 150 148
1.65971 -3.32661 9.46458 93 137 120
0.200148 -1.12728 3.3556 103 124 125
3.55768 -6.15182 17.5263 107 141 135
-0.199016 -0.517174 1.49331 115 155 143
-0.0376493 -0.760585 2.31416 108 161 164
0.957001 -2.23234 6.58998 139 174 187
-0.0199802 -0.775317 2.3896 141 179 183
-0.247501 -0.432825 1.1804 137 179 191
0 0 0 162 236 188
0.67493 -1.77119 5.44311 128 174 168
1.14911 -2.45632 7.45316 127 145 152
-4.79079 6.06194 -18.207 91 131 120
-0.229838 -0.441056 1.26743 120 139 144
-0.241844 -0.424093 1.19021 125 175 173
0 0 0 95 143 131
2.15905 -3.74224 11.9527 81 107 107
-2.53918 2.79162 -8.77496 212 247 243
0.846261 -1.91321 6.22838 120 142 147
0 0 0 88 151 135
-0.210635 -0.45412 1.37251 104 147 144
1.88202 -3.28808 10.7411 172 233 219
1.22455 -2.37675 7.89333 104 121 117
1.04406 -2.11503 7.11546 105 139 132
7.23538 -10.2268 34.4286 124 160 148
-2.43504 2.50138 -8.39038 101 139 127
0.734972 -1.60441 5.78786 92 109 105
1.1808 -2.17485 7.77226 114 149 139
1.01653 -1.95575 7.05932 163 210 201
0.943627 -1.84832 6.71235 160 207 185
1.33198 -2.30104 8.45113 71 78 63
2.53016 -3.77901 13.77 96 119 111
1.49235 -2.48554 9.14227 166 208 191
1.69355 -2.69627 10.0429 172 233 207
-0.134724 -0.486782 1.73629 168 211 214
-0.218298 -0.38746 1.22135 88 132 119
-0.181058 -0.42669 1.45583 111 162 154
2.17484 -3.11964 12.3331 144 172 179
-0.205452 -0.389777 1.27828 139 182 173
-0.125873 -0.475719 1.76564 170 216 217
-0.137643 -0.46115 1.6953 190 219 223
-3.02346 2.78952 -11.2098 116 154 154
-0.1125 -0.480043 1.82339 214 240 247
-0.136264 -0.453943 1.6928 151 205 200
-2.30976 1.95312 -8.03415 136 156 157
-0.138813 -0.4436 1.66478 124 147 143
-0.054716 -0.526551 2.12343 115 156 151
-0.142381 -0.433004 1.63614 157 197 192
-0.0921341 -0.485005 1.92304 158 192 186
-0.0351166 -0.533983 2.21533 205 224 231
1.053 -1.63499 7.27922 216 238 243
-0.0815371 -0.478305 1.96316 139 183 177
0.0097062 -0.566815 2.43981 117 132 134
0.014181 -0.564461 2.45286 203 225 230
0.0385053 -0.583517 2.57292 185 212 209
-0.0267904 -0.515776 2.2366 163 204 206
0.0613129 -0.596864 2.68636 170 213 210
-0.073786 -0.463015 1.96603 132 167 153
-0.0648542 -0.474546 2.02782 87 109 97
-0.185513 -0.365694 1.32588 141 178 162
0.00577514 -0.534741 2.39104 195 231 231
0.941187 -1.40801 6.78787 84 90 79
-0.0601844 -0.455272 2.01607 111 165 148
0.0825359 -0.58274 2.74594 78 89 86
0.120426 -0.619541 2.95012 89 104 96
0.139396 -0.628322 3.02801 88 100 94
0.133075 -0.617489 2.99816 141 194 174
0.875138 -1.27762 6.49412 165 223 222
0.164576 -0.623043 3.12625 83 110 107
0.151133 -0.609962 3.06534 187 239 245
0.102646 -0.564088 2.8227 99 131 137
0.0862405 -0.548603 2.74707 97 153 142
-0.0961866 -0.391773 1.77711 58 68 56
-0.0366947 -0.437573 2.11218 164 216 206
-0.0401312 -0.422709 2.07978 134 176 159
-0.086497 -0.38167 1.81279 123 181 163
-1.24092 0.555118 -3.3381 123 129 140
0.749146 -0.796355 5.67593 71 70 60
0.906051 -0.888972 6.53823 186 205 210
0.929975 -0.799838 6.60566 203 214 211
1.08841 -0.749344 7.29958 166 198 203
1.16206 -0.774606 7.63422 109 127 120
1.22943 -0.787003 7.92418 168 186 197
1.47331 -0.876865 9.04593 87 134 118
1.1313 -0.723119 7.47858 93 97 91
1.36865 -0.693862 8.50072 186 225 227
0.377747 -0.35771 3.89537 88 134 111
0.419546 -0.364424 4.09854 78 111 90
0 0 0 99 150 142
1.38957 -0.676364 8.58771 104 149 140
0.726717 -0.432469 5.51915 166 217 209
0.371059 -0.328504 3.82865 97 120 106
1.62942 -0.712164 9.6865 162 174 184
1.90659 -0.786487 10.9265 144 172 172
0.792437 -0.407668 5.81662 123 160 150
0.239174 -0.264497 3.1521 85 117 98
0.874008 -0.396632 6.16124 63 78 57
0.921413 -0.390568 6.36336 119 141 123
0.25761 -0.247068 3.22754 72 94 76
2.07254 -0.567775 11.5216 112 141 138
0.26103 -0.226948 3.2276 112 151 130
1.37627 -0.287958 8.33319 77 81 62
2.20367 -0.366334 12.086 155 172 175
-8.34493 0.419704 -35.1255 93 150 142
0.738056 -0.12694 5.35557 109 134 120
0.0782939 -0.15563 2.16358 135 179 162
3.88273 0.110714 19.4143 177 207 212
2.9645 0.495723 15.1207 106 155 147
1.48578 0.330839 8.4963 69 105 91
-1.25432 -0.162524 -3.26555 125 175 175
-3.0339 -1.18127 -11.1779 96 153 145
-0.86883 -0.346062 -1.50366 137 198 172
-3.3015 -5.29521 -14.4909 164 189 193
-0.192847 -0.782259 1.5872 66 102 90
0.15868 -1.4653 2.72537 146 210 181
-0.274175 -0.597453 1.21277 51 75 57
-0.229989 -0.695519 1.4274 148 211 179
-0.294633 -0.544971 1.09059 175 229 199
-0.0685211 -1.02317 2.0459 76 97 89
0.139407 -1.41439 2.68207 154 207 197
-0.245519 -0.655058 1.35384 56 85 69
-0.222669 -0.706226 1.45974 114 194 157
0.380061 -1.86505 3.40703 80 104 92
-0.290305 -0.553965 1.11888 141 191 157
-0.17326 -0.806462 1.66463 75 116 89
-0.296239 -0.537331 1.0822 147 204 165
-0.29073 -0.54949 1.11521 66 99 85
-0.218995 -0.710012 1.47835 90 129 108
-0.196984 -0.758463 1.57085 56 86 75
-0.103068 -0.947167 1.93087 92 131 109
-0.301281 -0.521068 1.04441 60 99 77
-0.293247 -0.539684 1.09576 47 75 52
0.405417 -1.91283 3.517 128 165 155
-0.232758 -0.675698 1.41264 112 142 129
0.433569 -1.95071 3.61362 75 91 74
-0.0812546 -0.978649 2.01513 72 119 93
0.434415 -1.95644 3.63323 64 77 61
-0.295176 -0.530321 1.08172 72 117 90
0.611315 -2.28361 4.17926 109 197 167
-0.294732 -0.530912 1.08406 70 112 89
-0.111433 -0.918954 1.91244 161 228 191
-0.271362 -0.579357 1.2122 60 112 88
-0.290569 -0.536545 1.10626 51 68 59
-0.212168 -0.709709 1.50837 100 151 124
0.67669 -2.4024 4.43752 99 136 126
-0.287701 -0.542112 1.12206 65 86 77
-0.229331 -0.6697 1.42828 143 207 177
-0.290667 -0.530472 1.09866 72 108 91
-0.281488 -0.552418 1.15724 57 95 73
-0.124602 -0.880817 1.87226 64 108 77
0.0971627 -1.29895 2.62557 148 225 204
0.146985 -1.38869 2.7847 172 221 205
-0.264299 -0.589478 1.25038 47 68 46
-0.252049 -0.615443 1.32439 74 109 89
-0.0959674 -0.92717 1.97809 87 124 108
-0.0429651 -1.03047 2.17348 103 133 120
-0.0188958 -1.07974 2.26267 193 223 224
-0.254385 -0.608808 1.31075 138 208 171
-0.0342889 -1.04911 2.21246 72 101 86
0.655938 -2.3285 4.42202 113 154 149
-0.287836 -0.529437 1.11067 70 106 90
-0.138731 -0.838633 1.81283 94 140 127
0.102239 -1.30054 2.66924 92 143 129
-0.260859 -0.587479 1.26256 120 182 152
-0.251156 -0.608532 1.31236 150 210 180
-0.0530838 -0.997183 2.14843 156 198 180
0.587138 -2.19302 4.27901 107 166 151
-0.247931 -0.614369 1.34168 52 99 83
-0.154193 -0.802548 1.76231 70 102 83
-0.256029 -0.591889 1.29493 122 186 151
-0.247196 -0.60927 1.34088 75 92 83
-0.0559791 -0.985298 2.14 90 105 101
0.0619682 -1.2063 2.57211 167 224 221
-0.0325314 -1.02813 2.23441 99 129 116
-0.030542 -1.02784 2.23012 98 132 115
-0.291406 -0.507076 1.07999 44 83 58
-0.171599 -0.760233 1.69892 102 133 130
-0.0753078 -0.943204 2.07877 101 137 125
-0.147618 -0.803631 1.79684 93 135 110
1.45201 -3.76354 7.28942 127 144 140
-0.241404 -0.615348 1.37233 100 139 131
-0.152285 -0.791345 1.77876 102 137 117
-0.093917 -0.895296 1.99994 75 96 93
-0.0352195 -1.01082 2.2317 83 113 102
-0.0176385 -1.04547 2.30119 111 133 131
-0.281244 -0.520856 1.13097 65 109 70
-0.14389 -0.806772 1.81464 76 118 95
-0.281691 -0.520504 1.13167 72 110 74
-0.248731 -0.590014 1.32539 136 203 172
0.255088 -1.53003 3.25318 69 102 87
-0.0951053 -0.884763 2.00289 68 88 83
-0.241741 -0.606724 1.36826 111 140 144
-0.0707351 -0.926882 2.10093 164 225 197
0.0645837 -1.18745 2.62187 115 163 157
0.912725 -2.72723 5.52555 84 118 108
-0.284754 -0.506133 1.10575 69 115 92
-0.180755 -0.720134 1.65754 84 111 107
0.0105073 -1.07941 2.42794 198 225 229
0.216407 -1.45592 3.16005 165 212 204
-0.0248083 -1.00677 2.28665 87 131 114
-0.158192 -0.758254 1.75536 106 143 139
-0.0744905 -0.917163 2.10505 79 115 109
1.05462 -2.94573 6.06847 106 138 127
-0.147889 -0.778157 1.80641 122 151 148
-0.136701 -0.797429 1.84931 92 128 116
-0.114674 -0.836985 1.93719 146 199 172
-0.0782058 -0.902996 2.08769 150 212 188
-0.051082 -0.95212 2.19254 142 195 181
-0.283651 -0.499733 1.10452 89 129 111
-0.136712 -0.796906 1.85399 104 140 128
-0.27206 -0.523315 1.17843 131 201 165
-0.0260003 -0.989477 2.29386 110 149 141
-0.160264 -0.744645 1.75491 111 133 131
-0.0772032 -0.898141 2.09991 145 203 174
0.281024 -1.54321 3.434 137 160 175
-0.18589 -0.693262 1.63756 79 99 94
-0.269384 -0.526467 1.20144 50 68 55
-0.227394 -0.607859 1.42919 110 129 132
-0.217947 -0.624818 1.47833 195 228 224
0.0354433 -1.08787 2.5465 108 130 125
0.260145 -1.49086 3.37658 93 128 124
0.0459095 -1.10417 2.58635 163 227 205
-0.266996 -0.522797 1.20904 156 219 193
0.0633803 -1.13155 2.66386 191 235 229
0.178614 -1.33768 3.09375 90 123 119
-0.180279 -0.686099 1.65644 116 143 140
-0.245045 -0.558319 1.31739 158 220 184
-0.27146 -0.509229 1.17748 65 97 86
-0.19438 -0.657026 1.5922 104 120 132
-0.0629336 -0.897403 2.16825 103 118 120
0.268938 -1.48584 3.45553 157 192 202
0.9002 -2.59361 5.75079 119 163 156
2.1315 -4.79505 10.3426 162 208 202
4.18598 -8.40951 18.2015 119 154 150
-0.268292 -0.508825 1.19108 157 220 204
-0.256105 -0.529515 1.25193 111 132 129
-0.236384 -0.569814 1.37246 173 224 216
-0.0553075 -0.902554 2.20219 63 96 81
-0.268083 -0.503916 1.18311 106 148 141
0.942073 -2.62925 5.96597 117 154 144
-0.0562207 -0.889643 2.20439 147 190 181
-0.140278 -0.73767 1.84531 115 145 150
-0.0493229 -0.898038 2.23885 141 217 193
0.134904 -1.22348 2.96495 134 189 186
0.374824 -1.63052 3.88412 117 151 145
0.410176 -1.69192 4.01712 116 141 143
-0.240767 -0.544971 1.32894 120 181 153
0.275854 -1.46024 3.5243 109 166 157
0.145206 -1.23126 3.02019 86 122 116
3.21846 -6.55267 14.7745 126 167 159
-0.0497944 -0.885691 2.23675 169 217 211
0.787399 -2.32593 5.45586 99 151 141
-0.236697 -0.549582 1.35139 51 62 54
-0.230847 -0.560957 1.39043 88 117 92
-0.116945 -0.759254 1.93039 132 197 175
0.0411276 -1.03737 2.59977 85 125 114
0.147538 -1.22436 3.03473 162 226 221
0.0665495 -1.08123 2.7092 65 99 88
0.572287 -1.93835 4.66867 118 148 153
-0.0588687 -0.85634 2.19491 76 108 97
0.0925359 -1.11633 2.81878 169 217 205
-0.235879 -0.542344 1.34814 78 112 101
-0.230581 -0.554438 1.38235 138 197 169
0.476664 -1.76809 4.32856 110 144 134
0.664981 -2.08991 5.05355 222 246 246
-0.235055 -0.544351 1.36087 150 194 177
-0.164748 -0.670173 1.72248 121 145 145
0.0474758 -1.02807 2.62682 173 207 201
0.35399 -1.54944 3.85228 103 137 131
-0.264304 -0.486874 1.18629 138 183 167
-0.0985345 -0.780283 2.03127 119 134 137
-0.0549098 -0.854975 2.22741 102 135 120
0.395492 -1.61758 4.02539 103 139 133
1.54154 -3.54756 8.4913 129 166 158
-0.240094 -0.52799 1.32617 81 112 105
-0.0548656 -0.854729 2.23113 87 117 104
0.131152 -1.15713 2.98041 90 106 105
-0.225627 -0.552198 1.40418 93 101 94
-0.0061677 -0.924731 2.42196 79 100 91
-0.217756 -0.56226 1.44324 114 127 129
0.162476 -1.21385 3.1276 102 123 125
-0.262691 -0.482241 1.18413 73 87 76
-0.223549 -0.548455 1.41195 168 205 209
0.0743704 -1.05294 2.77043 144 199 184
-0.262016 -0.475804 1.17414 65 76 74
-0.218881 -0.552855 1.43185 98 138 120
-0.190754 -0.602057 1.58606 152 190 192
-0.259824 -0.479932 1.19632 112 144 143
-0.260983 -0.476118 1.18278 98 115 118
0.0755079 -1.03592 2.77198 155 216 190
0.0959891 -1.069 2.86625 156 201 185
0.116431 -1.09975 2.9412 125 154 151
0.484239 -1.71431 4.44293 143 171 178
0.426882 -1.60824 4.19756 102 124 119
-0.260069 -0.47118 1.179 89 130 132
4.45576 -8.15452 20.4768 105 159 142
-0.260704 -0.469956 1.1817 117 154 158
-0.257893 -0.473397 1.19807 218 243 245
-0.24757 -0.491176 1.25919 112 149 147
1.453 -3.26456 8.38313 82 95 93
1.90125 -3.99129 10.1717 141 163 161
0 0 0 129 178 164
-0.0204695 -0.86527 2.37618 191 228 220
-0.220628 -0.529793 1.40977 198 228 233
0.0476443 -0.962566 2.6578 92 121 112
0.587637 -1.83689 4.88964 198 242 235
0.271778 -1.33253 3.62472 167 218 220
0.339354 -1.43553 3.88662 93 129 129
0.578785 -1.81378 4.86678 103 154 140
-0.200957 -0.557083 1.51491 202 224 229
-0.129054 -0.676454 1.88671 115 145 150
-0.243191 -0.486819 1.27318 136 149 165
-0.182504 -0.584814 1.61314 117 154 162
1.14102 -2.6995 7.16552 114 148 142
-0.213752 -0.532956 1.44577 102 135 131
1.6222 -3.45095 9.14121 74 93 84
0.024829 -0.91332 2.58485 127 152 156
0.332603 -1.39603 3.87383 135 158 160
0.221967 -1.22245 3.43299 106 135 126
-0.170884 -0.596676 1.67202 132 169 177
0.587851 -1.78814 4.93749 105 136 127
1.88048 -3.79239 10.2886 77 114 98
2.35669 -4.5268 12.271 99 129 124
0.155166 -1.09938 3.14584 121 153 148
-0.205888 -0.527941 1.47183 118 169 165
0.0508676 -0.929073 2.70199 106 143 141
1.01448 -2.4168 6.74345 102 140 134
0.757624 -1.99384 5.65065 149 195 182
1.26988 -2.78528 7.78768 97 133 121
2.35727 -4.46603 12.3561 87 147 123
0.18382 -1.11828 3.27619 95 122 119
-0.0958074 -0.693196 2.03963 109 137 138
3.14613 -5.63174 15.6588 103 122 125
2.51697 -4.64438 13.0555 84 145 119
0.076648 -0.952961 2.82534 187 216 220
0.112151 -0.993779 2.95583 139 205 180
0.453289 -1.50087 4.43343 101 134 130
3.58377 -6.18235 17.6297 99 135 129
0.0183001 -0.8428 2.56541 113 147 136
0.330032 -1.30887 3.92233 114 157 144
2.35996 -4.31538 12.5693 95 132 130
0.217033 -1.12773 3.44782 94 124 125
0.444595 -1.44584 4.42647 111 155 149
0.697861 -1.81608 5.52142 140 175 179
0.939104 -2.14904 6.5528 179 227 229
-3.11409 3.74084 -11.0776 118 159 151
0.0207516 -0.817704 2.58171 126 163 155
0.29556 -1.21575 3.79409 109 147 147
0.59484 -1.64096 5.0837 76 101 91
-7.30189 9.71403 -28.9137 229 255 244
1.28058 -2.59946 8.00719 130 149 154
7.11953 -10.975 33.3082 106 133 137
-4.80914 6.09646 -18.2973 92 130 118
3.02997 -5.0589 15.599 71 124 114
0 0 0 100 129 113
-2.68362 3.04255 -9.367 127 150 145
0.72654 -1.77688 5.67862 86 115 100
-2.95295 3.36166 -10.4336 163 221 203
0.0196985 -0.783313 2.57308 94 167 157
-0.213412 -0.459297 1.36407 135 165 166
0.0204901 -0.7828 2.57943 92 171 158
0.284634 -1.14533 3.76651 122 149 146
1.73609 -3.14358 10.062 81 95 84
2.16423 -3.7475 11.9756 81 107 107
-0.204929 -0.460329 1.40503 96 146 144
-0.176218 -0.497894 1.57132 234 249 252
0.686317 -1.61404 5.53273 68 85 81
1.45832 -2.64387 8.97167 75 89 88
-0.110481 -0.567427 1.91569 113 162 160
1.72723 -2.91958 10.1722 92 117 121
2.01167 -3.16051 11.4364 204 235 236
-2.58471 2.54442 -9.09275 123 157 151
1.90594 -3.02046 11.0249 96 125 122
2.54848 -3.79436 13.8461 118 152 142
-0.0875715 -0.560579 2.01107 94 157 147
0.947871 -1.82261 6.72564 121 163 152
1.47128 -2.4561 9.05937 163 215 192
1.93728 -3.05313 11.2021 127 159 148
1.2494 -2.15 8.1192 93 116 112
1.36267 -2.27803 8.63083 192 229 233
-0.136178 -0.486084 1.73377 167 215 217
6.64374 -8.50863 32.0777 89 119 106
-0.148 -0.468359 1.65832 218 238 243
-0.19844 -0.409549 1.35299 85 107 102
-0.130724 -0.486909 1.75748 94 108 104
-0.200216 -0.407065 1.3406 170 227 218
-0.181384 -0.426219 1.45689 95 148 135
1.27393 -2.11745 8.25342 213 232 239
1.11177 -1.89376 7.53924 107 123 116
-0.177468 -0.421152 1.46668 131 162 155
-0.137552 -0.460984 1.69594 188 217 221
3.90003 -5.0116 20.0882 112 145 141
-0.125542 -0.472353 1.7627 143 172 179
-0.146783 -0.446369 1.63359 188 227 229
-0.0994019 -0.494241 1.88471 196 216 227
-4.93539 4.91584 -19.7922 120 145 149
-3.01833 2.78194 -11.187 116 154 154
-0.141357 -0.44872 1.65763 97 128 113
-0.14611 -0.439538 1.62792 172 213 215
0.323598 -0.941282 3.93049 157 197 196
-0.134958 -0.45025 1.68989 115 159 152
-0.121896 -0.462391 1.76553 104 109 107
-2.34387 1.99238 -8.16375 121 143 141
-0.0920633 -0.485009 1.92308 158 192 186
0.582149 -1.18598 5.13344 115 147 142
-2.30907 1.88708 -7.9937 123 150 147
-0.0868625 -0.484341 1.94404 89 109 96
-3.05516 2.67915 -11.4444 130 176 170
-0.040464 -0.528692 2.18213 102 119 116
-0.143206 -0.421768 1.60972 183 207 207
0.0585883 -0.602608 2.67066 102 130 124
-0.135394 -0.411955 1.6275 168 203 246
-0.0643627 -0.474808 2.02717 109 137 124
-0.00978769 -0.521424 2.30108 207 232 236
0.0627902 -0.596966 2.68677 152 199 196
-0.0389314 -0.489754 2.14305 82 98 105
-0.105747 -0.426077 1.77555 73 95 90
-0.000540358 -0.511507 2.33379 157 204 188
0.412681 -0.894553 4.3512 75 92 89
0.101228 -0.601189 2.85333 83 103 98
0.157447 -0.652628 3.13197 165 216 208
0.0621787 -0.559437 2.64273 153 190 182
0.174226 -0.667564 3.21296 216 233 242
0.868921 -1.30661 6.45871 78 102 92
-0.0463521 -0.462737 2.08837 94 153 138
0.0796549 -0.574794 2.73364 105 139 133
-0.110989 -0.406045 1.7261 88 99 96
0.0732826 -0.567224 2.69663 68 86 79
0.636036 -1.07464 5.40068 92 107 93
0.131085 -0.612653 2.98219 151 206 191
-0.0707755 -0.433402 1.95109 80 102 97
0.112549 -0.589863 2.88368 103 117 115
0.164207 -0.622062 3.13396 93 113 130
-0.0115497 -0.470292 2.25963 242 251 248
0.430421 -0.821276 4.381 50 67 54
-1.29417 0.634649 -3.56875 197 246 230
-1.2755 0.601763 -3.47153 116 152 146
-0.0440454 -0.414937 2.04818 148 197 181
-0.0858495 -0.381501 1.81264 121 179 161
-0.0749483 -0.388496 1.87236 95 119 109
-0.0817799 -0.383776 1.83758 91 113 95
-0.046247 -0.399406 2.0171 65 103 85
3.25766 -2.66383 17.3832 114 167 157
0.867172 -0.81866 6.2354 123 121 121
1.04974 -0.686889 7.03526 62 61 65
1.09168 -0.67273 7.23179 202 209 212
1.1788 -0.669153 7.60229 54 61 54
1.27622 -0.671038 8.06992 95 92 88
0.378626 -0.355583 3.90865 77 111 87
0.841438 -0.505382 6.07603 119 174 157
0.508093 -0.392114 4.51316 133 189 166
1.40041 -0.674119 8.65149 122 169 160
0.445898 -0.366118 4.21147 138 185 176
0.371404 -0.326376 3.84075 89 115 99
0.706252 -0.418858 5.4114 62 88 64
1.91749 -0.785495 10.9834 137 167 168
0.369203 -0.319726 3.81484 123 161 155
0.661785 -0.384052 5.17147 115 156 159
0.349553 -0.302198 3.71105 145 187 170
0.892363 -0.433411 6.24258 95 123 110
0.740145 -0.384806 5.54154 123 168 152
0.755893 -0.369489 5.61106 123 139 132
1.25317 -0.442123 7.83315 137 174 158
0.27471 -0.239155 3.29587 139 202 182
1.02256 -0.360321 6.79414 135 167 148
2.35249 -0.594474 12.854 79 111 100
0.403555 -0.233214 3.90809 109 135 129
1.12673 -0.343804 7.24291 66 80 56
0.30383 -0.218098 3.41025 149 204 189
1.30173 -0.346665 8.00066 107 133 109
2.77589 -0.310307 14.5875 158 193 196
0.070977 -0.164188 2.14425 87 123 101
0.0777216 -0.155308 2.16379 112 154 136
0.067819 -0.152158 2.07129 114 161 139
0.09506 -0.14405 2.24242 134 192 167
5.37643 -0.124849 26.1585 82 116 105
0 0 0 93 145 121
5.17091 -0.0100416 25.1694 102 123 120
1.93681 0.0208744 10.6957 97 140 127
0.0377444 -0.13954 1.8527 93 126 111
0.0402487 -0.136417 1.84285 87 115 96
-0.00753333 -0.157393 1.55738 99 152 132
3.11978 0.305295 15.8219 114 167 153
1.98893 0.236647 10.8403 69 97 77
-5.27814 -2.63105 -21.0422 142 201 187
-1.60864 -0.720108 -4.88589 92 145 125
-2.06149 -1.47194 -7.04636 100 115 117
-0.86936 -0.33705 -1.50649 164 213 197
1.1232 1.60555 6.35275 92 126 116
-0.865011 -0.352476 -1.47407 144 146 147
-2.63894 -4.36298 -11.4509 114 131 134
-0.281661 -0.575315 1.17147 33 51 34
-0.207831 -0.730872 1.52424 149 213 184
0.176635 -1.47515 2.81897 149 227 196
0.168811 -1.46061 2.81308 52 70 63
-0.208595 -0.730343 1.52726 155 215 191
-0.0577045 -1.02963 2.09359 137 200 168
-0.263125 -0.603023 1.26251 43 65 53
-0.230707 -0.6745 1.42228 67 86 71
-0.0534703 -1.02954 2.11926 60 64 59
-0.276113 -0.571987 1.19224 140 217 180
-0.266193 -0.594026 1.24153 53 73 54
-0.242242 -0.644912 1.35974 49 80 65
-0.202245 -0.736765 1.56058 66 101 81
-0.290054 -0.536399 1.1069 51 68 55
-0.0150965 -1.09776 2.26689 196 233 229
-0.266952 -0.58312 1.23377 72 92 69
-0.261002 -0.597272 1.27393 110 183 145
-0.286474 -0.532782 1.11815 151 205 176
-0.0615714 -0.996214 2.11285 56 77 68
0.0342854 -1.17096 2.44038 177 222 213
1.21841 -3.38277 6.21527 105 178 140
-0.262096 -0.587242 1.26053 149 212 186
-0.253088 -0.607111 1.31679 34 44 31
-0.218728 -0.680697 1.48717 55 93 75
-0.0727616 -0.967583 2.06841 104 128 118
-0.186471 -0.740895 1.62432 137 200 168
-0.0425022 -1.02314 2.1843 148 212 193
0.0143251 -1.12679 2.38666 144 171 168
-0.189199 -0.735677 1.6212 181 230 210
-0.0666844 -0.970666 2.10138 83 107 99
-0.258269 -0.587322 1.28007 63 97 73
-0.17058 -0.769267 1.70113 89 139 121
0.738766 -2.45033 4.80707 99 131 120
-0.176737 -0.750505 1.66925 157 213 190
-0.181725 -0.737985 1.6475 98 146 122
-0.285744 -0.512656 1.10092 159 210 182
-0.144352 -0.807917 1.81021 69 111 86
-0.0741478 -0.944268 2.08842 87 129 112
0.675679 -2.31526 4.64028 128 176 164
-0.249513 -0.59857 1.33351 49 59 42
-0.219767 -0.659978 1.48334 83 108 104
-0.14478 -0.806943 1.81928 73 117 94
-0.0127044 -1.04385 2.34312 186 248 218
0.232043 -1.48795 3.2005 156 235 202
1.03512 -2.96007 6.01067 98 138 127
-0.271797 -0.532787 1.19035 114 157 142
-0.206839 -0.669516 1.53787 69 87 80
-0.0708778 -0.928529 2.10803 157 218 192
-0.232809 -0.612653 1.41192 204 225 223
-0.149396 -0.777894 1.80077 129 154 150
0.236236 -1.48631 3.24694 86 106 101
-0.193153 -0.692835 1.60305 112 133 125
-0.275863 -0.509718 1.13999 85 116 95
-0.271928 -0.523261 1.17866 133 200 168
-0.157342 -0.75155 1.76712 210 236 242
-0.0771624 -0.901292 2.10451 158 214 185
-0.0507072 -0.949405 2.19959 151 210 189
-0.238229 -0.592814 1.37724 86 100 98
-0.215387 -0.636163 1.49144 198 223 227
-0.161251 -0.744939 1.75649 103 131 125
-0.269784 -0.526612 1.20081 29 43 32
-0.266649 -0.531293 1.21477 142 214 178
-0.180496 -0.6935 1.6608 103 115 119
-0.160476 -0.732369 1.75227 127 148 149
0.0527325 -1.12536 2.62682 120 147 143
1.71464 -4.06662 8.66659 173 226 206
-0.234621 -0.585817 1.38769 106 123 120
0.0174379 -1.05013 2.47733 107 137 124
-0.267051 -0.52322 1.20781 152 214 192
0.0491827 -1.10583 2.61949 86 107 99
0.947082 -2.68919 5.91947 117 154 146
0.0811733 -1.15372 2.7488 121 148 144
4.06096 -8.13261 17.6483 132 163 160
-0.268504 -0.508738 1.1912 158 219 205
-0.236575 -0.569646 1.37295 173 224 216
-0.0647273 -0.87983 2.15623 64 78 74
0.564781 -1.98848 4.57535 150 198 186
-0.242475 -0.555733 1.33723 64 81 68
-0.216562 -0.604981 1.47649 199 227 228
1.2983 -3.25805 7.33943 111 163 146
-0.109537 -0.797662 1.98449 88 109 101
-0.0650115 -0.869205 2.15547 152 207 180
-0.00449538 -0.976654 2.40763 70 97 88
0.134263 -1.23069 2.96884 155 212 213
0.501683 -1.85651 4.32457 80 90 84
0.966944 -2.67164 6.08785 99 141 130
-0.255769 -0.519895 1.24887 57 82 78
-0.244596 -0.541828 1.31547 69 118 98
0.0082521 -0.988784 2.46249 150 206 193
1.44588 -3.48862 7.97005 157 213 194
3.07671 -6.33403 14.2028 134 171 161
0.0267315 -1.02289 2.55386 163 217 194
0.356983 -1.59472 3.85528 110 144 133
1.68399 -3.88628 8.94571 90 141 121
-0.23837 -0.544768 1.34442 85 118 104
-0.230639 -0.560397 1.39221 83 109 86
0 0 0 91 125 115
-0.0688858 -0.844055 2.17125 169 210 205
0.39834 -1.6441 4.02741 110 166 143
-0.26905 -0.482924 1.15885 172 213 206
-0.11354 -0.757317 1.94989 84 111 101
0.0649304 -1.06788 2.71114 147 194 186
0.475364 -1.7695 4.33512 120 180 150
0.693261 -2.14259 5.16825 111 132 140
-0.243777 -0.525747 1.30754 96 132 116
-0.234235 -0.544766 1.36206 166 211 192
-0.103103 -0.77907 2.01527 105 124 127
-0.00650449 -0.943559 2.42396 73 93 81
0.0126238 -0.971891 2.50078 104 119 121
-0.0452272 -0.871347 2.2615 54 80 67
-0.242343 -0.526604 1.31447 112 145 130
0.123433 -1.14952 2.95575 90 109 106
-0.264563 -0.475405 1.16205 60 86 73
-0.259606 -0.488054 1.20534 159 209 199
-0.257203 -0.493178 1.22191 90 122 117
-0.222746 -0.549612 1.41623 187 220 223
0.0598486 -1.02665 2.69761 56 70 59
0.0716754 -1.05295 2.76636 151 207 194
0.22709 -1.31713 3.40527 128 163 159
0.398213 -1.59888 4.08733 153 212 198
-0.262383 -0.475795 1.17391 68 79 77
-0.192954 -0.598774 1.57701 196 221 225
-0.213875 -0.557593 1.46227 129 145 144
0.638756 -1.96993 5.07048 107 166 135
3.34972 -6.46121 15.8941 90 130 119
-0.18758 -0.596187 1.59511 104 136 131
-0.0155075 -0.88317 2.39233 73 102 93
0.42415 -1.60837 4.20512 94 123 114
0.74391 -2.13109 5.49805 119 166 144
-0.251214 -0.487592 1.23934 112 146 139
0 0 0 102 148 129
-0.224193 -0.533215 1.40125 92 111 108
0.105416 -1.06888 2.90271 69 94 84
-0.183215 -0.600187 1.62609 143 196 183
1.64669 -3.57953 9.19549 153 186 182
-0.00571687 -0.885383 2.45226 115 147 136
0.464742 -1.64388 4.39923 176 233 218
-0.21168 -0.542243 1.45955 100 110 110
0.439546 -1.59008 4.30637 186 221 225
-0.103986 -0.715945 2.00876 94 117 112
0.11527 -1.06474 2.95882 153 223 210
0.133478 -1.10193 3.04757 114 131 128
-0.10472 -0.710057 1.9934 98 128 123
0.0902042 -1.01192 2.84609 142 209 194
3.23666 -6.03278 15.8369 124 163 155
-0.247748 -0.473095 1.23507 121 164 161
0.146578 -1.08591 3.10914 105 122 119
1.52653 -3.21258 8.84322 175 225 215
0.0970676 -0.999519 2.89554 58 75 71
-5.66325 7.9159 -21.6316 99 128 119
0.183995 -1.11828 3.27641 85 114 111
0.230109 -1.18936 3.48867 97 128 119
4.65972 -7.92677 22.2405 87 100 98
-3.77105 4.95492 -13.7741 129 158 155
0.093975 -0.964929 2.89638 118 152 158
0.417898 -1.45867 4.30334 97 134 126
0.118094 -0.997624 2.99927 169 219 207
0.336015 -1.32148 3.94246 100 135 125
0.0170463 -0.839507 2.56729 113 132 123
0.491289 -1.55591 4.64889 164 206 211
0.534036 -1.60506 4.81236 90 108 101
0.565441 -1.64911 4.92836 82 104 92
0.56507 -1.6473 4.91539 88 112 100
0.249014 -1.17974 3.59015 118 166 160
0.213092 -1.12484 3.44203 105 133 133
-0.23521 -0.451885 1.26544 112 162 150
0.441894 -1.44589 4.42552 114 158 152
7.28902 -11.4529 33.7587 168 212 205
0.018298 -0.818427 2.57466 110 146 140
0.289913 -1.21179 3.79113 102 137 133
0.96593 -2.1917 6.71846 182 220 220
0.705221 -1.76417 5.60255 85 114 98
0.755799 -1.83332 5.82603 162 199 203
1.05192 -2.24131 7.10792 104 136 131
-2.73595 3.1246 -9.63079 95 108 100
-2.78352 3.1417 -9.74741 106 124 117
0.27882 -1.13647 3.74686 124 151 147
1.71813 -3.13132 10.0283 86 94 84
0.571285 -1.53199 5.01691 108 142 136
0.27213 -1.11373 3.71198 118 139 136
-0.169786 -0.500732 1.60248 107 163 152
1.1901 -2.30858 7.76484 154 191 183
1.62537 -2.89857 9.62044 132 163 156
2.22186 -3.69618 12.3437 111 153 142
0.67282 -1.5993 5.47921 88 101 99
0.634974 -1.54398 5.33836 123 158 148
-2.87948 3.08811 -10.3237 90 125 111
0.812623 -1.74587 6.13283 73 101 95
3.45555 -5.07354 17.7615 124 149 135
0.748762 -1.61251 5.85977 112 147 137
1.85298 -2.94808 10.7785 117 145 139
-0.151336 -0.477775 1.65947 83 92 82
1.36435 -2.3238 8.64135 91 102 92
-2.82882 2.77889 -10.2358 94 131 127
-0.136425 -0.485965 1.73401 165 208 211
1.08357 -1.93906 7.40533 234 247 249
1.76444 -2.72706 10.3726 112 152 150
6.64138 -8.50964 32.0818 89 119 106
1.6519 -2.57747 9.90549 117 156 140
-0.130993 -0.486639 1.75827 87 99 93
-0.164896 -0.439588 1.5494 94 95 93
-0.145682 -0.464101 1.66904 101 126 116
-0.135305 -0.470948 1.71824 92 109 100
-0.180307 -0.420727 1.44086 85 103 86
-0.177694 -0.424319 1.47318 156 191 187
-0.161282 -0.442624 1.57799 145 183 187
1.48486 -2.28862 9.26378 111 156 147
-0.156743 -0.433674 1.57744 75 77 65
-0.128539 -0.466294 1.74692 189 215 222
-0.151261 -0.435768 1.60313 177 207 208
-0.137675 -0.452786 1.68682 156 211 208
-0.111057 -0.471437 1.80916 162 203 206
0.374146 -1.00368 4.1912 100 121 112
-0.0483879 -0.536493 2.17039 214 233 240
-0.113318 -0.468181 1.81924 148 172 172
0.540944 -1.15882 4.97205 87 98 82
-0.129536 -0.44653 1.72172 63 76 60
-0.0543321 -0.518971 2.12959 94 111 100
0.0808124 -0.661951 2.81312 231 250 255
0.55001 -1.1266 4.99179 134 172 166
0.30462 -0.872147 3.86938 92 123 122
0.340457 -0.900218 4.02874 136 181 185
1.04458 -1.64026 7.25829 182 214 219
-0.0785145 -0.478939 1.97098 145 191 192
-0.0908293 -0.46282 1.90895 159 189 190
0.0460426 -0.592268 2.60237 81 98 85
-0.0307348 -0.510791 2.2119 136 169 178
-0.089726 -0.4464 1.87794 153 176 221
-0.0408946 -0.487984 2.14461 103 134 133
0.0282951 -0.554653 2.49471 148 193 166
0.937916 -1.40185 6.77952 89 95 84
0.0444182 -0.556259 2.57137 70 75 60
0.170181 -0.666451 3.20524 226 249 255
0.952395 -1.40895 6.89932 83 97 86
0.0712635 -0.566807 2.70338 62 82 77
0.630063 -1.07423 5.37433 99 121 103
0.105052 -0.586495 2.86657 44 54 84
-0.0572742 -0.445155 2.03601 180 218 218
0.0599507 -0.534587 2.63039 111 156 140
0.0836405 -0.549703 2.74491 124 177 163
-0.0410029 -0.444688 2.10094 107 153 141
-0.0694265 -0.413266 1.92777 150 203 189
-1.31678 0.662068 -3.6794 130 171 163
-1.34901 0.682311 -3.81999 152 186 185
-0.0354536 -0.424721 2.11231 92 125 111
-0.0558007 -0.399875 1.98298 157 203 204
-0.0356622 -0.39972 2.07423 95 128 113
-0.075202 -0.366266 1.84482 100 133 118
0.932748 -0.880006 6.64869 97 94 89
0.895066 -0.812571 6.45243 174 197 212
0.776757 -0.727624 5.82018 255 255 255
1.18792 -0.66342 7.64886 62 64 58
0.52488 -0.410788 4.62853 78 115 99
0.498769 -0.393648 4.48516 156 215 194
0.377335 -0.347296 3.88948 82 100 77
0.700863 -0.413608 5.40802 59 82 60
0.806241 -0.417296 5.85582 144 206 190
0.244715 -0.258751 3.20182 85 105 93
1.0273 -0.42404 6.87175 88 118 105
1.03127 -0.396627 6.8098 81 98 77
2.34651 -0.59554 12.8188 95 128 114
1.95057 -0.51283 10.9557 196 217 215
1.93876 -0.487117 10.9512 184 209 205
1.31771 -0.336545 8.10061 78 92 68
1.92599 -0.392353 10.7846 62 63 53
1.45863 -0.302314 8.75175 164 193 190
2.23413 -0.375678 12.2387 168 191 193
1.70804 -0.164377 9.7854 90 107 94
0.0814392 -0.157444 2.1973 72 105 84
0.076588 -0.152247 2.13513 83 107 83
0.118971 -0.139947 2.37054 74 83 62
0.0976654 -0.140699 2.25472 130 190 160
3.87518 0.0818222 19.4579 170 196 203
1.95083 0.0371424 10.8285 88 128 110
1.86562 0.0800572 10.4626 86 101 93
0.0597598 -0.134997 1.96217 115 161 132
8.12533 0.47674 38.2813 97 155 137
1.89255 0.143039 10.5118 131 188 179
1.62038 0.323501 9.13864 87 124 108
1.47311 0.334968 8.48522 90 122 111
6.59894 7.60128 31.2023 142 177 191
-0.868124 -0.350256 -1.49649 68 86 69
-1.18367 -0.914896 -3.1715 153 204 196
-1.22793 -1.03344 -3.44758 79 92 76
-1.08988 -1.01114 -2.90454 88 129 108
-1.08028 -0.945672 -2.78273 137 194 179
-1.61571 -2.97961 -6.84859 165 178 200
