ply
format ascii 1.0
element vertex 1231
property float x
property float y
property float z
property uchar blue
property uchar green
property uchar red
end_header
-0.507514 -0.276183 1.75062 206 255 248
-0.226045 -0.280484 1.77538 103 152 168
0.323313 -0.284745 1.80345 76 151 159
0.0765385 -0.279522 1.77636 123 212 168
0.567409 -0.273225 1.74157 118 144 204
-0.797367 -0.272681 1.73844 52 107 88
0.30426 -0.281598 1.80247 132 214 195
0.308906 -0.281695 1.80331 135 207 185
-0.246507 -0.274587 1.76741 70 154 142
0.0717482 -0.276045 1.77547 56 139 100
-0.360276 -0.273607 1.76141 62 148 114
-0.227941 -0.276025 1.77679 157 199 228
-0.246209 -0.27377 1.76943 61 141 158
-0.832089 -0.267984 1.73541 66 126 102
0.107497 -0.274183 1.77938 62 150 104
0.0705508 -0.273451 1.7759 136 206 165
0.12792 -0.273969 1.78118 52 139 106
-0.227505 -0.272541 1.77613 91 151 157
0.109994 -0.273152 1.78022 88 179 130
-0.358892 -0.270026 1.76202 72 143 117
0.852741 -0.280441 1.84046 77 148 131
-0.229543 -0.270565 1.77675 155 208 221
-0.367474 -0.26502 1.76181 58 127 100
-0.230698 -0.267419 1.77596 80 130 128
0.286474 -0.271678 1.80333 53 136 114
-0.330734 -0.264597 1.76287 59 139 122
-0.310723 -0.265244 1.76367 58 137 104
-0.939855 -0.260252 1.72818 132 197 171
-0.289467 -0.264831 1.76553 61 139 102
-0.274603 -0.26514 1.76701 53 136 97
-0.247383 -0.264988 1.76902 56 125 105
-0.806333 -0.260611 1.73921 132 216 187
-0.30766 -0.264311 1.76504 66 153 117
0.154643 -0.266934 1.78366 163 242 198
-0.727377 -0.261172 1.74482 170 229 231
0.168136 -0.264867 1.78508 70 155 117
-0.251632 -0.260798 1.76862 141 224 186
0.501977 -0.255503 1.73044 199 229 255
-0.795499 -0.256904 1.74166 59 129 106
-0.860686 -0.255294 1.73729 152 214 192
-0.0776214 -0.247534 1.68717 55 109 194
0.123654 -0.260624 1.78204 58 141 96
0.134571 -0.260745 1.78358 139 231 196
-0.373713 -0.257401 1.76264 72 154 125
-0.212011 -0.258797 1.77282 88 162 150
0.0837935 -0.258477 1.7782 134 222 182
-0.247404 -0.255473 1.76973 72 144 152
-0.788664 -0.250043 1.74247 135 205 182
-0.213306 -0.253873 1.77286 71 120 130
-0.215467 -0.25236 1.77063 56 97 130
-0.728653 -0.249393 1.74624 94 151 153
-0.742153 -0.248372 1.74578 79 144 135
0.516297 -0.246559 1.73583 200 239 255
-0.251695 -0.249595 1.76993 162 229 200
-0.766195 -0.24597 1.74479 56 125 110
-0.25153 -0.249442 1.7703 138 206 183
-0.904248 -0.243883 1.73372 62 132 102
-0.8514 -0.244346 1.73875 37 92 75
-0.285808 -0.247722 1.76852 43 127 85
-0.285483 -0.247739 1.7685 48 134 92
0.100296 -0.249348 1.78049 49 141 92
-0.420412 -0.245941 1.76198 82 146 141
0.0744066 -0.246854 1.77857 69 151 109
0.121164 -0.247313 1.78269 56 138 95
-0.249489 -0.245232 1.77131 85 155 168
0.0815697 -0.245239 1.77868 72 161 121
-0.292199 -0.242875 1.76822 73 160 116
0.0993046 -0.244113 1.78092 62 161 111
-0.216996 -0.241862 1.77377 71 128 150
-0.32102 -0.240648 1.76684 48 139 94
-0.331392 -0.23809 1.76687 62 144 109
-0.263161 -0.238767 1.77062 119 199 164
-0.919191 -0.233872 1.73484 137 207 171
-0.715606 -0.235253 1.74905 178 232 227
-0.250328 -0.238237 1.77218 69 156 142
0.496025 -0.23056 1.7355 176 215 255
-0.715423 -0.231481 1.74892 84 138 131
-0.680752 -0.231743 1.7523 96 148 155
-0.647792 -0.231721 1.75302 85 154 141
-0.0301386 -0.319108 2.4271 119 146 227
0.182569 -0.231547 1.79823 144 220 249
0.42757 -0.220197 1.72131 111 162 232
-0.804815 -0.222996 1.74577 154 222 205
-0.242156 -0.225366 1.77275 82 119 141
-0.233507 -0.226502 1.78212 45 86 111
-0.927143 -0.220837 1.73602 110 195 157
-0.50802 -0.223195 1.75938 67 130 121
-0.2576 -0.223877 1.77231 48 135 97
-0.263294 -0.223305 1.77146 145 212 180
-0.233866 -0.224657 1.78166 121 179 184
0.154625 -0.225536 1.79208 122 210 174
0.10758 -0.223602 1.78333 141 223 181
-0.758084 -0.219555 1.7496 52 117 96
-0.260074 -0.221233 1.77316 128 196 165
-0.249385 -0.220786 1.77356 145 213 226
-0.755402 -0.216932 1.75053 66 136 119
-0.304227 -0.218325 1.77172 115 157 140
0.159439 -0.220656 1.79471 67 148 109
0.112853 -0.218837 1.78632 31 108 80
-0.693847 -0.214981 1.75507 186 235 233
-0.304165 -0.216446 1.7714 166 226 202
0.481145 -0.209107 1.73744 175 229 255
-0.719083 -0.210827 1.75237 110 161 153
-0.233445 -0.214334 1.78336 141 192 212
-0.217571 -0.2133 1.77725 91 144 154
-0.24888 -0.21063 1.77528 96 148 171
-0.485027 -0.207784 1.76349 188 239 231
-0.786328 -0.206126 1.75008 144 213 192
-0.345271 -0.208411 1.77109 131 217 175
-0.526582 -0.20686 1.76124 85 153 142
0.0621442 -0.208774 1.78102 114 173 142
-0.245334 -0.20637 1.77538 148 199 225
-0.258291 -0.204115 1.77553 126 205 172
-0.24565 -0.204315 1.77583 103 150 181
-0.920164 -0.200909 1.73972 114 189 161
-0.695915 -0.202364 1.75603 172 232 221
-0.292468 -0.202556 1.7731 142 220 179
-0.456329 -0.201282 1.76583 75 140 125
-0.38197 -0.20149 1.77154 145 216 189
0.615112 -0.207475 1.82999 79 158 139
-0.464361 -0.199882 1.76559 82 142 131
-0.38634 -0.200105 1.77056 70 145 117
-0.713404 -0.198179 1.75516 170 227 219
0.078744 -0.199045 1.78365 56 141 103
0.060527 -0.197604 1.78016 133 190 151
-0.752419 -0.194617 1.75363 138 207 192
-0.382447 -0.196466 1.77092 79 141 117
0.0607346 -0.197324 1.78079 135 198 156
-0.386113 -0.195877 1.77154 81 152 125
-0.236782 -0.197381 1.78409 53 105 111
0.0637917 -0.196724 1.7806 71 138 99
-0.373606 -0.195094 1.77267 62 133 106
-0.713146 -0.191854 1.75674 159 234 220
-0.222297 -0.192545 1.7788 94 138 169
0.0888513 -0.193287 1.78605 115 204 161
0.058918 -0.192207 1.7806 57 123 88
0.624209 -0.197599 1.83059 78 163 131
-0.709913 -0.189493 1.7567 146 217 201
-0.23621 -0.191668 1.78455 130 202 196
-0.275902 -0.189923 1.77592 122 211 168
0.0667413 -0.190473 1.78147 54 145 96
-0.219636 -0.188698 1.77798 143 208 192
-0.222783 -0.18694 1.7784 81 135 165
0.073501 -0.187067 1.78353 49 151 104
0.124956 -0.188087 1.79745 60 141 116
0.0766056 -0.185271 1.78416 41 133 86
0.127011 -0.186844 1.79859 135 210 226
-0.242287 -0.189775 1.83443 52 101 115
-0.950376 -0.178352 1.73933 65 136 110
-0.398222 -0.181452 1.77325 55 147 118
-0.258688 -0.181522 1.7769 58 119 133
-0.703328 -0.179451 1.75859 161 228 213
0.119773 -0.182255 1.79788 73 161 138
-0.739417 -0.178115 1.7569 159 221 209
-0.592865 -0.178244 1.76174 111 168 199
-0.261402 -0.179296 1.77788 198 247 245
-0.239539 -0.179823 1.78645 79 113 119
-0.819448 -0.175635 1.75272 69 131 115
-0.602674 -0.176469 1.76161 91 144 141
0.653155 -0.181983 1.83388 75 159 134
-0.275887 -0.175444 1.77756 53 116 90
-0.894291 -0.172496 1.74834 143 199 194
0.67818 -0.180636 1.83583 78 154 130
-0.238778 -0.175206 1.78623 90 139 149
-0.700293 -0.172221 1.7598 146 211 195
0.214649 -0.168855 1.7277 188 229 255
-0.307421 -0.170795 1.77793 68 134 105
-0.406725 -0.169994 1.77319 51 116 84
-0.259857 -0.169976 1.77945 151 235 217
-0.440509 -0.167669 1.77213 71 146 124
-0.2556 -0.168674 1.77924 99 174 196
-0.236942 -0.169757 1.7882 124 185 205
-0.403192 -0.167466 1.7743 151 213 197
-0.438516 -0.166259 1.77219 59 138 119
-0.45064 -0.16549 1.77152 72 152 129
0.629289 -0.17107 1.83389 75 146 126
-0.916192 -0.163476 1.74717 65 136 116
-0.711237 -0.161989 1.76039 60 134 122
0.160267 -0.165215 1.80301 63 140 133
-0.905481 -0.160793 1.74925 70 138 121
-0.273233 -0.162033 1.77864 55 145 110
0.151468 -0.163855 1.80139 148 227 218
-0.224544 -0.160778 1.78054 193 240 255
-0.43163 -0.15947 1.77336 57 131 101
-0.273027 -0.158176 1.77972 53 134 101
-0.253683 -0.157268 1.77942 123 174 217
0.745214 -0.16014 1.84195 164 235 209
-0.266355 -0.154065 1.78039 70 150 121
-0.25496 -0.153415 1.77939 94 154 190
0.161907 -0.155388 1.80298 68 147 136
-0.93557 -0.148529 1.74681 65 121 108
0.141968 -0.152925 1.80326 52 121 124
-0.458493 -0.149136 1.77425 78 122 116
-0.362196 -0.148954 1.77972 82 143 133
0.148705 -0.149622 1.80386 92 149 175
-0.377414 -0.145463 1.77917 60 129 102
-0.0580959 -0.397639 4.88332 102 152 240
-0.258379 -0.144907 1.78025 99 167 190
-0.418308 -0.142834 1.77677 226 255 255
-0.466998 -0.142002 1.77412 69 129 111
0.77699 -0.147311 1.84405 86 167 142
-0.274448 -0.141323 1.78093 68 136 101
0.131497 -0.143108 1.80298 73 150 142
-0.471208 -0.140535 1.77571 77 133 114
-0.398925 -0.140627 1.77834 135 197 181
-0.271377 -0.138463 1.78216 43 127 99
-0.501899 -0.13757 1.77218 62 119 118
-0.403361 -0.138432 1.77902 71 129 111
-0.469148 -0.137132 1.77509 124 194 164
-0.353689 -0.137279 1.78081 69 141 121
-0.985487 -0.134919 1.74221 60 112 105
-0.282924 -0.137082 1.7802 40 125 81
-0.420406 -0.136551 1.77785 67 135 110
0.659487 -0.140554 1.83728 88 165 138
0.763938 -0.141068 1.84465 129 202 176
-0.449421 -0.135232 1.77721 82 160 129
-0.427073 -0.135719 1.77697 66 140 114
-0.26169 -0.133632 1.78103 64 132 139
0.134829 -0.134723 1.80349 140 204 205
-0.304699 -0.133203 1.78205 56 131 115
0.594582 -0.13669 1.83338 134 167 170
0.139896 -0.133761 1.80245 79 98 111
0.614753 -0.135945 1.83553 162 224 210
-0.479826 -0.131389 1.77541 180 226 203
0.625195 -0.135152 1.83589 92 154 140
-0.264574 -0.131296 1.78173 49 134 112
0.677737 -0.134606 1.83955 79 154 126
-0.401245 -0.129994 1.77983 55 133 110
0.127674 -0.131249 1.80304 159 226 217
0.540982 -0.13123 1.83065 89 159 136
0.102975 -0.127499 1.80217 78 132 167
0.725779 -0.130542 1.84355 68 143 115
0.682883 -0.129544 1.84008 61 136 108
0.674244 -0.129011 1.83855 149 230 197
-0.228247 -0.124291 1.78315 95 144 182
0.688425 -0.128871 1.84103 66 140 112
-0.443829 -0.123512 1.77908 63 134 107
0.745176 -0.127862 1.84447 81 153 131
-0.435073 -0.121697 1.77845 118 185 154
0.0831276 -0.123743 1.80229 86 160 160
0.352151 -0.117718 1.73189 194 229 255
-0.477524 -0.120681 1.77674 66 147 120
0.117543 -0.122359 1.80299 141 205 199
0.790673 -0.124534 1.84707 96 154 130
-0.296861 -0.120118 1.78403 151 223 203
-0.285993 -0.119986 1.78371 159 229 212
0.104723 -0.121315 1.8023 159 226 221
0.59509 -0.123635 1.83538 124 169 173
-0.397977 -0.118507 1.78165 65 133 110
-0.473178 -0.117355 1.77798 65 143 112
-0.407649 -0.117767 1.7812 139 214 198
0.657283 -0.12087 1.83707 157 238 205
-0.468374 -0.116195 1.7787 58 140 105
-0.457911 -0.115648 1.77972 52 131 98
-0.277323 -0.113716 1.78406 44 127 95
-0.477696 -0.113003 1.77791 182 249 220
-0.479635 -0.112105 1.77802 44 124 95
-0.477729 -0.112522 1.77888 174 246 216
-0.47936 -0.112062 1.77812 52 132 103
-0.458291 -0.111719 1.78069 138 214 190
-0.378529 -0.110075 1.78279 150 217 190
0.67046 -0.110647 1.84136 87 159 137
-0.465069 -0.105938 1.78028 58 126 101
-0.453663 -0.105338 1.78104 181 238 213
0.0826287 -0.106782 1.8019 66 128 144
0.658076 -0.108723 1.8395 149 223 193
-0.683389 -0.104213 1.77009 150 210 192
-0.38329 -0.104461 1.78294 149 223 193
-0.284799 -0.104466 1.78525 69 155 113
-0.945229 -0.102253 1.75344 56 118 102
0.0815971 -0.104457 1.80156 128 204 203
0.0898213 -0.104359 1.80324 155 215 227
0.588714 -0.105638 1.83454 86 158 136
-0.291458 -0.102142 1.78469 136 214 177
-0.637188 -0.101352 1.77212 77 131 124
-0.450406 -0.101558 1.78173 66 140 104
-0.377715 -0.101637 1.78427 156 224 199
0.664559 -0.104779 1.84119 67 128 108
-0.482201 -0.100942 1.77939 63 135 115
0.739204 -0.102539 1.84562 136 191 166
-0.635333 -0.0975156 1.77341 76 142 137
-1.04341 -0.0963432 1.74169 78 141 131
-0.455335 -0.0964726 1.78262 83 164 131
-0.422081 -0.0967349 1.78395 77 152 138
0.653342 -0.0989842 1.83865 132 200 177
-0.505816 -0.0956515 1.7792 148 213 191
-0.414803 -0.095716 1.78386 79 144 129
0.665841 -0.0988851 1.84066 147 224 190
-0.246775 -0.0944388 1.79337 109 169 168
-0.449868 -0.0936471 1.78291 61 124 92
-0.349043 -0.0932856 1.78597 63 156 117
-0.509029 -0.0925865 1.77837 147 218 198
-0.465894 -0.0927107 1.78145 63 133 103
-0.452629 -0.0917219 1.78255 73 143 106
-0.235882 -0.0916544 1.7858 102 165 193
-0.318236 -0.0909494 1.78601 103 147 118
-0.300642 -0.0906132 1.7852 60 105 72
0.724488 -0.0935186 1.84455 72 146 120
-0.298186 -0.0898309 1.78529 136 181 142
-0.510449 -0.0895427 1.77966 57 131 113
-0.319909 -0.089089 1.78766 55 98 71
-0.295677 -0.0898176 1.7848 73 127 80
-0.28821 -0.0894133 1.78545 127 184 151
-0.291773 -0.0890767 1.78565 128 181 142
-0.266255 -0.0890917 1.78732 122 182 206
0.527034 -0.0901383 1.83258 146 216 185
-0.283426 -0.0876099 1.78687 9 55 32
-0.28077 -0.0867756 1.78473 76 114 92
-0.321682 -0.0871126 1.78564 130 202 166
-0.274013 -0.0865142 1.78655 113 167 132
0.719027 -0.0888562 1.84629 156 230 204
-0.487045 -0.0852635 1.78151 158 216 205
-0.487733 -0.0834001 1.78219 81 140 126
-0.327677 -0.0831933 1.78782 38 115 78
-0.519149 -0.080995 1.78002 61 140 127
0.680702 -0.0833279 1.8425 68 130 108
-0.231377 -0.0803853 1.78621 106 118 176
-0.55128 -0.0799357 1.77864 60 130 124
-0.677484 -0.0774997 1.77459 182 225 214
0.649451 -0.0787053 1.84231 77 153 119
0.568191 -0.0768721 1.83599 150 234 209
-0.40317 -0.0748335 1.78705 156 218 200
0.650809 -0.0770613 1.84232 144 216 186
0.651169 -0.0771445 1.84217 152 224 194
-0.469198 -0.0738485 1.78448 90 153 137
0.56566 -0.0753819 1.83641 77 155 132
-0.453042 -0.0732387 1.7851 75 140 115
-0.452397 -0.0733007 1.78501 60 126 101
-0.326108 -0.0728405 1.78898 73 127 114
-0.331057 -0.0708908 1.78814 150 227 199
-0.655523 -0.0666049 1.77522 95 155 145
-0.437945 -0.0664245 1.78707 74 136 122
0.584934 -0.0666521 1.83761 83 155 132
-0.510631 -0.0622228 1.7838 49 127 103
0.566422 -0.06335 1.83782 81 145 126
-0.705512 -0.0611871 1.7761 39 94 77
-0.378015 -0.0610529 1.78995 60 146 134
-0.461411 -0.0606074 1.78647 94 166 146
0.510412 -0.0616945 1.8354 75 149 125
-0.511865 -0.0590801 1.78188 75 134 113
0.60858 -0.0608622 1.83886 141 232 193
0.80615 -0.0612675 1.85089 90 148 130
-0.349891 -0.058574 1.79036 135 222 189
-0.396094 -0.0580167 1.78996 65 114 116
0.474011 -0.0588933 1.83142 84 159 131
-0.488355 -0.0565547 1.78524 64 138 112
0.604421 -0.0579282 1.8398 68 129 101
-0.393409 -0.0528107 1.79017 81 131 151
-0.374692 -0.0523007 1.7917 250 255 253
0.66309 -0.051217 1.84309 60 132 96
-0.862974 -0.0489231 1.76873 59 102 117
-0.267093 -0.0464732 1.78935 115 120 141
-0.519664 -0.0455612 1.78583 82 144 120
-0.513195 -0.0455441 1.78619 58 125 98
0.634205 -0.0462062 1.84035 71 146 100
-0.263342 -0.0447744 1.78959 110 113 134
-0.323644 -0.0444378 1.79447 84 146 134
-0.365946 -0.0436097 1.79262 101 149 177
0.605137 -0.0439902 1.84045 139 217 176
-0.39638 -0.0423358 1.79136 156 228 205
-0.390771 -0.0424327 1.7927 86 146 152
-0.38858 -0.0426302 1.79132 185 233 237
-0.527139 -0.0421858 1.78453 76 133 118
-0.457302 -0.0408966 1.78955 82 145 129
0.619201 -0.0422747 1.84177 79 142 103
0.624237 -0.0416162 1.8419 74 141 96
0.671754 -0.0406543 1.84467 132 207 179
0.415668 -0.0393923 1.82881 89 168 135
0.609321 -0.0395673 1.84143 149 222 184
-0.53998 -0.037929 1.78378 226 241 243
-0.107298 -0.0381074 1.82914 174 226 255
0.568934 -0.0385823 1.83961 53 133 96
0.602227 -0.0380929 1.84186 83 159 118
-0.504899 -0.0360896 1.78804 62 141 120
-0.389455 -0.0361098 1.79296 79 142 163
-0.513572 -0.033817 1.787 70 134 112
0.676282 -0.0349066 1.84438 142 212 182
-0.347062 -0.0291308 1.79341 112 170 169
-0.174651 -0.114673 6.96268 145 191 245
-0.523376 -0.0277728 1.78731 154 215 201
0.5215 -0.0257091 1.83841 148 226 189
-0.060921 -0.0240941 1.9938 97 132 196
0.580965 -0.0203913 1.84109 82 154 118
0.732318 -0.0163056 1.84674 80 158 134
0.582836 -0.0154639 1.8419 154 221 192
0.587311 -0.014714 1.84168 52 135 96
0.700895 -0.0145079 1.84724 72 146 122
0.377171 -0.0139319 1.8282 63 131 100
0.669505 -0.0139566 1.84562 49 115 96
0.400699 -0.0122004 1.82964 140 214 178
0.554695 -0.00923283 1.84074 74 145 112
0.674491 -0.00624404 1.84561 74 152 128
0.703239 -0.00209923 1.84589 155 229 193
0.535352 -0.000499119 1.84026 54 131 93
0.529631 0.00250916 1.83969 38 124 106
0.531957 0.00216526 1.84054 142 218 186
0.665568 0.0039423 1.84515 151 222 196
0.164017 0.380426 3.02623 127 165 159
-0.218114 -0.732892 1.70922 88 159 149
0.104886 -0.73131 1.72009 154 219 197
-0.241466 -0.724747 1.70375 23 80 65
-0.239074 -0.724843 1.70291 121 179 161
-0.176074 -0.722246 1.71921 77 158 166
-0.184246 -0.705627 1.72317 143 189 220
-0.186249 -0.704424 1.72179 34 65 96
-0.405963 -0.688323 1.68385 165 227 221
0.0309795 -0.688596 1.68447 79 119 202
-0.339099 -0.685518 1.69066 182 237 222
0.109052 -0.691425 1.72688 79 144 135
-0.171796 -0.66919 1.72319 66 156 150
-0.00117154 -0.643711 1.65907 129 201 255
-0.185246 -0.654569 1.72954 69 139 126
-0.0188144 -0.626134 1.65527 147 205 255
-0.0125262 -0.62515 1.65778 139 190 255
0.177572 -0.64987 1.74042 78 99 74
-0.933201 -0.602274 1.65465 150 206 231
0.187651 -0.631796 1.74489 132 202 165
-0.353303 -0.614918 1.70195 159 245 235
0.171154 -0.623473 1.74293 116 184 159
-0.190644 -0.590668 1.67963 90 114 136
-0.00285015 -0.581246 1.66811 74 87 149
0.0938313 -0.604105 1.73571 119 164 145
-0.609728 -0.584896 1.6868 91 146 161
-0.542996 -0.586809 1.69254 74 122 110
-0.400275 -0.58746 1.70373 107 149 132
0.176772 -0.598545 1.74861 135 166 145
-0.415443 -0.575158 1.70446 25 65 40
-0.263832 -0.573299 1.7231 31 105 77
-0.275625 -0.567148 1.71838 41 111 88
-0.258313 -0.563687 1.72878 49 119 89
-0.271134 -0.55597 1.72229 13 82 49
0.114175 -0.559726 1.74678 185 248 238
-0.20221 -0.553994 1.74394 38 85 77
-0.202769 -0.549596 1.74225 27 84 75
-0.371953 -0.539406 1.7157 104 141 125
-0.379707 -0.536831 1.71529 30 76 64
-0.202851 -0.544231 1.74378 123 204 177
0.152674 -0.54462 1.75346 145 220 182
-0.197139 -0.537983 1.74415 76 144 133
0.641395 -0.551331 1.8039 51 78 62
0.0145071 -0.513912 1.68561 159 200 255
-0.036793 -0.505674 1.66692 134 180 244
0.0187705 -0.512179 1.68677 225 241 248
0.00318299 -0.50942 1.68097 130 182 249
0.00853408 -0.507752 1.68447 157 205 255
-0.206297 -0.524605 1.74437 88 128 126
-0.612001 -0.510982 1.7004 89 146 147
0.0277759 -0.504741 1.68751 50 83 163
0.153325 -0.5219 1.75592 67 137 100
0.576583 -0.53231 1.8013 88 160 138
-0.843801 -0.498984 1.69191 149 216 239
-0.739721 -0.500014 1.70055 68 133 112
-0.155304 -0.491196 1.67162 207 244 255
-0.172558 -0.504343 1.73876 198 248 255
-0.21916 -0.503395 1.7432 104 162 198
0.152199 -0.506955 1.75782 74 125 97
0.153444 -0.504485 1.75766 122 192 155
0.556516 -0.517682 1.80205 88 166 143
-0.846245 -0.487003 1.6942 74 140 139
0.176325 -0.50463 1.75991 66 155 115
0.366227 -0.507412 1.77875 95 164 143
0.1685 -0.500069 1.76057 133 212 169
0.156793 -0.498934 1.75975 31 66 46
-0.310745 -0.489035 1.73002 218 246 253
-0.315296 -0.488042 1.72939 69 117 119
0.16169 -0.492693 1.75936 118 200 157
-0.31925 -0.482891 1.7296 52 131 92
0.0301985 -0.469566 1.68045 70 84 156
0.176845 -0.491775 1.76228 65 129 94
0.027443 -0.466308 1.67901 166 220 255
-0.782568 -0.473677 1.70403 53 116 106
-0.285728 -0.479183 1.73589 124 201 173
-0.285727 -0.473735 1.73587 119 182 166
-0.131401 -0.45589 1.6708 211 252 255
-0.193109 -0.476709 1.74883 56 115 154
-0.730007 -0.465722 1.7093 73 143 120
-0.232709 -0.473698 1.74475 145 224 185
0.0453678 -0.455805 1.6799 162 214 255
-0.351714 -0.465894 1.73019 55 142 116
0.60612 -0.465524 1.72975 219 246 255
-0.682923 -0.453712 1.71252 78 137 123
-0.0440287 -0.441442 1.66806 186 202 255
-0.346901 -0.457681 1.73292 77 140 120
0.639557 -0.451829 1.72531 141 143 191
-0.848848 -0.445637 1.7027 61 123 101
-0.206308 -0.453906 1.75506 96 162 181
0.0409406 -0.431775 1.67376 56 76 154
0.204856 -0.453791 1.77145 167 235 218
-0.241393 -0.447043 1.74784 106 191 163
0.0145778 -0.427297 1.67302 108 151 200
0.0536588 -0.427786 1.6749 163 213 255
0.0671329 -0.427692 1.67955 162 192 227
0.0558183 -0.426699 1.67653 32 56 114
0.209344 -0.448466 1.77127 213 244 253
0.201312 -0.447418 1.77166 176 233 232
0.209177 -0.448059 1.77412 227 249 255
0.228315 -0.444494 1.77419 142 171 176
-0.0423262 -0.418406 1.67659 126 148 183
0.0531913 -0.418036 1.68237 62 73 103
-0.752566 -0.424691 1.71457 135 198 178
0.614568 -0.425763 1.72567 211 236 255
-0.012545 -0.411125 1.67814 94 123 184
0.618078 -0.42131 1.72462 194 242 255
-0.0385279 -0.408074 1.68057 142 130 142
0.482574 -0.438535 1.80324 79 155 154
-0.274996 -0.423692 1.74513 129 200 180
-0.0309989 -0.406473 1.68141 94 130 190
0.582327 -0.417703 1.72571 104 137 210
-0.548151 -0.416729 1.72445 83 149 138
-0.271564 -0.419752 1.74667 59 130 104
0.129212 -0.420957 1.76763 160 203 218
0.588136 -0.41109 1.72501 108 147 222
-0.0621455 -0.397168 1.67306 47 73 150
-0.739364 -0.407393 1.71859 48 107 93
0.148977 -0.41664 1.76746 107 164 179
-0.84256 -0.402394 1.71158 44 88 65
-0.687936 -0.402295 1.7216 167 227 209
-0.661193 -0.401967 1.72035 94 155 141
-0.214596 -0.411169 1.76194 66 128 138
-0.215483 -0.409023 1.76039 115 177 188
0.139234 -0.410491 1.7692 109 164 177
-0.020123 -0.390743 1.69003 152 163 185
0.66055 -0.397981 1.73155 192 228 255
-0.671925 -0.394538 1.72196 180 238 227
0.215564 -0.406873 1.77816 75 143 136
-0.377378 -0.396799 1.73842 65 147 104
-0.320182 -0.395532 1.74234 147 208 188
-0.880559 -0.388151 1.71188 55 129 99
-0.946248 -0.38314 1.69959 47 125 88
-0.939914 -0.383224 1.70121 118 206 166
-0.68483 -0.388445 1.72415 66 114 102
-0.643366 -0.388153 1.72397 84 130 111
-0.825234 -0.385611 1.71532 63 130 99
-0.347469 -0.389709 1.74089 61 143 101
0.203946 -0.398148 1.77584 44 145 113
-0.048389 -0.374827 1.68096 56 95 180
-0.216944 -0.389575 1.7629 115 176 178
-0.70926 -0.380643 1.72455 139 196 165
-0.643705 -0.381032 1.72579 52 122 99
-0.709616 -0.378236 1.72539 72 122 98
0.51533 -0.376947 1.72615 192 225 255
-0.394832 -0.377897 1.73921 77 156 115
0.367478 -0.388689 1.79782 72 145 129
-0.727187 -0.369532 1.72574 141 213 191
0.00200812 -0.362686 1.70044 161 175 197
-0.631247 -0.367456 1.72696 179 238 224
-0.670842 -0.366259 1.72812 162 219 221
-0.232042 -0.372405 1.75945 71 132 172
-0.215125 -0.373761 1.76525 67 146 149
-0.298083 -0.369155 1.74913 148 226 215
-0.852619 -0.36172 1.71547 125 194 157
-0.230555 -0.370026 1.7586 179 218 255
-0.416758 -0.365257 1.74262 63 118 103
-0.242895 -0.367965 1.75608 67 125 137
-0.238195 -0.366327 1.75655 166 206 225
-0.588333 -0.359983 1.72872 143 201 183
-0.485513 -0.361479 1.73684 29 76 67
0.679244 -0.362483 1.74472 169 216 255
-0.455316 -0.361729 1.73858 37 74 64
0.123163 -0.365875 1.77043 64 153 113
0.681309 -0.357603 1.74846 164 196 255
-0.0579161 -0.341561 1.68141 156 205 255
-0.666786 -0.348888 1.72074 61 111 79
0.463283 -0.348818 1.72823 87 110 186
-0.0377272 -0.340199 1.68904 148 175 232
-0.748088 -0.346268 1.71794 91 119 100
-0.857697 -0.342839 1.70797 97 148 128
-0.748814 -0.342405 1.71659 56 99 72
-0.0441417 -0.335164 1.68761 57 111 198
-0.240743 -0.347639 1.75856 183 239 240
-0.0396683 -0.332971 1.68929 154 212 255
-0.241213 -0.345289 1.75883 104 161 176
0.464738 -0.3377 1.72832 84 123 197
-0.176909 -0.32839 1.69003 193 228 255
-0.489826 -0.337064 1.7394 54 111 96
0.606741 -0.334254 1.73428 195 244 255
-0.746739 -0.332028 1.71978 68 113 97
-0.759883 -0.329115 1.71919 67 125 100
0.461584 -0.327841 1.7248 112 153 216
-0.801196 -0.325064 1.71593 154 223 196
-0.942781 -0.32036 1.70548 158 221 201
-0.928785 -0.320371 1.70664 64 121 96
0.130197 -0.332094 1.77544 46 138 89
-0.0442539 -0.31434 1.69064 139 188 255
-0.743529 -0.318872 1.72126 122 200 163
-0.733428 -0.318614 1.72263 137 204 175
-0.944997 -0.315731 1.70677 74 142 119
-0.350526 -0.323238 1.75255 172 226 255
0.451881 -0.316865 1.72437 204 242 255
0.601901 -0.319148 1.73723 195 236 255
0.479895 -0.313182 1.72154 175 222 255
-0.225978 -0.321324 1.76918 40 77 85
0.15816 -0.315924 1.77923 136 225 192
-0.25247 -0.311297 1.76195 55 103 91
-0.265995 -0.31057 1.76148 67 151 133
-0.226567 -0.310096 1.77097 38 83 94
-0.760453 -0.301617 1.72348 54 136 107
-0.245088 -0.308029 1.76214 186 218 237
-0.0393917 -0.296259 1.6944 61 87 154
-0.729153 -0.298589 1.72617 71 120 100
-0.461052 -0.30191 1.74574 205 236 239
0.347613 -0.311312 1.80393 180 230 228
-0.750446 -0.297655 1.72524 56 125 92
-0.473257 -0.300951 1.7455 138 185 189
-0.464138 -0.301479 1.74633 109 144 158
-0.672038 -0.298045 1.73136 191 234 223
-0.624119 -0.297088 1.73336 109 149 147
-0.227923 -0.302441 1.77087 88 163 141
-0.723092 -0.294241 1.72696 58 98 80
0.550873 -0.293368 1.73104 186 230 255
0.592852 -0.294035 1.74254 75 116 189
-0.25278 -0.295011 1.76492 61 141 110
0.553732 -0.289424 1.73369 203 241 255
-0.540697 -0.291243 1.74518 179 237 232
-0.228505 -0.295148 1.77335 27 57 74
-0.0195721 -0.279438 1.70379 154 215 255
0.588213 -0.283597 1.74329 180 233 255
0.3024 -0.291323 1.80178 174 244 237
-0.00424639 -0.275136 1.70858 216 232 245
0.299715 -0.29067 1.80209 123 178 191
-0.257763 -0.283164 1.76581 64 142 105
0.323027 -0.288536 1.80408 137 218 203
-0.264627 -0.280813 1.76636 82 144 108
0.500431 -0.270707 1.72465 102 130 195
-0.273502 -0.271504 1.7661 70 155 117
-0.39243 -0.263378 1.76144 75 149 137
0.0760797 -0.263383 1.77813 57 148 103
-0.25124 -0.260492 1.76787 134 217 179
0.898764 -0.270785 1.84291 185 237 230
0.515787 -0.247214 1.73586 197 242 255
-0.21545 -0.252571 1.77224 47 94 122
-0.90413 -0.243916 1.73365 62 132 102
-0.851355 -0.244446 1.73852 35 90 71
-0.210643 -0.248968 1.77503 52 128 116
-0.280529 -0.245749 1.76756 71 150 109
-0.228798 -0.227714 1.74863 62 104 133
-0.231928 -0.228925 1.78123 115 176 196
-0.827773 -0.224309 1.74447 63 127 105
-0.894588 -0.222332 1.73896 54 97 86
-0.231827 -0.228282 1.78273 127 191 209
0.330342 -0.220099 1.72314 123 155 221
0.423769 -0.217593 1.72044 67 101 177
-0.794504 -0.220295 1.74732 40 111 94
-0.757993 -0.219782 1.74908 61 124 104
-0.304759 -0.21639 1.77128 147 209 187
0.298265 -0.21144 1.7276 39 89 172
-0.251395 -0.215259 1.77517 103 178 176
-0.964978 -0.204477 1.73357 45 100 85
-0.0725427 -0.198616 1.69473 154 210 255
0.27677 -0.20165 1.72631 216 246 255
-0.713679 -0.204319 1.75432 80 145 136
-0.274797 -0.205452 1.77395 52 115 89
-0.715649 -0.199809 1.75381 102 158 153
-0.279588 -0.200131 1.7733 136 222 180
-0.727255 -0.19558 1.75507 178 237 229
-0.222145 -0.196917 1.77749 102 144 181
-0.382678 -0.195972 1.77201 79 144 119
0.0587345 -0.189999 1.78085 115 184 147
-0.357986 -0.187351 1.77407 142 225 187
0.265728 -0.17841 1.72395 102 141 219
-0.269075 -0.181991 1.77808 59 126 111
-0.950885 -0.178272 1.7396 57 128 101
-0.703317 -0.179521 1.75844 158 225 210
-0.592884 -0.178256 1.76171 111 168 199
0.250719 -0.173761 1.72498 209 245 255
0.400529 -0.170966 1.72931 196 243 255
0.228708 -0.170296 1.72695 224 250 255
0.40588 -0.16497 1.73159 196 237 255
-0.255663 -0.16882 1.77892 96 168 192
0.463205 -0.158457 1.74707 190 232 255
0.845811 -0.166199 1.84718 148 237 204
-0.902768 -0.156032 1.74985 152 215 195
0.0627659 -0.159014 1.78822 44 122 81
0.777006 -0.160196 1.84285 85 149 130
0.140882 -0.153127 1.80297 61 133 133
0.225727 -0.145038 1.72341 136 166 225
0.405642 -0.144744 1.73574 178 225 255
0.673602 -0.15218 1.83856 79 153 129
-0.258333 -0.14478 1.78052 102 169 194
0.247183 -0.140387 1.72099 132 161 235
-0.259336 -0.142789 1.78465 164 230 248
-0.420506 -0.136491 1.77796 68 136 113
-0.290842 -0.131381 1.78178 77 152 124
0.0694543 -0.132384 1.79943 138 178 197
0.577108 -0.129777 1.83238 220 249 246
0.874888 -0.128817 1.85151 82 153 133
-0.163102 -0.116174 1.70288 80 112 201
0.352255 -0.117332 1.7322 195 231 255
-0.430164 -0.115819 1.78078 78 144 125
-0.451362 -0.114733 1.7804 60 130 100
-0.477778 -0.112936 1.77804 174 246 216
-0.277189 -0.113817 1.78387 44 127 95
0.658967 -0.11731 1.83962 70 137 116
-0.441993 -0.11173 1.78076 60 135 107
0.745471 -0.116473 1.84614 86 141 124
-0.391667 -0.110691 1.78268 24 92 67
-0.38309 -0.109304 1.78283 158 230 207
-0.271015 -0.108589 1.78367 42 117 96
0.558354 -0.111055 1.83209 78 158 129
-0.382852 -0.106949 1.7827 69 136 121
0.0798604 -0.107345 1.80222 83 134 154
-0.954277 -0.100516 1.75384 58 125 118
0.650504 -0.103496 1.83845 132 208 177
-0.635078 -0.0978299 1.77299 78 130 142
-0.978665 -0.0954938 1.75046 75 127 120
0.855212 -0.0985207 1.85274 177 232 205
0.664467 -0.097171 1.84065 51 119 88
-0.339405 -0.0919691 1.78578 56 136 101
-0.266835 -0.0916557 1.78223 90 153 157
-0.382331 -0.0899401 1.78598 56 124 113
0.667101 -0.0879051 1.84133 51 122 96
-0.475528 -0.0819826 1.78249 78 152 126
-0.347387 -0.0821408 1.78803 133 227 186
0.621227 -0.0789008 1.83978 67 134 105
-0.407195 -0.0733422 1.78688 177 237 219
0.655452 -0.071682 1.8419 143 226 194
0.800399 -0.0650693 1.85066 58 129 113
0.645501 -0.0641037 1.84017 134 203 160
-0.702823 -0.0604762 1.77466 60 120 102
-0.378089 -0.0609657 1.79011 64 146 134
0.805992 -0.0613704 1.85069 90 148 130
-0.523888 -0.0572624 1.78523 126 195 168
-0.51166 -0.0586277 1.78276 92 147 128
-0.458169 -0.0559027 1.78715 152 219 198
0.647188 -0.0570462 1.84199 56 108 78
0.787387 -0.0571175 1.85045 86 155 134
-0.417886 -0.0474242 1.79069 85 152 137
0.588824 -0.0478114 1.83956 87 169 127
0.595731 -0.044646 1.84006 62 136 110
-0.540729 -0.0422406 1.78366 211 233 231
-0.323677 -0.0423588 1.79228 169 207 207
0.509393 -0.0428544 1.83608 166 233 206
0.511194 -0.0423254 1.83504 98 161 135
0.618667 -0.0423296 1.84172 90 153 114
0.621975 -0.0405159 1.84063 151 205 162
-0.540369 -0.0376756 1.78399 240 251 249
0.594853 -0.0360195 1.84001 150 229 186
0.690379 -0.034695 1.84488 100 157 142
0.59606 -0.027798 1.83823 151 213 177
0.617529 -0.0257295 1.84109 74 132 97
0.541966 -0.0159047 1.8398 62 108 86
-0.00578992 -0.694563 1.64775 142 190 242
0.00392699 -0.687176 1.65388 142 197 255
-0.184818 -0.711423 1.72077 51 103 119
-0.00070597 -0.681744 1.65256 148 208 255
-0.253877 -0.690517 1.70241 119 178 147
-0.121857 -0.658625 1.64703 112 152 227
-0.00958586 -0.644457 1.65612 128 195 255
-0.0832838 -0.629092 1.644 129 156 236
-0.0188979 -0.626149 1.6552 144 202 255
-0.0107565 -0.625843 1.65803 124 190 255
-0.948998 -0.602838 1.65054 75 118 127
-0.169983 -0.603569 1.68434 89 100 157
-0.595242 -0.601745 1.68359 109 164 179
-0.427552 -0.603193 1.69712 173 237 231
-0.375523 -0.601978 1.70341 114 151 135
0.172436 -0.616352 1.74501 138 196 168
-0.0147878 -0.58664 1.66331 142 205 255
0.479014 -0.624744 1.77221 111 174 172
-0.606537 -0.58515 1.68621 162 214 244
0.174349 -0.602591 1.7466 101 168 139
0.185662 -0.599782 1.74783 38 75 55
-0.21994 -0.593447 1.73093 63 133 110
-0.405416 -0.583938 1.70465 118 160 135
-0.608871 -0.570871 1.68963 101 138 176
-0.413854 -0.574271 1.70368 39 61 43
-0.717518 -0.56586 1.68693 82 133 125
-0.616894 -0.563222 1.68971 159 216 241
-0.0350921 -0.550003 1.66124 145 198 255
-0.338012 -0.562266 1.71373 100 166 147
-0.00336525 -0.547476 1.67275 144 200 255
-0.337763 -0.558115 1.71458 38 68 57
-0.253973 -0.558714 1.73179 47 123 91
0.00329412 -0.540165 1.67734 143 201 255
-0.351954 -0.551903 1.71506 89 134 118
0.114491 -0.559634 1.74716 177 240 230
-0.268845 -0.544367 1.72685 38 105 78
-0.371704 -0.539483 1.71543 99 136 120
-0.202854 -0.541875 1.7438 131 196 174
0.0163482 -0.523689 1.68468 48 64 140
0.675993 -0.558063 1.80064 54 76 58
-0.229784 -0.531079 1.73809 43 126 94
0.262994 -0.537319 1.76453 144 231 193
-0.000869517 -0.510485 1.67995 78 113 176
-0.224805 -0.525808 1.73876 54 132 101
0.0246772 -0.506692 1.68558 193 228 255
0.030088 -0.506409 1.68676 200 229 255
0.0217146 -0.50526 1.68929 65 75 153
-0.278156 -0.51559 1.72806 48 112 82
0.0338131 -0.503719 1.68812 23 59 143
0.0552818 -0.502842 1.68784 172 198 238
0.0403801 -0.50256 1.68823 43 70 160
0.0466953 -0.50193 1.69002 26 59 139
0.168409 -0.52189 1.75719 37 101 66
-0.218257 -0.514502 1.74068 53 115 131
0.145227 -0.518223 1.75436 72 102 67
-0.00629343 -0.49355 1.68103 76 62 133
0.202735 -0.511488 1.76139 127 202 164
0.735116 -0.523108 1.80713 62 92 81
-0.0977092 -0.480296 1.66143 109 136 216
-0.891156 -0.486133 1.68822 72 138 127
0.0227897 -0.483269 1.68257 154 213 255
-0.846067 -0.486801 1.69389 74 140 139
-0.31033 -0.492194 1.73015 168 215 219
-0.306679 -0.491957 1.73141 85 154 139
0.168445 -0.499944 1.76027 133 212 169
0.168474 -0.496866 1.76079 45 70 42
-0.206211 -0.491793 1.75148 116 185 174
0.161761 -0.492376 1.76046 116 199 154
0.153414 -0.488545 1.76023 34 81 55
-0.782448 -0.473722 1.70389 53 116 106
-0.29909 -0.480433 1.73098 53 127 101
0.0274364 -0.466484 1.67999 166 220 255
-0.199222 -0.484065 1.74798 137 218 226
0.169108 -0.486327 1.76263 105 197 148
0.165597 -0.48516 1.75825 39 100 72
0.178784 -0.484442 1.76349 74 161 123
-0.193007 -0.476687 1.74891 56 115 154
-0.232671 -0.473622 1.74501 138 215 178
-0.199199 -0.474508 1.7462 151 207 255
0.0455436 -0.455705 1.68022 166 216 255
0.0177334 -0.45316 1.67816 40 72 155
-0.351437 -0.465975 1.72995 55 142 116
0.606275 -0.465501 1.72983 219 246 255
0.610568 -0.465302 1.73042 112 143 218
0.517201 -0.484482 1.80138 89 161 161
0.619276 -0.464738 1.73009 107 120 198
0.0452688 -0.447455 1.67885 162 214 255
-0.918192 -0.448109 1.69202 80 138 114
-0.0339997 -0.439605 1.66864 56 67 135
-0.135827 -0.438165 1.67275 88 107 180
0.00047227 -0.437949 1.67056 167 215 255
0.63587 -0.450422 1.72505 222 252 255
-0.225357 -0.453736 1.74844 66 142 141
0.0503537 -0.433495 1.67497 161 208 255
-0.206311 -0.453198 1.75597 90 158 171
-0.423234 -0.44432 1.7289 56 130 106
-0.976743 -0.431168 1.68538 66 103 101
0.588558 -0.437618 1.72772 208 246 255
0.209655 -0.448063 1.77257 235 252 255
0.147275 -0.445629 1.76683 119 168 184
0.561898 -0.434645 1.73229 102 146 210
0.602144 -0.434614 1.72675 122 141 216
-0.805797 -0.430609 1.7099 149 202 175
0.228644 -0.444369 1.7746 146 173 183
0.588187 -0.432511 1.72788 88 137 207
0.592972 -0.432098 1.72751 205 249 255
-0.799694 -0.426892 1.71084 44 112 89
-0.215809 -0.437162 1.75306 133 169 157
0.603054 -0.430063 1.7265 211 247 255
0.562268 -0.429883 1.72953 196 241 255
0.623022 -0.428841 1.7239 111 135 207
-0.692114 -0.42662 1.71862 80 152 130
-0.300068 -0.429856 1.741 152 221 208
0.589021 -0.427206 1.7277 208 246 255
0.614786 -0.425791 1.72536 209 235 255
0.614792 -0.425756 1.7257 209 235 255
-0.0124148 -0.410444 1.67771 67 103 173
0.654397 -0.420264 1.72222 79 122 189
0.588851 -0.417889 1.72663 213 250 255
-0.8084 -0.413206 1.71225 134 196 160
-0.271542 -0.419724 1.74614 60 131 105
-0.0310708 -0.40597 1.68283 115 143 197
0.134246 -0.425852 1.76718 178 223 255
-0.230888 -0.420011 1.75282 59 143 114
0.200819 -0.424842 1.77341 106 166 182
0.148245 -0.420943 1.76907 174 221 248
0.165792 -0.421447 1.77181 75 163 139
0.588883 -0.411092 1.72429 95 131 215
0.640495 -0.408393 1.72157 99 126 206
0.133623 -0.418276 1.76851 172 225 255
-0.64791 -0.403827 1.72089 171 235 213
-0.791874 -0.400076 1.71515 128 212 178
-0.650771 -0.40158 1.72085 85 138 118
-0.219145 -0.410911 1.76179 55 105 105
-0.685371 -0.399648 1.72216 86 145 130
-0.215759 -0.408836 1.76093 115 177 188
-0.0200738 -0.390613 1.69039 145 164 199
1.19188 -0.431642 1.86215 96 154 143
-0.918974 -0.39467 1.70421 62 139 105
-0.356803 -0.399777 1.73943 57 133 92
0.120118 -0.405947 1.76647 28 73 54
-0.922083 -0.391453 1.70341 53 116 96
-0.314371 -0.399358 1.74313 156 209 195
-0.671792 -0.394503 1.72186 186 244 233
0.0994009 -0.401746 1.76437 113 193 170
-0.658192 -0.392622 1.7221 88 149 121
-0.647918 -0.391229 1.72424 185 250 225
-0.314248 -0.394646 1.74145 183 236 222
0.103107 -0.399247 1.76483 13 50 30
0.575954 -0.389082 1.7243 91 121 200
0.616178 -0.388919 1.72018 102 128 204
0.510248 -0.388266 1.7295 124 159 223
-0.681459 -0.387613 1.7245 75 118 115
0.478577 -0.386551 1.73098 85 116 191
-0.839736 -0.381941 1.7151 66 129 103
-0.0434461 -0.372598 1.68326 151 212 255
-0.707261 -0.381488 1.72573 64 122 97
0.500561 -0.381208 1.72991 85 112 192
-0.713176 -0.377024 1.72514 128 195 166
-0.689761 -0.375131 1.72506 143 213 190
-0.696222 -0.373956 1.72694 58 114 93
-0.664506 -0.374927 1.72677 69 129 111
-0.793895 -0.372654 1.72141 40 103 77
-0.213924 -0.379161 1.76458 73 147 159
-0.727076 -0.369585 1.7256 141 213 191
-0.272572 -0.375428 1.75242 111 208 164
0.013563 -0.356382 1.69819 111 151 204
0.0927962 -0.369914 1.7656 81 152 112
-0.586807 -0.360967 1.72913 67 125 107
-0.455406 -0.361728 1.73858 57 95 95
-0.235446 -0.366004 1.75689 92 136 160
0.028736 -0.354027 1.70172 228 251 255
0.0353414 -0.352318 1.70469 242 252 255
-0.538256 -0.358475 1.733 82 105 113
-0.262031 -0.360112 1.75416 74 138 119
0.457686 -0.354025 1.72982 87 104 177
0.448027 -0.35035 1.72986 187 226 255
0.681495 -0.35451 1.74835 69 118 194
-0.492077 -0.351048 1.73743 59 121 107
-0.748409 -0.345454 1.71854 75 110 90
-0.6806 -0.34786 1.72303 64 123 103
-0.788656 -0.343139 1.71529 84 137 123
-0.0315959 -0.33887 1.69125 134 186 255
-0.772701 -0.340495 1.71632 79 134 115
-0.820585 -0.339285 1.71302 153 216 196
-0.217981 -0.348304 1.76387 82 134 134
-0.739828 -0.33689 1.72067 55 111 88
-0.0639236 -0.329338 1.68108 152 202 255
0.47152 -0.336538 1.72538 108 131 209
-0.223754 -0.34422 1.76502 30 71 86
-0.761371 -0.333167 1.71869 154 232 195
-0.00224341 -0.325243 1.70383 31 40 104
0.0843507 -0.336993 1.76981 69 152 107
-0.755114 -0.326352 1.71803 121 198 171
0.447237 -0.322686 1.72545 192 237 255
0.578617 -0.324328 1.7287 82 96 184
0.130738 -0.331855 1.77609 49 139 93
-0.13982 -0.312906 1.68416 107 145 227
0.302626 -0.334639 1.79779 85 167 149
-0.909698 -0.317263 1.70939 62 114 90
0.481 -0.317592 1.72515 82 98 174
-0.222481 -0.325664 1.76796 136 208 202
-0.0580308 -0.309195 1.68582 159 211 255
-0.0461564 -0.309865 1.69041 65 81 147
0.103953 -0.322825 1.77354 73 168 118
-0.744681 -0.313088 1.72282 186 229 202
-0.0418979 -0.307257 1.69174 153 198 255
-0.435156 -0.314885 1.74744 65 130 115
-0.241735 -0.317172 1.76205 195 242 246
-0.677953 -0.309528 1.72906 171 232 212
-0.647729 -0.30966 1.73071 86 155 135
-0.259812 -0.314069 1.75873 237 255 255
-0.149915 -0.300166 1.68649 104 129 215
0.389822 -0.308193 1.72933 85 128 201
0.563429 -0.307826 1.73129 190 225 255
0.601572 -0.308843 1.7395 181 230 255
-0.252435 -0.311196 1.76221 55 103 91
0.0723232 -0.313329 1.77129 35 78 41
-0.668233 -0.304178 1.73028 81 153 133
0.39523 -0.302852 1.72934 99 119 196
0.267983 -0.311085 1.7931 21 94 78
0.545976 -0.302172 1.73327 192 231 255
-0.488369 -0.302761 1.74394 74 133 119
-0.470424 -0.303326 1.74502 79 148 128
0.0733763 -0.307379 1.77268 119 196 158
-0.0680223 -0.288689 1.67491 160 206 255
0.543501 -0.298836 1.72654 79 119 191
-0.74487 -0.297442 1.72416 160 220 202
-0.672107 -0.297745 1.73211 193 236 225
-0.717466 -0.296624 1.72745 130 215 170
0.54546 -0.297085 1.73087 65 118 185
-0.624132 -0.297021 1.73353 109 149 147
0.551332 -0.29298 1.732 187 233 255
0.187786 -0.300876 1.78153 140 219 180
0.281485 -0.303556 1.80104 97 154 153
-0.122089 -0.28272 1.68395 237 253 255
0.593175 -0.293961 1.74273 76 108 184
-0.241595 -0.295272 1.76602 107 165 194
0.563826 -0.286874 1.73723 184 234 255
0.304349 -0.294669 1.8006 117 173 184
0.307981 -0.294497 1.80199 198 246 248
0.323293 -0.293768 1.80458 74 144 131
-0.242108 -0.286865 1.76677 114 177 211
-0.225686 -0.287583 1.77329 78 139 141
0.588707 -0.283218 1.74343 177 239 255
-0.00783023 -0.275017 1.7086 46 52 123
1.09097 -0.299248 1.86071 85 165 152
-0.507839 -0.276015 1.7505 206 255 248
-0.641891 -0.269287 1.74811 62 126 126
-0.831409 -0.267524 1.73627 72 131 111
-0.300746 -0.271359 1.76456 59 136 102
-0.27313 -0.271349 1.76636 70 155 117
-0.0378927 -0.261474 1.69955 157 204 255
-0.715219 -0.267608 1.74422 157 216 226
-0.435718 -0.263301 1.75819 68 133 124
0.492511 -0.257939 1.72741 196 241 255
0.885035 -0.274276 1.84263 78 137 122
-0.0559677 -0.250463 1.69412 149 198 255
0.220049 -0.26546 1.79818 71 153 130
-1.03418 -0.251077 1.71201 87 138 134
-0.279333 -0.258861 1.76733 57 124 95
-0.270157 -0.256879 1.7687 53 123 87
-0.0724951 -0.245025 1.68899 152 211 255
-1.04129 -0.247474 1.71292 76 132 127
-0.797976 -0.250945 1.74136 47 112 86
-0.249056 -0.252439 1.77153 82 142 131
-0.728989 -0.249247 1.74671 101 158 160
0.482318 -0.245186 1.72655 75 115 187
0.515926 -0.247227 1.73584 197 242 255
-0.910345 -0.247077 1.7328 35 97 81
-0.91064 -0.246648 1.73381 37 100 84
-0.144554 -0.239028 1.69084 212 237 255
-0.899702 -0.244557 1.73586 42 111 90
-0.245417 -0.249085 1.77106 95 157 187
-0.172209 -0.237296 1.69689 101 128 209
0.492349 -0.237367 1.73226 185 223 255
0.958321 -0.252243 1.84957 103 169 168
-0.229553 -0.240938 1.77866 56 126 139
0.496497 -0.230426 1.73497 184 225 255
0.728462 -0.242485 1.83535 178 236 225
-0.890485 -0.22738 1.73847 48 116 93
-0.452353 -0.227933 1.76198 182 235 232
0.303055 -0.219897 1.72629 213 246 255
-0.0437674 -0.21567 1.7032 164 210 255
-0.229683 -0.224615 1.78268 90 156 174
0.276249 -0.218539 1.72868 52 77 149
-0.248942 -0.223178 1.77163 113 177 181
0.471948 -0.216809 1.73217 56 96 168
-0.231046 -0.220524 1.76491 130 206 202
-0.880377 -0.214228 1.74214 66 130 118
-0.304504 -0.216349 1.77139 168 227 206
-0.718795 -0.210603 1.75264 119 169 159
-0.964893 -0.204513 1.7335 45 100 85
0.276842 -0.201772 1.72605 216 246 255
-0.713574 -0.204285 1.75441 80 145 136
0.283848 -0.199515 1.72823 68 95 175
-0.721817 -0.200982 1.75405 108 166 161
0.439416 -0.197396 1.73054 60 108 180
-0.255623 -0.201167 1.774 62 133 116
0.482428 -0.197485 1.74092 186 230 255
-0.89128 -0.197711 1.74493 64 133 118
-0.719898 -0.197075 1.75521 214 250 244
-0.0450527 -0.190077 1.70534 141 202 255
0.365133 -0.191464 1.71597 70 100 177
-0.82768 -0.187077 1.74899 142 209 188
0.305567 -0.183567 1.72336 69 100 185
0.279713 -0.183515 1.72391 36 73 155
0.450151 -0.182825 1.73847 70 111 184
-0.183443 -0.175947 1.70311 212 243 255
0.266699 -0.178728 1.72512 61 99 181
-0.595214 -0.181071 1.7622 96 148 164
-0.269042 -0.181869 1.77834 59 126 111
-0.191945 -0.173123 1.70512 93 120 200
0.266788 -0.174475 1.72482 221 253 255
0.228515 -0.170343 1.72685 224 250 255
-0.238714 -0.174784 1.7863 87 136 146
0.232602 -0.169829 1.72623 84 107 182
-0.257982 -0.172063 1.77971 71 157 145
0.228682 -0.165807 1.72832 54 93 178
0.25191 -0.166227 1.72399 75 88 162
-0.239138 -0.171152 1.78605 23 54 79
0.262715 -0.163871 1.7241 77 104 185
-0.592922 -0.166626 1.76288 186 225 253
0.410027 -0.162326 1.73361 107 129 201
0.16763 -0.16503 1.80299 202 238 244
0.213515 -0.15772 1.72787 207 241 255
-0.410265 -0.161396 1.7747 43 96 76
0.763619 -0.165804 1.8441 83 149 124
-0.257607 -0.1579 1.77777 65 130 138
0.141649 -0.15876 1.802 95 144 170
0.238838 -0.153301 1.72708 51 90 169
0.245206 -0.149844 1.72306 205 244 255
0.0858983 -0.153938 1.79667 76 137 139
0.232724 -0.146282 1.72274 187 227 255
-0.258407 -0.144638 1.78082 102 169 194
0.360978 -0.138595 1.72714 186 237 255
0.731296 -0.144365 1.84232 65 136 103
-0.962077 -0.13569 1.74584 76 123 127
0.777189 -0.141675 1.84451 75 129 112
0.358188 -0.130938 1.73027 172 204 253
0.363585 -0.130218 1.73139 56 70 136
-0.304491 -0.134031 1.78157 67 141 123
-0.264231 -0.132666 1.78321 63 145 123
0.112977 -0.134997 1.80157 69 144 142
-0.242794 -0.133533 1.79082 98 140 145
-0.290812 -0.131252 1.78205 71 147 116
0.677666 -0.13414 1.83978 98 173 145
-0.689802 -0.128608 1.76582 169 222 225
0.591293 -0.12885 1.83445 207 232 234
0.199104 -0.119302 1.72557 55 103 175
0.238226 -0.117234 1.71921 224 251 255
-0.361978 -0.120314 1.78206 51 111 93
-0.622736 -0.118166 1.76936 81 133 126
0.242105 -0.112421 1.71836 231 251 255
0.743526 -0.118082 1.84276 79 128 114
0.612911 -0.117359 1.83675 192 231 233
0.663664 -0.117885 1.83973 255 255 242
0.74435 -0.117553 1.84388 90 139 125
0.136409 -0.108882 1.72888 210 245 255
0.678626 -0.116025 1.84062 112 174 152
-0.467687 -0.109284 1.77978 142 227 189
-0.467306 -0.106909 1.77785 87 146 115
-0.453129 -0.105396 1.78071 175 236 208
-0.286649 -0.103334 1.78405 159 237 196
0.686557 -0.106908 1.842 96 164 139
-0.0396499 -0.0956706 1.71725 162 199 255
0.143662 -0.0954811 1.7272 40 86 170
0.64835 -0.0999056 1.83867 70 130 112
-0.246306 -0.0944166 1.79312 109 169 168
0.665053 -0.0970062 1.84181 49 116 87
-0.314233 -0.0923696 1.78558 24 77 33
-0.273921 -0.0866158 1.78629 113 167 132
-0.269614 -0.0865454 1.78559 47 89 82
-0.440966 -0.0843415 1.78333 75 143 112
-0.490533 -0.0818 1.78133 55 111 98
-0.237604 -0.0823671 1.78708 101 133 169
-0.464665 -0.0800788 1.7835 75 124 110
-0.474565 -0.0762301 1.78295 73 135 123
-0.189809 -0.0726119 1.71127 61 115 198
0.170882 -0.0726234 1.72057 60 99 173
-0.224798 -0.0684581 1.74013 146 181 224
0.629548 -0.0720825 1.83926 55 132 104
0.55951 -0.0680963 1.83801 88 147 133
-0.515628 -0.0654079 1.78176 62 130 113
0.599378 -0.066365 1.83999 43 88 62
0.847392 -0.0679546 1.85368 91 150 136
0.776815 -0.0642145 1.84976 98 173 159
-0.702855 -0.0603364 1.77493 71 131 113
0.641419 -0.0623217 1.84146 73 142 109
-0.471219 -0.0566315 1.78611 74 142 125
0.730378 -0.0574877 1.84693 87 148 122
0.788344 -0.0570503 1.85068 83 148 127
0.80206 -0.0556437 1.85027 75 139 117
0.497226 -0.0529286 1.83466 75 145 122
-0.541262 -0.0487419 1.78311 89 136 127
0.633615 -0.0501762 1.84035 84 138 103
-0.267023 -0.0461927 1.78989 108 113 134
0.692204 -0.0476812 1.84504 83 152 131
-0.542863 -0.0462195 1.78783 114 165 158
-0.505798 -0.0437097 1.78619 65 133 108
0.661293 -0.0432206 1.84458 77 128 100
0.658008 -0.0419501 1.84274 140 212 170
0.794496 -0.0420115 1.85027 84 159 138
0.579819 -0.0409941 1.83992 165 243 190
-0.39036 -0.0361423 1.79247 86 152 163
0.438948 -0.0355905 1.83172 76 145 118
-0.513826 -0.0337906 1.78783 70 134 112
0.692924 -0.0345078 1.84535 80 139 125
0.690347 -0.0346209 1.84502 98 155 140
0.695531 -0.0268309 1.8471 100 174 150
0.603388 -0.023682 1.84172 76 122 99
0.550577 -0.0208909 1.84004 69 128 90
0.631729 -0.0184539 1.84287 152 227 195
0.611038 -0.0142255 1.8428 45 100 73
0.548567 -0.00760577 1.84033 61 107 84
-0.241014 -0.697333 1.7094 33 62 46
-0.0194887 -0.626296 1.65459 143 206 255
-0.905449 -0.600048 1.66067 160 217 238
-0.170264 -0.600906 1.68132 95 109 151
-0.378768 -0.603602 1.70277 52 63 53
-0.593109 -0.597838 1.68492 101 149 161
-0.383837 -0.597026 1.70305 110 142 125
0.0953145 -0.609044 1.73776 80 130 118
-0.968607 -0.579487 1.65509 158 209 241
-0.400641 -0.587066 1.70298 103 145 128
-0.343359 -0.589405 1.71201 35 58 44
-0.979146 -0.565798 1.6566 113 156 173
0.173155 -0.592758 1.74681 66 106 95
0.00615333 -0.565902 1.67322 143 202 255
-0.0194466 -0.542445 1.66788 130 187 255
-0.397209 -0.551974 1.71126 49 117 86
-0.012262 -0.535323 1.67107 132 200 255
0.0942061 -0.559879 1.74414 128 192 180
-0.356161 -0.549036 1.71647 89 137 108
-0.203734 -0.543889 1.7466 104 168 156
-0.382508 -0.530027 1.71474 50 71 68
0.557753 -0.5324 1.80472 85 162 148
-0.014125 -0.487416 1.67844 78 67 129
-0.171377 -0.501072 1.73887 133 158 214
0.155014 -0.497803 1.75777 46 69 47
-0.323817 -0.486314 1.72883 79 158 114
0.522068 -0.504274 1.80147 68 112 136
-0.827924 -0.473877 1.69983 140 205 219
0.153341 -0.488367 1.76083 40 79 57
0.752961 -0.502364 1.81391 151 183 164
0.0437994 -0.460575 1.67997 56 66 136
-0.885833 -0.464739 1.69233 46 110 88
-0.208957 -0.477842 1.75064 126 187 173
0.758423 -0.495588 1.81395 129 160 151
-0.198006 -0.473857 1.74739 161 214 255
-0.218562 -0.470402 1.74674 175 212 250
0.612941 -0.465912 1.72855 224 250 255
-0.210181 -0.466538 1.75266 109 200 179
0.615141 -0.458205 1.72819 98 123 193
-0.219647 -0.45967 1.74615 158 209 252
-0.066787 -0.434571 1.66604 170 207 255
-0.194351 -0.443154 1.75111 65 140 154
-1.00107 -0.421443 1.68482 79 104 90
0.592944 -0.431857 1.72823 210 243 255
0.613458 -0.426392 1.72369 206 224 255
-1.00516 -0.418265 1.68533 105 151 138
-0.0504057 -0.412798 1.67531 154 212 255
-0.268557 -0.428555 1.7474 116 195 176
-0.210775 -0.416217 1.76336 95 159 183
-0.217597 -0.41194 1.75669 40 109 98
0.265276 -0.409352 1.77916 188 222 212
-0.659633 -0.391901 1.72408 84 148 119
0.115256 -0.395617 1.76923 89 215 163
0.483931 -0.386192 1.73116 215 245 255
0.512385 -0.377701 1.72783 82 117 197
0.485561 -0.374076 1.72843 204 245 255
-0.793941 -0.372692 1.72129 40 103 77
0.495564 -0.372862 1.72914 208 251 255
-0.475335 -0.373633 1.73614 63 138 116
0.00243253 -0.363713 1.70115 141 167 204
-0.685104 -0.360803 1.72534 107 179 133
-0.506192 -0.35963 1.73638 78 113 117
-0.000682607 -0.351242 1.70133 58 69 151
-0.510011 -0.356941 1.73447 213 233 234
-0.438285 -0.358555 1.74078 225 247 245
0.486449 -0.347871 1.72397 98 108 195
-0.94852 -0.34232 1.70117 223 242 233
-1.01611 -0.339591 1.69542 218 241 233
-0.894869 -0.338112 1.70641 64 115 95
-0.696805 -0.337732 1.71857 66 115 95
0.440656 -0.333292 1.72663 74 94 171
0.488366 -0.332456 1.72275 211 245 255
0.430364 -0.327306 1.72417 82 105 185
0.578368 -0.324375 1.72857 77 94 181
0.452583 -0.320272 1.72411 82 100 183
