ply
format ascii 1.0
element vertex 1286
property float x
property float y
property float z
property uchar blue
property uchar green
property uchar red
end_header
-0.673282 0.118353 4.26282 76 136 125
0.854698 0.120826 4.29228 132 176 170
-2.26367 0.125762 4.1933 123 172 152
0.961748 0.128002 4.28742 96 149 136
0.06282 0.131786 4.27993 190 232 231
0.552253 0.132559 4.28746 165 211 199
-1.50052 0.133841 4.2439 71 117 111
-1.07142 0.136353 4.2579 114 164 170
-0.444629 0.135331 4.25421 77 111 104
-2.3096 0.136005 4.16902 87 100 114
-2.279 0.142578 4.19016 58 92 85
-1.59931 0.1448 4.24901 97 146 138
-1.79087 0.144148 4.2402 88 149 145
-1.68446 0.144963 4.24904 66 110 103
-1.56385 0.14705 4.24882 86 128 121
0.0588219 0.148332 4.28995 63 91 85
0.715837 0.146145 4.29742 126 173 165
-1.04567 0.147483 4.25778 101 147 141
-0.258538 0.150002 4.27695 39 78 57
-0.199346 0.147648 4.26917 78 119 111
-2.28768 0.148483 4.19257 148 186 186
-1.43834 0.15234 4.24698 110 149 151
-0.293185 0.152887 4.26537 184 222 210
0.0395362 0.150313 4.27446 67 116 96
0.091414 0.153037 4.28859 70 93 88
-2.23394 0.153724 4.2171 64 118 105
-1.47441 0.154052 4.25592 74 124 114
-0.961206 0.156306 4.27128 68 122 117
-1.16788 0.156403 4.26043 84 140 135
-0.222418 0.158348 4.27515 153 215 197
0.591442 0.156742 4.29514 134 191 182
0.64144 0.155795 4.28733 120 169 161
0.757359 0.156615 4.30064 107 141 140
0.399212 0.162866 4.29481 132 181 173
0.738402 0.160885 4.29925 115 153 147
-1.03721 0.162295 4.27468 154 220 208
0.0807819 0.162807 4.27545 160 197 187
-0.611307 0.162566 4.26266 131 165 159
0.0697268 0.16614 4.2798 79 120 115
-0.798151 0.167054 4.27555 73 118 109
0.584751 0.169323 4.29771 132 179 177
1.3914 0.167521 4.30114 108 159 151
-1.96693 0.169761 4.24016 107 170 161
-1.94766 0.17121 4.24654 98 157 149
-1.42832 0.169858 4.25221 117 149 144
-0.727009 0.170126 4.27367 78 129 132
-0.179994 0.169634 4.2795 150 225 203
1.06031 0.172349 4.30604 129 173 167
-1.92797 0.172102 4.24856 156 219 203
-1.61231 0.173753 4.26097 108 161 158
-1.29975 0.172666 4.25446 208 249 242
-1.24057 0.173135 4.26353 162 215 206
-1.07515 0.174151 4.26391 81 125 124
-2.21548 0.172276 4.22673 172 227 218
-1.4351 0.177155 4.25741 159 191 190
-1.22003 0.175225 4.26221 80 133 130
-0.698447 0.178799 4.27913 86 139 129
-0.249345 0.176361 4.27866 41 101 90
-2.25534 0.176849 4.21661 81 130 122
-0.404168 0.180844 4.26235 67 96 80
-1.55662 0.185222 4.25471 100 137 133
-1.29348 0.186237 4.25613 90 141 143
-0.951719 0.185783 4.27025 82 143 139
-0.672251 0.188088 4.2837 114 171 162
-1.21619 0.190963 4.26442 80 140 140
-0.941289 0.19138 4.27563 71 128 125
1.46721 0.194146 4.32307 106 150 143
-2.37708 0.1899 4.15549 53 74 65
-1.95467 0.193051 4.24683 75 137 125
-1.45382 0.192193 4.24234 175 214 212
-2.04558 0.195204 4.24028 158 213 204
-1.6415 0.196079 4.25118 85 142 141
-1.28364 0.195867 4.26485 77 134 126
0.382054 0.197431 4.29702 102 152 140
-0.550151 0.199848 4.26925 94 131 123
-1.05491 0.200017 4.27262 108 155 147
-0.254842 0.202422 4.28458 170 226 207
0.708946 0.204475 4.31995 88 138 128
-1.74621 0.203997 4.26165 160 223 214
0.388374 0.20499 4.29836 99 148 146
-2.67857 0.208035 4.22853 107 157 155
-1.26837 0.21128 4.27036 104 152 156
1.21914 0.210228 4.28921 160 174 172
-2.2757 0.212618 4.22463 93 147 130
-1.69737 0.212403 4.26209 102 153 146
0.381255 0.214867 4.30422 191 233 226
0.523677 0.21404 4.30049 179 221 210
-1.61357 0.216518 4.2639 160 224 212
-1.14259 0.217931 4.27734 83 130 122
-0.57206 0.21774 4.2611 123 162 160
0.433236 0.217509 4.30377 102 150 151
-2.28528 0.214872 4.21299 93 145 127
-0.782212 0.218499 4.28442 92 150 145
-1.74973 0.221292 4.26299 76 128 128
0.536458 0.22301 4.31349 94 142 136
-1.84829 0.224695 4.25913 95 156 146
-1.81618 0.226763 4.26579 96 146 142
-1.46421 0.226552 4.25991 108 165 162
1.50496 0.233485 4.33378 123 167 166
-1.8257 0.229686 4.26114 177 235 224
-1.55818 0.229998 4.2677 89 145 132
-0.739303 0.231507 4.28703 92 153 143
0.778904 0.233258 4.3147 117 164 155
-2.03699 0.232696 4.25874 73 128 119
-2.1781 0.234479 4.23901 81 135 128
-1.3314 0.235724 4.26174 107 155 156
-1.29829 0.238199 4.2661 87 127 125
-1.31531 0.240068 4.26651 94 136 135
0.782519 0.242782 4.31589 101 144 131
-1.95301 0.242692 4.25541 41 88 80
-0.926033 0.242236 4.27877 158 202 195
-2.3079 0.24322 4.23691 102 134 129
-2.17328 0.245714 4.25123 73 122 114
-1.72487 0.245761 4.26691 86 144 133
-1.59823 0.248419 4.27407 191 232 234
-1.49485 0.245802 4.2708 106 163 154
-0.0325874 0.247994 4.30042 165 197 202
-1.54043 0.248697 4.27528 156 216 205
-0.792367 0.252069 4.28846 64 146 133
-0.531957 0.253337 4.27448 98 134 134
-1.85356 0.256001 4.27194 130 199 188
-1.59 0.254874 4.26936 87 150 140
-0.746965 0.258759 4.30038 168 229 219
-0.693126 0.256278 4.29252 164 233 218
0.222719 0.258782 4.3125 94 131 139
-2.43031 0.252312 4.16462 165 232 223
-2.06368 0.259401 4.2694 102 162 156
-1.80084 0.255491 4.2654 115 152 156
-1.45231 0.257847 4.27815 98 168 162
-0.504214 0.260122 4.27777 113 159 147
-1.24926 0.26606 4.28454 109 152 155
1.1613 0.266646 4.30875 122 163 155
-1.67908 0.267096 4.27463 105 166 156
1.2832 0.270868 4.32098 110 156 157
-1.66907 0.270788 4.27819 72 138 127
0.180037 0.272024 4.31584 103 154 150
1.11977 0.271639 4.29808 144 185 180
-2.07599 0.274753 4.25995 157 227 214
-1.69364 0.275608 4.27331 89 158 145
-0.711095 0.279901 4.30995 113 165 155
-2.18274 0.279659 4.24913 87 142 133
-1.69218 0.280828 4.28157 84 149 134
-1.50033 0.282218 4.2844 98 152 147
-0.172702 0.283139 4.31147 132 170 175
-1.63978 0.284006 4.28008 188 228 223
-1.36857 0.287891 4.28735 105 146 141
1.82085 0.289896 4.34107 128 185 176
-1.6288 0.289781 4.27576 70 122 112
-0.405701 0.290843 4.30281 52 99 91
0.17667 0.292589 4.31768 82 125 116
1.30205 0.294932 4.32967 128 162 161
-1.61564 0.294515 4.27536 157 214 211
0.678739 0.300005 4.32328 113 161 149
-1.67164 0.299521 4.27794 112 153 146
-1.49871 0.299364 4.28807 93 152 148
-0.48143 0.299652 4.29183 97 131 124
-1.39038 0.300171 4.28064 168 227 219
-0.361137 0.306899 4.31355 59 103 96
-1.73264 0.307055 4.27531 169 222 213
-1.51773 0.310637 4.29497 164 215 208
-0.242075 0.313546 4.3153 90 140 128
-1.64395 0.312456 4.28347 88 139 135
-0.818053 0.316543 4.30799 74 137 127
0.331474 0.31658 4.32126 98 151 141
1.38535 0.316868 4.33541 107 161 156
-0.579731 0.316989 4.30488 92 118 105
-0.280273 0.322688 4.31412 95 121 115
0.57259 0.320787 4.31098 84 116 105
-2.18712 0.320543 4.26216 84 145 131
-1.72947 0.322279 4.2866 76 129 120
-1.49159 0.324345 4.30266 115 163 157
1.39981 0.326245 4.33977 102 161 153
-1.32666 0.32365 4.29306 83 130 121
-1.25674 0.327187 4.29233 94 153 139
-0.273056 0.328177 4.31286 176 219 216
0.630844 0.329758 4.32045 84 134 122
1.06107 0.329888 4.32894 109 175 164
-1.69286 0.329543 4.28457 181 222 224
0.695385 0.337107 4.33161 187 237 227
-1.93873 0.332074 4.27225 106 166 160
-1.37068 0.338172 4.29279 84 152 145
0.339992 0.342808 4.3295 193 235 217
0.385206 0.342225 4.32634 198 229 226
-1.84457 0.342658 4.29745 97 158 160
-0.569031 0.343501 4.313 125 174 166
0.357216 0.343162 4.3158 171 199 199
-0.367343 0.347482 4.31748 60 81 78
0.546636 0.346709 4.32579 114 161 159
0.320875 0.350216 4.32702 155 205 195
1.30486 0.352842 4.33593 103 157 150
1.54902 0.355158 4.35282 100 162 148
-2.51518 0.352842 4.26442 49 130 105
-1.25428 0.353852 4.29147 131 200 189
1.15237 0.356363 4.32684 99 158 154
1.34012 0.356779 4.3367 99 135 129
2.07143 0.359212 4.3636 107 169 155
-1.8866 0.357651 4.28892 77 152 138
-1.52423 0.35545 4.29674 154 215 205
-1.46123 0.354618 4.29968 144 206 194
1.31781 0.358929 4.33335 107 154 145
-1.88716 0.359485 4.29314 71 145 133
-1.77185 0.363977 4.29443 88 151 141
-2.11182 0.364475 4.28409 59 138 124
-1.3558 0.365684 4.30781 177 227 227
2.15199 0.37438 4.37191 124 196 174
-2.10411 0.372979 4.27989 61 132 122
-0.620883 0.375378 4.32447 120 154 143
-0.230472 0.377721 4.32785 64 98 97
-1.49802 0.374817 4.29692 82 140 129
-1.76473 0.378829 4.29894 195 232 228
-1.53405 0.381228 4.30392 98 142 136
-1.26551 0.380128 4.32343 156 216 206
-0.220104 0.381127 4.33455 108 132 132
0.52571 0.384976 4.33056 110 157 149
1.52875 0.38599 4.35986 101 167 155
-1.75714 0.380124 4.29789 108 149 144
-2.34298 0.383136 4.27967 63 124 110
-1.24214 0.388905 4.31135 65 97 86
0.0448886 0.385934 4.31124 194 239 223
2.00843 0.391196 4.36971 125 186 172
-0.232495 0.392188 4.33039 208 235 232
0.266949 0.391431 4.34559 109 162 159
-2.44076 0.392251 4.26837 162 232 215
-1.75803 0.393304 4.29581 157 220 211
-0.586392 0.399061 4.33053 149 204 195
1.57041 0.401359 4.35924 84 156 143
-1.42867 0.398776 4.29509 159 231 211
0.270376 0.407941 4.34856 101 150 142
-2.11675 0.405431 4.28952 170 223 220
-2.11093 0.409683 4.28587 81 139 134
-0.439867 0.41385 4.32177 128 171 168
0.935841 0.412642 4.34648 153 210 202
-0.418649 0.415314 4.3388 109 134 136
0.255881 0.41751 4.34872 65 99 92
1.25803 0.41656 4.34043 184 230 224
0.791341 0.42025 4.34753 107 166 162
1.03144 0.418263 4.34239 171 220 212
-2.4319 0.416317 4.27194 147 203 190
-1.72697 0.422893 4.30803 101 171 158
0.286219 0.428704 4.35922 100 156 145
-1.38539 0.427325 4.31341 170 228 217
-1.0018 0.428973 4.33278 46 102 89
0.502434 0.426256 4.33305 126 161 157
0.538649 0.429086 4.33565 109 150 143
-1.36133 0.431012 4.32171 78 118 107
-0.401617 0.428961 4.3349 111 164 161
0.673762 0.432977 4.35611 94 171 163
-1.41676 0.431328 4.31551 81 132 124
-0.275046 0.442444 4.34489 97 131 125
1.57038 0.446659 4.37613 69 128 114
-2.23549 0.43691 4.28833 95 144 136
-2.21237 0.437949 4.29151 148 215 200
-0.42496 0.443551 4.3441 105 149 143
1.49815 0.443471 4.35377 109 158 144
-2.24487 0.442926 4.30628 103 164 150
-1.73007 0.446919 4.31138 165 225 214
-1.68322 0.448511 4.32131 74 132 121
-1.55836 0.447067 4.31496 168 217 215
0.0883257 0.44701 4.33114 122 153 150
0.267745 0.451694 4.34621 106 146 135
0.923246 0.450309 4.35216 188 232 225
-2.00997 0.448654 4.30858 150 217 208
-1.55149 0.450085 4.32088 104 135 136
0.0205741 0.451681 4.30959 129 199 169
0.455796 0.454158 4.35942 180 237 228
-0.662468 0.457401 4.32794 127 174 166
0.104718 0.456581 4.34251 107 147 142
0.299169 0.459944 4.36434 115 155 144
1.27202 0.458918 4.34955 126 170 171
-0.147764 0.462745 4.35379 80 114 107
0.36785 0.463352 4.35152 108 154 148
0.921806 0.463914 4.34975 108 159 152
0.761036 0.467768 4.34867 122 173 169
-1.59269 0.465418 4.30729 73 92 89
-2.24638 0.467736 4.30663 168 228 220
-2.14625 0.471471 4.31225 156 222 210
-1.57885 0.471087 4.30855 145 187 180
-0.263305 0.474508 4.35016 94 134 129
0.302928 0.472762 4.35718 87 143 130
-1.70147 0.473353 4.30794 101 151 141
0.292624 0.475562 4.35611 186 232 220
-2.45687 0.473751 4.28934 162 227 211
0.396043 0.47821 4.35418 110 166 155
0.659071 0.485843 4.36328 92 159 144
-2.51631 0.484109 4.29383 76 137 127
-1.90349 0.489347 4.32618 72 141 126
0.018848 0.489255 4.34427 76 120 113
0.676236 0.492277 4.36002 97 166 151
1.44979 0.490447 4.35981 186 229 216
-2.46299 0.486698 4.29706 86 139 130
-0.741788 0.496479 4.34967 116 161 152
0.977602 0.496048 4.34978 147 176 181
-2.35287 0.493436 4.3063 44 101 93
-1.63922 0.495576 4.31061 166 229 220
-1.61521 0.495656 4.31037 92 114 126
-0.684416 0.500132 4.35029 119 170 166
0.119139 0.503883 4.36891 220 243 245
0.142533 0.507024 4.36363 111 145 151
-0.729198 0.51065 4.36128 91 146 143
-2.40011 0.506313 4.29187 140 177 173
-0.713195 0.515537 4.35523 75 139 139
-0.427486 0.515385 4.35197 134 180 174
0.688644 0.518967 4.36679 96 150 137
1.39534 0.517029 4.36493 128 180 170
1.06227 0.523238 4.36762 108 168 162
-0.748198 0.526223 4.35839 150 217 208
-0.472419 0.524581 4.36243 106 165 161
0.14946 0.529861 4.37443 121 157 157
-1.78228 0.527447 4.3396 79 142 133
-1.6585 0.523384 4.31978 87 147 146
-2.03162 0.5283 4.33477 161 222 218
-2.46692 0.526605 4.30796 72 121 107
0.651969 0.539333 4.37072 98 175 161
0.799737 0.539197 4.3785 109 164 161
-2.48843 0.533532 4.31166 93 150 142
0.549687 0.542649 4.37317 116 182 171
-2.25679 0.535957 4.32241 102 168 157
0.964713 0.5436 4.36646 98 164 152
-1.81814 0.543052 4.33565 173 225 218
0.307747 0.547536 4.37014 116 153 149
0.731263 0.547433 4.36845 169 220 212
2.24575 0.553687 4.40484 113 174 160
-0.826665 0.555743 4.36984 40 89 73
0.20322 0.557181 4.36056 133 167 161
0.411152 0.563868 4.38728 95 146 139
-0.358201 0.56271 4.37345 114 161 152
-0.0720011 0.561718 4.37792 60 94 93
1.28191 0.562589 4.37303 122 169 161
-2.36099 0.55826 4.32035 155 216 202
0.203546 0.563502 4.3692 102 143 135
-0.284481 0.567684 4.37317 165 229 217
0.551872 0.570298 4.38571 91 160 149
-0.0493295 0.572492 4.37935 108 153 144
0.0685997 0.572318 4.38124 99 143 136
-2.06734 0.568142 4.33599 87 141 134
-0.375284 0.575049 4.36893 79 130 116
0.263067 0.575329 4.38289 198 242 235
-2.11577 0.572317 4.33635 134 197 188
0.71125 -0.371429 -2.7979 126 173 147
-2.51175 0.574208 4.31773 99 159 149
-2.36834 0.577711 4.3335 178 228 226
-0.820064 0.58163 4.36168 52 102 92
-2.17933 0.580828 4.32457 65 109 108
-0.80457 0.587333 4.36648 116 199 184
0.246186 0.59004 4.39129 118 165 157
0.260932 0.586467 4.38948 174 225 221
0.45494 0.588964 4.3796 121 186 177
-0.389312 0.590811 4.36773 136 177 169
0.306023 0.599514 4.39315 114 176 164
1.4285 0.597171 4.40072 121 161 150
0.878282 0.600159 4.39674 113 167 168
0.89557 0.600264 4.39249 117 181 175
-2.44865 0.593499 4.31995 156 218 206
-2.13461 0.595721 4.35259 46 87 82
-1.5024 0.59737 4.34809 67 117 105
1.0634 0.59908 4.38039 85 151 140
-2.10104 0.599309 4.3499 188 236 240
-1.51613 0.603021 4.35994 70 118 106
0.0795712 0.606191 4.39078 96 152 139
-2.11044 0.603804 4.34726 172 221 223
-1.96973 0.607153 4.35327 165 234 223
-0.0534813 0.609759 4.38902 168 221 212
0.182585 0.61157 4.39532 114 171 163
-1.27155 0.593103 4.20669 144 212 201
0.266686 0.615488 4.38528 106 147 140
1.15921 0.616256 4.38415 208 245 243
-2.32877 0.611246 4.33947 88 144 131
-1.77811 0.613561 4.34735 94 136 129
1.20413 0.621163 4.38518 116 156 151
-2.32261 0.614841 4.34283 67 134 119
0.545431 0.623445 4.39073 104 173 163
-0.0678354 0.622602 4.38869 157 210 197
-1.10225 0.56387 3.93996 203 244 212
-2.1886 0.627548 4.3461 177 224 221
-0.861839 0.637311 4.38016 140 207 192
-0.515905 0.641439 4.38877 155 221 210
-2.12591 0.63946 4.35825 89 152 142
-0.750543 0.643413 4.38795 98 158 150
-0.147895 0.640869 4.37356 113 160 151
1.16695 0.643386 4.39063 128 177 175
1.39716 0.643202 4.40126 110 149 147
-0.497323 0.650276 4.39618 172 232 224
-0.298836 0.649979 4.39261 126 178 168
0.400363 0.649788 4.40284 94 148 143
-0.843136 0.652788 4.39762 148 223 209
0.119393 0.653603 4.4009 116 179 169
0.230359 0.651935 4.38747 125 165 160
0.800865 0.654801 4.40444 83 130 122
-1.89744 0.649565 4.35306 115 158 149
-0.884753 0.652288 4.38784 54 85 76
-0.336382 0.655103 4.38833 105 152 144
0.372565 0.660757 4.40764 97 148 140
0.419568 0.659319 4.39973 89 159 152
-2.18844 0.654948 4.34814 62 89 85
-2.1798 0.65349 4.34651 140 188 176
-1.74357 0.659012 4.36489 161 221 211
-0.611755 0.661291 4.38959 148 225 204
0.554767 0.661289 4.39413 111 155 156
-0.583638 0.663747 4.39703 49 126 105
1.36037 0.662999 4.39384 136 177 172
-0.961096 0.666488 4.39259 85 121 99
-2.1551 0.667422 4.36424 177 224 221
-0.521136 0.669639 4.39492 80 129 121
0.0629814 0.671935 4.40565 110 146 146
0.468854 0.669912 4.40005 111 163 169
-2.682 0.66498 4.34521 85 138 125
-2.72095 0.667734 4.34759 69 130 116
-1.38262 0.653586 4.24736 171 222 194
1.39661 0.678032 4.41535 117 158 151
1.38529 0.682563 4.40781 118 166 154
0.0128263 0.680966 4.39497 82 115 111
-2.18314 0.684857 4.37945 150 205 202
0.354368 0.689042 4.40919 97 134 132
-0.560349 0.686256 4.38721 92 146 133
-0.35401 0.691921 4.40923 106 164 159
1.2221 0.69244 4.4011 111 141 146
-2.14686 0.687498 4.36636 169 230 220
-1.97335 0.689444 4.37874 177 229 222
-1.71576 0.690688 4.37215 92 140 134
-0.0182399 0.689146 4.38866 102 123 124
0.678035 0.699753 4.41363 99 161 155
1.43114 0.703761 4.42374 111 156 153
1.508 0.703087 4.41937 105 155 143
-1.84784 0.700091 4.37068 73 140 125
-0.583906 0.706969 4.40385 100 160 154
-0.29797 0.705971 4.40866 84 126 119
0.829507 0.707123 4.41296 120 167 164
-0.969016 0.708512 4.39828 136 182 176
1.81792 0.716848 4.42437 107 172 156
-0.158447 0.720637 4.42031 98 151 141
-2.45499 0.71394 4.3679 94 154 148
-1.59909 0.715729 4.37795 76 129 116
-1.87483 0.719565 4.38499 129 174 165
-0.750745 0.725503 4.40805 86 131 122
0.420749 0.729556 4.42835 94 151 148
0.787525 0.729094 4.42304 125 173 167
0.0873958 0.733065 4.42728 86 143 128
-0.338109 0.733573 4.41334 108 159 151
0.0207302 0.728551 4.38418 78 102 102
1.90521 0.735776 4.42442 85 168 146
0.153747 0.736017 4.40405 70 101 94
-0.997027 0.738877 4.40232 125 157 146
-0.308109 0.744082 4.42749 112 154 147
1.26945 0.740501 4.4251 113 170 167
-1.63612 0.739631 4.38699 86 138 131
-0.669077 0.743319 4.42833 98 140 133
-0.506741 0.740684 4.41913 101 141 139
-0.397293 0.743451 4.41575 86 138 131
0.543629 0.746686 4.41459 107 143 143
-1.95139 0.745845 4.39021 112 153 145
-2.16405 0.74511 4.38142 85 143 132
1.14461 0.752798 4.40694 115 153 157
1.44694 0.752282 4.41512 145 191 179
-1.60104 0.751881 4.39933 56 125 114
1.03002 0.754865 4.417 112 174 160
-2.03046 0.752666 4.38555 166 233 226
-1.68017 0.754572 4.39578 138 208 195
-1.67101 0.753687 4.39632 83 154 138
0.018173 0.752179 4.39254 103 138 134
0.521296 0.760978 4.43233 107 151 145
0.131166 0.757381 4.40814 88 113 103
0.417922 0.765261 4.42967 176 236 230
-1.57187 0.760588 4.3952 93 120 117
1.16052 0.761374 4.41077 120 164 158
0.424238 0.771311 4.43366 83 143 133
-1.58517 0.765885 4.39657 58 111 98
0.107685 0.76488 4.39906 113 172 157
1.57069 0.776113 4.43376 82 146 124
0.0837231 0.780179 4.43633 203 248 239
-2.09384 0.775356 4.39455 83 151 134
0.531993 0.778445 4.41985 157 197 196
0.847458 0.780107 4.43457 216 252 246
-0.298078 0.77885 4.40629 108 150 143
-0.262011 0.785655 4.43425 89 142 133
-1.91941 0.781076 4.40606 76 128 118
-2.32308 0.780111 4.38636 151 205 192
-2.09751 0.782691 4.39777 79 135 124
0.0596845 0.789261 4.43276 93 160 145
-0.619625 0.791948 4.41659 97 136 128
-0.483323 0.791608 4.43915 97 149 139
-0.937423 0.797311 4.43379 163 220 217
-0.318206 0.799019 4.43147 111 158 155
-0.981117 0.802649 4.43655 45 119 101
-0.503847 0.799072 4.42098 82 131 117
1.29709 0.806001 4.4361 105 149 143
-1.85624 0.802132 4.40958 79 134 125
-1.57126 0.804681 4.41187 51 68 64
-1.55515 0.801936 4.40698 76 123 114
-0.525943 0.808939 4.42332 162 209 200
-0.674074 0.813273 4.43401 165 211 205
0.951245 0.814705 4.44314 94 160 149
-0.297471 0.814247 4.42277 88 106 105
0.395867 0.818319 4.44137 118 176 171
-0.783733 0.818968 4.43568 47 102 93
-1.93602 0.814989 4.40153 112 143 140
1.2201 0.821591 4.43181 133 177 171
-0.709218 0.824115 4.42527 75 144 124
-0.30815 0.824522 4.43015 96 121 117
0.625312 0.824123 4.44262 89 151 151
1.03314 0.824035 4.42995 82 172 153
1.36307 0.826124 4.44834 102 129 126
-2.45474 0.819257 4.39219 80 139 131
-0.165637 0.83432 4.4391 59 99 87
1.48019 0.835984 4.44848 108 153 144
-0.0949653 0.840955 4.45238 104 149 140
-2.36786 0.836248 4.40577 80 137 136
-1.68686 0.841569 4.42228 96 153 138
-0.812198 0.841985 4.44042 160 220 214
-0.140004 0.84475 4.44797 74 99 95
-0.530998 0.845883 4.43936 80 136 123
-2.2839 0.847458 4.41723 104 161 152
-2.07418 0.848232 4.4183 179 230 223
-1.88515 0.851302 4.42451 111 160 158
-0.419107 0.851749 4.43562 162 213 199
-1.9245 0.849843 4.4111 117 168 161
-1.78107 0.854231 4.42429 162 226 214
-0.249053 0.854136 4.44126 177 213 207
-1.85595 0.856655 4.42245 115 152 150
-0.782015 0.864723 4.45969 72 121 107
-0.0899617 0.869019 4.46275 168 227 219
-0.480963 0.866129 4.44085 95 127 116
1.56144 0.870149 4.45838 87 164 143
-1.9713 0.86925 4.42112 83 141 130
-0.686044 0.868903 4.44575 102 146 140
-0.80868 0.876883 4.44926 175 234 220
-0.585572 0.875293 4.449 91 146 131
-0.57256 0.870897 4.43992 151 219 188
-0.55837 0.872545 4.44429 66 119 106
-0.431484 0.874362 4.44356 96 119 114
0.519888 0.874557 4.44815 129 180 176
1.5481 0.878201 4.45825 95 186 160
-0.633084 0.881539 4.45752 89 138 124
-1.84077 0.878639 4.42829 108 136 130
-2.42868 0.876634 4.41549 80 149 129
-0.344906 0.880841 4.44759 174 210 216
0.640788 0.885272 4.45052 175 228 225
-2.34109 0.880047 4.41887 181 234 224
-2.09526 0.88531 4.4275 155 212 204
-0.649884 0.893581 4.45506 85 132 136
1.0342 0.890483 4.45346 92 157 141
-2.10605 0.891194 4.4267 101 160 156
-0.54223 0.893616 4.45004 84 119 109
-0.530847 0.893774 4.45189 112 162 152
-0.68176 0.898039 4.45312 41 82 74
-0.261924 0.897013 4.45027 105 142 134
-2.72615 0.890479 4.40797 92 150 145
-1.81833 0.891716 4.42077 168 222 209
-0.610265 0.898403 4.45124 106 150 144
-0.0611031 0.902054 4.46319 85 138 129
-1.84194 0.899261 4.43875 85 132 123
-1.82822 0.895653 4.42681 164 214 204
-0.993686 0.901355 4.45459 139 211 198
-0.162476 0.90577 4.46133 101 143 126
-0.898592 0.909906 4.45652 162 219 210
-0.0644942 0.912277 4.47492 79 134 125
1.56181 0.909125 4.45907 91 151 133
-2.36845 0.904862 4.42623 103 141 135
-2.08956 0.908788 4.43713 117 146 137
-0.563994 0.914581 4.45572 145 206 186
2.08086 0.915554 4.47285 105 177 164
2.25795 0.915622 4.47472 107 181 155
-2.36678 0.914306 4.42478 170 232 218
-1.93758 0.917089 4.44022 117 178 168
-0.0391125 0.92583 4.47802 75 149 137
-1.81931 0.917991 4.423 80 132 114
-2.13752 0.924552 4.43382 116 174 163
-1.82926 0.925293 4.44142 107 158 144
-0.671275 0.931715 4.46729 58 113 94
1.31833 0.928339 4.4482 151 195 178
-2.74285 0.922599 4.41081 94 169 155
-1.99108 0.933367 4.44225 82 113 106
-0.477548 0.935676 4.45378 118 163 154
0.217095 0.937876 4.46948 99 167 156
-0.996587 0.939079 4.45451 51 95 82
-0.822094 0.945661 4.4726 171 232 228
1.00796 0.942632 4.46052 91 140 132
-2.18988 0.940228 4.43769 76 132 121
0.226856 0.945977 4.4759 179 225 226
-1.62066 0.953787 4.45769 91 147 134
-1.93013 0.954637 4.45278 175 226 218
-1.00738 0.954044 4.45138 37 75 57
0.227037 0.960664 4.48359 99 147 141
0.239131 0.962408 4.48058 164 220 209
-2.18379 0.958785 4.44644 96 147 139
-0.850031 0.961882 4.47293 157 222 207
-2.00025 0.958285 4.44681 168 225 210
-0.635813 0.970432 4.48748 131 198 183
0.189146 0.967092 4.47796 107 176 163
-1.83964 0.961619 4.44643 167 217 207
2.25145 0.971985 4.4863 98 174 156
-2.00979 0.96608 4.45109 95 147 137
0.452793 0.974319 4.48296 84 153 142
1.20671 0.972005 4.46293 96 141 138
-1.77352 0.973173 4.45377 146 221 200
-0.655093 0.977007 4.46696 144 199 184
-0.583335 0.979696 4.48245 98 159 149
0.608013 0.975646 4.47244 88 157 146
-2.46944 0.975436 4.44277 123 177 170
-0.82997 0.982947 4.47415 61 135 123
-0.510826 0.980687 4.46341 119 154 150
0.486588 0.985306 4.48067 90 157 150
-2.03729 0.982053 4.46568 109 156 148
0.0177454 0.990828 4.49594 94 156 150
0.246984 0.989135 4.48856 83 129 116
-2.76012 0.982368 4.43907 132 211 192
-0.643544 0.991219 4.478 89 149 143
-1.77779 0.990826 4.4595 51 118 103
-1.04791 0.996283 4.46828 54 94 82
0.910982 0.995556 4.47613 92 148 137
-0.926959 0.996953 4.47509 83 145 127
-0.614285 0.995903 4.47516 107 170 154
-0.0554693 1.00446 4.49246 78 151 141
-2.10008 0.998994 4.45059 154 201 193
-0.376351 0.999045 4.45734 161 223 201
0.0367929 1.00831 4.50008 102 155 146
0.716128 1.00864 4.48274 90 161 151
0.986458 1.00802 4.4704 109 152 149
-1.59147 1.00751 4.45894 63 126 116
-0.600828 1.01023 4.47536 87 148 138
-1.95613 1.01109 4.46594 71 124 115
0.578647 1.01732 4.4772 134 178 177
-0.939354 1.02148 4.47712 74 114 96
0.0697082 1.02576 4.50418 102 153 156
-0.735 1.01945 4.46993 163 225 213
-0.913188 1.02876 4.48806 148 207 193
-2.34553 1.02406 4.46048 89 146 138
-0.604273 1.03432 4.47951 68 139 123
1.46394 1.03632 4.49568 97 179 157
-2.73271 1.02931 4.46109 75 131 118
-1.97405 1.03198 4.46508 108 154 148
-0.129027 1.04299 4.50573 145 214 204
-1.99585 1.03896 4.4622 92 143 136
-0.130227 1.04946 4.50317 61 121 110
-1.81339 1.04768 4.47535 149 204 195
-0.920869 1.05164 4.48785 66 132 113
1.17161 1.05615 4.48818 83 124 116
-0.598061 1.06265 4.49848 109 169 159
0.494676 1.06123 4.49807 99 155 150
-1.48073 1.05608 4.47213 168 224 211
-0.622085 1.06353 4.49788 82 141 127
-0.534716 1.06368 4.49779 203 252 232
-0.133461 1.06786 4.51313 81 139 121
0.366264 1.06446 4.50437 77 150 140
-1.94485 1.06141 4.48071 94 143 135
-1.7916 1.06072 4.4716 160 217 209
0.069582 1.069 4.51395 97 154 145
0.289309 1.0634 4.49642 87 150 140
1.41313 1.06699 4.50129 101 161 150
-0.611037 1.07297 4.50182 166 230 218
-1.85039 1.0699 4.47603 88 137 121
1.09921 1.06966 4.4802 115 183 172
1.35551 1.07554 4.50135 85 126 119
-0.955559 1.07671 4.49677 56 117 97
1.30678 1.07874 4.50019 111 158 156
1.33244 1.07862 4.50024 79 124 115
-1.90956 1.07458 4.47594 92 131 123
0.247589 1.0838 4.51582 91 154 145
0.858776 1.08082 4.50112 104 164 154
1.4331 1.08182 4.503 92 149 140
1.18281 1.08161 4.48754 106 168 156
-1.07413 1.08648 4.49253 103 156 147
-0.874577 1.08947 4.51136 99 163 151
0.657674 1.08671 4.49046 100 150 150
-2.14169 1.08813 4.49029 91 144 135
-0.950778 1.09944 4.51306 72 134 120
-1.68708 1.0963 4.48232 51 88 78
-0.762963 1.10124 4.50978 143 200 191
-1.5166 1.10065 4.49741 65 121 108
-0.835712 1.10732 4.50229 163 213 203
-0.233721 1.11075 4.51542 121 169 157
-1.55148 1.10787 4.49829 77 136 128
-1.84662 1.10656 4.481 111 149 149
-0.753648 1.11342 4.51202 158 213 198
-1.20504 1.11457 4.50182 106 156 146
-0.184264 1.11985 4.52044 93 145 138
0.164927 1.12387 4.53447 95 157 151
0.460103 1.1173 4.51087 90 142 142
-1.1296 1.12072 4.51247 97 129 124
-0.834988 1.11695 4.49282 119 162 149
-0.454934 1.12553 4.52135 89 146 137
-1.68872 1.11977 4.48658 174 215 208
-1.52678 1.12485 4.50338 72 116 99
1.06842 1.11827 4.48437 107 165 154
-2.52938 1.12628 4.49311 43 96 82
-1.27693 1.1278 4.50352 166 228 216
-1.19016 1.1321 4.52078 97 141 135
-0.728145 1.13353 4.51855 166 223 215
-0.0572099 1.13615 4.5266 77 137 127
-1.90799 1.13224 4.50103 117 141 141
-0.927455 1.13866 4.51835 161 232 216
-0.904916 1.13574 4.51423 103 165 153
0.0832041 1.14018 4.53178 171 234 225
0.0938548 1.13883 4.5258 76 139 130
1.0401 1.12903 4.49081 93 148 139
-0.468219 1.1404 4.51815 60 95 85
-0.455166 1.13928 4.51417 159 208 188
-0.10903 1.1388 4.51291 90 143 133
-1.80163 1.13535 4.49181 163 213 195
-0.828034 1.1374 4.50209 180 229 221
-0.805773 1.13733 4.49651 88 107 98
-0.713631 1.14427 4.52085 68 130 112
-0.419703 1.14009 4.5181 83 106 92
-1.26235 1.14439 4.51486 173 219 207
-1.09273 1.14359 4.51231 124 161 157
-0.507012 1.14857 4.53371 73 110 102
-0.4822 1.15022 4.52632 134 178 161
-0.359682 1.14867 4.53002 117 160 147
-0.164016 1.14744 4.51687 100 165 156
1.22856 1.14363 4.50519 121 178 169
-1.778 1.14106 4.48881 103 136 132
-1.51441 1.14642 4.50116 68 128 110
-1.31993 1.14856 4.51379 84 141 132
-1.03158 1.14531 4.51029 82 125 114
-0.853427 1.1446 4.50272 110 143 139
-0.842747 1.14777 4.51576 194 239 230
0.167855 1.1557 4.53502 185 242 233
0.378405 1.15253 4.52073 88 145 136
-1.99009 1.14843 4.50132 187 230 221
0.583961 1.15272 4.51352 73 155 143
-1.05694 1.15858 4.53215 74 94 89
-0.778362 1.15507 4.51051 133 187 170
0.157709 1.16253 4.53197 104 157 148
0.339747 1.15578 4.51627 89 121 110
1.03181 1.15421 4.50387 73 150 136
0.349231 1.15827 4.50992 166 206 195
1.35179 1.16128 4.51844 112 164 154
-0.295307 1.16759 4.53352 92 148 137
-1.97402 1.16461 4.50536 91 136 127
-0.911066 1.168 4.52269 178 229 222
-0.762227 1.16675 4.51831 148 192 175
-1.26015 1.16796 4.51411 106 157 149
0.727018 1.16835 4.51649 92 151 143
-2.02929 1.16883 4.5063 106 144 138
-1.70741 1.16463 4.48992 88 112 110
-2.10445 1.17503 4.51242 108 142 135
-1.63982 1.17126 4.50244 98 130 129
-1.02566 1.17816 4.52792 122 168 162
-0.28816 1.17832 4.527 169 225 214
-2.13545 1.18157 4.5192 80 141 131
-0.957142 1.1823 4.53166 191 237 231
0.399914 1.17887 4.52026 75 145 132
-1.77868 1.18278 4.50313 85 110 100
-0.312664 1.18785 4.53073 79 128 120
1.27746 1.1898 4.53673 96 163 148
-2.61408 1.1824 4.5015 74 137 121
-2.02283 1.18587 4.50757 73 109 97
0.42718 1.19156 4.52916 87 124 116
-1.53268 1.18319 4.5024 74 126 116
-1.43844 1.18771 4.51183 84 120 114
0.472466 1.19321 4.52745 72 148 136
-2.12699 1.19325 4.51936 68 131 129
-0.571373 1.19671 4.52857 80 133 120
-2.00477 1.19923 4.52243 80 114 107
-0.314502 1.20387 4.54622 115 162 153
-1.96243 1.19778 4.51644 142 180 182
-1.34238 1.20461 4.53944 190 234 228
-0.609988 1.20264 4.53522 63 103 98
-1.89694 1.19982 4.51102 96 118 116
-2.2135 1.207 4.52157 164 232 221
-1.70421 1.20293 4.51775 72 98 92
-1.00947 1.20995 4.53115 111 153 146
-0.58718 1.20895 4.53172 123 177 164
-0.965759 1.21115 4.53355 144 204 193
-0.639493 1.21597 4.54517 88 141 131
-0.0344678 1.21855 4.54922 79 141 119
-0.828836 1.21328 4.51967 92 153 127
1.02248 1.21364 4.52117 109 168 160
-1.96203 1.21356 4.51532 177 218 211
-1.47117 1.2187 4.53875 93 122 119
-0.703323 1.21961 4.53386 135 211 187
-0.610832 1.21893 4.53986 192 243 229
-0.233771 1.21707 4.53304 76 110 100
-2.18211 1.21905 4.52641 63 134 118
-1.76304 1.2171 4.51576 93 173 130
-0.0269699 1.22793 4.55209 123 199 181
0.446599 1.2217 4.53799 116 174 169
-0.345952 1.22558 4.52216 182 240 216
2.339 1.22937 4.54561 111 176 160
-2.59473 1.22403 4.5111 148 211 191
-1.62943 1.23053 4.53267 80 94 92
-1.01441 1.23441 4.54364 96 138 127
-0.337342 1.23349 4.54551 71 110 102
-0.647504 1.23466 4.53859 171 224 215
-0.0840561 1.23788 4.55109 84 152 141
-1.79775 1.23262 4.51744 181 214 210
-1.05839 1.24181 4.54738 108 172 160
-0.898776 1.23465 4.52978 106 166 156
-0.325 1.23984 4.54476 110 156 144
-0.0272926 1.24453 4.56046 68 124 111
-1.10908 1.23991 4.54125 102 137 133
-0.570166 1.23727 4.52696 136 172 172
-0.25097 1.24087 4.53557 102 142 130
0.44944 1.2406 4.54088 103 163 157
-0.79841 1.24891 4.55332 77 111 101
-0.746086 1.24301 4.53409 60 105 96
1.87807 1.2478 4.55449 100 170 157
-2.19286 1.24827 4.53662 68 120 110
-1.65867 1.24355 4.51966 95 127 126
-2.6582 1.24288 4.50183 140 178 156
-0.926918 1.25427 4.54566 80 135 126
-0.78424 1.25563 4.55067 77 114 104
-0.724987 1.25335 4.54173 84 113 104
-0.274607 1.25332 4.54209 133 174 159
-2.01673 1.2545 4.52126 171 213 206
0.909891 1.2594 4.53936 92 131 123
-1.58933 1.25822 4.52496 122 153 150
-2.2113 1.26594 4.5428 87 145 134
-1.12391 1.26674 4.55225 95 148 135
0.826218 1.27034 4.54553 78 129 121
1.3557 1.2707 4.54812 118 178 168
-1.82897 1.26492 4.51767 137 182 173
0.281242 1.28141 4.56768 95 165 152
-2.08138 1.27068 4.52879 100 136 130
-0.0991854 1.28496 4.55711 145 214 204
0.323784 1.28545 4.55979 80 139 125
-0.591375 1.28581 4.53858 88 132 125
0.575044 1.28916 4.55043 108 174 163
-1.03849 1.29644 4.56576 119 180 166
-0.836516 1.2938 4.55651 161 218 209
-0.253836 1.29255 4.55744 93 136 125
-0.188376 1.29251 4.55694 96 128 127
-1.83029 1.29472 4.54738 88 125 117
0.074213 1.29974 4.56702 72 141 130
0.934916 1.2944 4.55027 92 152 141
-0.0809505 1.31103 4.57107 81 152 142
-2.07076 1.30562 4.53869 91 115 107
-1.8218 1.30324 4.5436 198 240 233
-2.44263 1.30538 4.53932 81 115 105
-1.80026 1.30835 4.54201 130 163 156
-1.18456 1.31491 4.57111 118 175 172
-0.379426 1.30725 4.5437 171 230 216
-2.64202 1.30872 4.53807 167 204 194
-1.42541 1.31902 4.5634 162 225 215
0.289271 1.32003 4.57031 95 166 156
0.775132 1.31136 4.54416 103 157 144
-1.85408 1.31053 4.53894 105 139 133
0.257139 1.32243 4.57074 151 223 210
-2.08349 1.31406 4.53304 122 149 145
0.0499724 1.32577 4.57127 144 203 188
-1.62573 1.32094 4.54825 134 212 195
-1.31278 1.32924 4.57279 176 236 225
-1.26737 1.32948 4.57807 126 171 162
-0.910993 1.32598 4.56328 89 140 132
0.0608604 1.32862 4.57155 59 120 106
-1.55176 1.32921 4.5547 154 219 204
0.0348395 1.33763 4.58322 77 118 113
0.31054 1.34414 4.58422 78 139 129
0.118744 1.34441 4.5818 163 226 216
0.16466 1.3441 4.57638 169 233 227
-1.81823 1.33542 4.54418 108 145 137
-1.7239 1.33666 4.54784 97 138 131
-1.51847 1.34398 4.56381 92 151 137
-1.47755 1.34034 4.55962 183 228 219
-1.53126 1.35339 4.55605 83 143 133
-1.51108 1.35673 4.56295 66 119 106
1.21668 1.35791 4.56799 85 136 129
-0.974371 1.36555 4.58224 109 166 158
-0.650242 1.36307 4.57409 196 229 232
0.706585 1.36138 4.56797 92 141 139
-2.11673 1.36071 4.56345 107 159 152
-2.00446 1.36092 4.55939 167 227 216
-1.5218 1.35941 4.55563 166 228 212
-0.167569 1.36796 4.57619 190 233 224
-0.64386 1.3739 4.5808 131 178 170
0.20411 1.37749 4.58876 80 117 109
1.08117 1.3622 4.55313 79 146 137
-1.93125 1.37354 4.57022 114 163 149
-1.03563 1.37567 4.58394 196 237 232
-0.0919868 1.37564 4.58324 108 157 149
-1.04824 1.37979 4.58817 83 136 127
0.0812888 1.38658 4.58978 126 201 193
-1.02837 1.39637 4.59798 97 152 143
-0.63499 1.39109 4.59064 103 146 143
-2.09499 1.38696 4.56463 94 150 139
-1.48714 1.38774 4.57037 93 146 136
-1.42478 1.38695 4.5672 100 147 138
-0.927653 1.39538 4.59361 180 231 223
0.472756 1.39467 4.58342 101 162 152
-1.29118 1.39779 4.59329 82 137 128
-0.698613 1.3916 4.57107 103 159 130
1.11601 1.38848 4.55836 112 163 166
-0.964702 1.40082 4.5921 86 151 136
-0.656099 1.39947 4.58779 93 146 132
-0.139443 1.40005 4.58954 120 154 160
0.7175 1.40087 4.58261 111 179 172
-2.25929 1.40055 4.58183 107 166 158
-0.896571 1.40938 4.59588 68 93 89
0.112354 1.40203 4.57502 97 134 130
-1.8611 1.40996 4.58176 112 148 142
-1.62835 1.3987 4.55986 165 219 202
-1.40813 1.40473 4.58069 71 121 111
-1.70631 1.40434 4.56379 151 216 191
-1.50401 1.40418 4.56049 92 149 141
-1.05411 1.41004 4.58229 169 228 220
-0.644325 1.41419 4.59505 95 125 126
-1.65076 1.40776 4.56815 93 131 125
-0.0607788 1.41604 4.58467 148 190 179
0.536394 1.41787 4.58742 119 168 170
-1.705 1.41141 4.56335 94 147 127
0.797955 1.4167 4.58674 76 129 126
2.06607 1.42059 4.59512 122 175 162
-2.37777 1.4207 4.58191 96 140 134
-0.936183 1.42189 4.59301 58 94 88
-2.46849 1.42468 4.58056 177 233 222
-2.24906 1.42329 4.58541 93 128 124
-1.78282 1.4251 4.5884 132 151 158
-0.96275 1.42799 4.60249 75 135 124
-0.899831 1.42721 4.59987 174 219 216
-1.12505 1.43564 4.60699 75 126 122
-0.709104 1.42231 4.56931 171 237 202
-0.145751 1.42659 4.59473 77 118 110
0.0618309 1.43138 4.59852 145 216 200
0.656075 1.42624 4.58686 98 149 141
2.15049 1.42851 4.59085 95 160 138
-1.75329 1.42467 4.58007 125 159 159
-1.02068 1.43145 4.59459 97 149 139
0.340459 1.43053 4.58629 167 234 219
1.86831 1.43213 4.59708 85 146 118
2.17576 1.43237 4.59834 101 157 144
-1.78536 1.43454 4.59033 188 226 226
-1.05028 1.43624 4.60252 115 168 158
-0.882556 1.44213 4.61671 126 151 141
0.673538 1.43264 4.5825 113 173 163
-1.14333 1.44278 4.61061 92 135 122
-0.654491 1.43857 4.59671 176 234 206
-0.0844608 1.43422 4.58159 170 203 196
0.627205 1.44037 4.60076 126 166 154
-1.53481 1.4357 4.57435 64 101 93
-1.32425 1.44341 4.60311 162 207 204
-2.43688 1.44218 4.58691 92 146 141
0.386448 1.44682 4.59655 70 140 127
0.679462 1.44262 4.59396 124 179 170
-1.88207 1.45015 4.59941 113 153 148
-1.5164 1.44511 4.58804 87 146 138
-0.837342 1.45254 4.61213 109 162 152
0.22622 1.452 4.60324 112 165 162
0.733831 1.44971 4.604 89 144 135
2.14566 1.4502 4.601 120 170 158
-1.59059 1.44465 4.58129 83 135 128
-1.53848 1.44511 4.57692 167 233 221
-1.03182 1.4564 4.60698 91 147 134
-1.57373 1.44477 4.57243 159 219 208
0.0700988 1.45822 4.61072 73 135 121
-1.86221 1.45678 4.59289 95 123 123
-0.135369 1.46087 4.60498 179 224 215
-1.63867 1.45701 4.58312 77 84 77
-1.11674 1.46443 4.61612 81 153 130
1.87366 1.46168 4.60299 93 170 132
-2.08927 1.4619 4.59314 107 173 161
-1.79439 1.46301 4.60007 173 211 205
-1.3102 1.46979 4.61451 98 156 145
-1.08201 1.46866 4.61049 95 150 133
0.0912438 1.46575 4.60591 91 148 139
0.409215 1.46641 4.60194 78 143 128
0.890105 1.46347 4.59687 115 179 173
-1.99258 1.47128 4.60723 104 157 144
-1.86476 1.4639 4.59541 105 137 132
-0.926183 1.46493 4.60071 120 190 160
-0.582106 1.47288 4.60907 188 219 220
0.0102396 1.47167 4.61545 83 121 123
0.219754 1.46756 4.60071 127 180 177
-0.731038 1.46792 4.59582 124 150 150
-0.59385 1.4692 4.60046 126 144 143
-0.817627 1.47586 4.60606 84 137 124
-0.660714 1.48206 4.61869 172 218 212
-1.36823 1.48144 4.61704 174 229 220
0.574944 1.46662 4.56596 93 130 120
-0.864249 1.48477 4.61401 113 160 138
0.0208213 1.48156 4.60402 77 119 108
-1.63148 1.48401 4.59577 57 74 65
-1.41744 1.48274 4.59959 172 220 214
-1.26331 1.48906 4.61698 152 208 203
-1.24928 1.48816 4.61704 86 131 134
0.157668 1.48565 4.61168 104 162 151
-0.842583 1.4938 4.62615 97 156 142
0.683143 1.48509 4.60688 78 135 120
-2.44651 1.48482 4.59676 107 155 149
-1.51435 1.49435 4.61389 153 213 205
-1.19637 1.49731 4.62174 79 116 106
-1.13027 1.49435 4.62123 84 148 129
0.0306922 1.48775 4.60315 124 179 160
-1.7703 1.4862 4.58379 103 125 123
-1.39862 1.49325 4.59884 94 131 121
-1.03954 1.49906 4.62145 92 141 133
-1.03821 1.49926 4.6218 115 166 158
-0.927126 1.49878 4.61813 155 215 197
-0.218253 1.49283 4.59802 124 174 164
0.253482 1.49506 4.61409 108 159 162
1.07617 1.4945 4.6035 109 177 170
-1.48834 1.5009 4.6167 97 132 128
-0.868827 1.50423 4.6307 58 107 93
-1.40067 1.49625 4.60437 100 137 129
0.48914 1.50746 4.62044 90 159 139
0.867603 1.50251 4.6136 70 147 143
-1.38344 1.50575 4.61562 71 122 114
-1.33979 1.50668 4.61742 94 144 140
-1.14665 1.50459 4.61328 73 108 98
0.0244983 1.50415 4.60196 93 119 113
0.633726 1.49962 4.5832 143 188 169
-0.270642 1.5109 4.60694 163 192 189
0.901195 1.50547 4.59962 94 151 153
-0.705219 1.51532 4.61456 171 219 207
0.446033 1.51355 4.61565 87 151 139
0.64879 1.50654 4.59567 67 87 75
2.40476 1.51772 4.62356 100 177 163
-1.68211 1.51605 4.61106 163 216 203
1.00748 1.51608 4.60929 106 176 169
-0.238996 1.52082 4.61627 87 105 98
-1.41193 1.5234 4.61306 82 129 120
-0.161399 1.52638 4.62957 107 148 141
0.166968 1.52294 4.6144 115 162 154
-0.798308 1.53192 4.62548 92 157 142
-1.14398 1.535 4.63208 158 227 206
-1.06594 1.53647 4.62817 167 223 218
-0.949432 -1.63367 3.97066 178 242 223
-0.663564 -1.63908 3.98695 178 226 220
-0.955997 -1.62575 3.96632 91 151 141
-1.10844 -1.60745 3.96338 100 165 144
0.265917 -1.62618 4.02414 98 127 124
-2.05986 -1.57383 3.91981 161 218 210
-1.8489 -1.57184 3.91859 100 162 148
-1.31989 -1.57479 3.94972 105 134 143
-1.26852 -1.58086 3.95902 80 113 106
-1.20644 -1.58222 3.96031 167 227 221
-1.26096 -1.57033 3.95729 140 186 174
-0.825474 -1.5711 3.95743 192 220 214
-0.47048 -1.58565 3.99834 96 140 139
0.274082 -1.57753 4.00047 112 145 141
-1.26013 -1.55598 3.95079 84 112 112
-0.244957 -1.58291 4.01858 83 141 140
-2.41475 -1.53418 3.90993 98 155 147
-2.09123 -1.54084 3.92631 100 138 138
-0.90937 -1.54313 3.95995 207 237 232
0.146859 -1.5716 4.02974 133 171 175
-1.62115 -1.52889 3.93501 114 148 142
-1.35165 -1.5326 3.95665 162 215 205
-0.455184 -1.54739 4.00234 126 159 155
-1.94106 -1.50143 3.91444 98 136 130
-1.27511 -1.52568 3.97237 104 149 140
-1.09452 -1.51538 3.97384 91 139 127
0.234953 -1.53693 4.02995 105 151 145
-1.65171 -1.5011 3.93695 164 215 207
-1.30504 -1.51554 3.97383 116 153 151
-1.6907 -1.49297 3.93223 164 222 211
-0.488296 -1.51251 3.99854 118 162 155
-1.08045 -1.49941 3.97121 100 135 125
-0.919185 -1.48368 3.96633 74 98 90
-1.15939 -1.4762 3.97691 95 146 138
-1.97016 -1.45285 3.92794 94 117 113
0.972817 -1.50147 4.08058 124 178 185
-1.51127 -1.45235 3.9532 111 134 136
-0.820135 -1.46027 3.97666 136 174 168
0.445893 -1.48085 4.04517 126 171 174
0.944076 -1.49172 4.07816 138 176 180
-1.6413 -1.44153 3.95896 105 132 129
-1.63244 -1.43679 3.96177 163 212 204
-1.25487 -1.44271 3.97843 161 205 192
-0.893006 -1.44344 3.98854 125 169 170
-1.99373 -1.41735 3.92965 97 107 107
-0.863411 -1.43437 3.97616 184 226 219
-0.0572938 -1.45061 4.02256 104 117 119
-0.968312 -1.43259 3.98059 110 146 140
-0.0115922 -1.45269 4.03573 94 122 122
-2.14947 -1.40406 3.91714 106 156 146
-1.62075 -1.41465 3.95498 82 122 117
-1.69388 -1.40788 3.9432 117 140 135
1.7085 -1.46282 4.10157 132 180 168
-0.825897 -1.424 3.99402 91 125 119
-0.623686 -1.42534 4.00462 200 244 237
0.808734 -1.44151 4.05082 126 166 155
-0.585126 -1.42054 4.00781 120 164 158
-0.616125 -1.41807 4.00547 76 129 120
-2.26572 -1.3888 3.93862 112 159 151
-1.87523 -1.38768 3.94079 186 230 223
-1.12674 -1.40035 3.97939 93 142 140
-1.70234 -1.38631 3.95445 108 140 129
-2.27105 -1.37691 3.94619 171 224 214
-1.38685 -1.37888 3.96979 109 134 130
-1.70742 -1.35259 3.94783 91 125 119
-1.49615 -1.34976 3.95101 116 156 151
-1.84962 -1.34947 3.95241 203 237 231
-1.43693 -1.35886 3.97911 111 145 144
-2.19485 -1.33649 3.92866 128 167 159
-1.53235 -1.3505 3.96604 126 173 170
-1.00091 -1.35562 3.99882 128 159 160
-0.613255 -1.36242 4.01882 96 136 134
-1.78739 -1.34146 3.96473 113 166 163
-1.34903 -1.34361 3.97426 172 205 208
1.67437 -1.39042 4.10984 86 150 138
-2.04322 -1.31822 3.91538 155 205 193
-1.34158 -1.34305 3.98083 104 138 137
-0.923978 -1.34777 3.99502 105 146 139
1.87633 -1.38689 4.1117 100 129 114
-0.946827 -1.34319 3.99144 108 151 148
-1.97131 -1.31784 3.9312 158 200 189
-1.91408 -1.31294 3.94607 79 128 114
-0.79004 -1.3264 4.01476 114 162 163
-0.475305 -1.3304 4.02512 114 145 148
0.727042 -1.33821 4.06158 129 174 178
1.86571 -1.34479 4.10395 141 202 188
-1.12569 -1.30909 3.99032 75 127 117
0.836376 -1.33358 4.09534 199 236 240
-1.45054 -1.29489 3.9807 117 138 139
0.799246 -1.32892 4.08539 104 122 123
0.230584 -1.31386 4.05354 151 181 186
0.982806 -1.32123 4.0836 108 159 152
-1.95143 -1.2753 3.95123 114 157 144
-1.25538 -1.29202 3.99296 95 125 120
-1.64471 -1.27159 3.9702 102 136 135
-2.47198 -1.24752 3.93528 126 174 168
-1.33484 -1.2669 3.99526 111 156 147
-0.854914 -1.27127 4.00952 115 151 151
-1.89588 -1.24741 3.96459 191 234 225
-2.3912 -1.23674 3.94472 97 142 133
-1.77413 -1.24611 3.97266 103 129 129
0.136488 -1.27403 4.06867 119 171 161
0.89213 -1.27139 4.08442 142 204 198
-2.36623 -1.2245 3.94928 94 132 126
-1.92973 -1.22726 3.94924 91 125 119
-2.43487 -1.21801 3.94093 110 147 139
-1.29701 -1.22605 3.98692 162 209 200
-0.196108 -1.24154 4.04317 111 165 166
-1.75603 -1.21613 3.96598 114 151 143
-0.723216 -1.22714 4.03053 111 169 168
0.444181 -1.23377 4.0689 105 147 146
-1.93294 -1.20087 3.96338 160 195 185
-1.45278 -1.20637 3.99807 113 144 141
-1.29579 -1.19203 4.00115 98 134 134
-1.25392 -1.17298 4.00578 94 133 125
-0.26897 -1.18807 4.04017 87 138 130
0.940985 -1.1947 4.09134 110 151 154
-0.0870152 -1.17826 4.05924 116 163 155
-0.465442 -1.16139 4.04146 108 163 160
-1.91722 -1.13519 3.98148 103 150 142
-1.26716 -1.14814 4.01372 68 99 98
-1.74571 -1.13979 3.999 89 130 122
-1.63474 -1.13684 3.99374 105 154 146
-0.555536 -1.14858 4.04939 120 177 169
-2.21985 -1.11803 3.97502 90 126 120
-1.39182 -1.11569 4.00253 108 146 146
2.02108 -1.16356 4.18223 129 189 171
-0.176862 -1.10689 4.03685 130 157 167
-2.0024 -1.07281 3.97197 99 139 134
-1.66641 -1.07891 3.99721 188 232 226
-1.91839 -1.07058 3.98832 67 107 102
-1.63883 -1.07954 4.00195 96 137 130
-1.65635 -1.0719 4.01038 68 94 88
0.226353 -1.09288 4.08366 96 136 134
-1.93338 -1.05075 3.98252 111 151 149
-0.0866242 -1.06798 4.06626 111 147 147
-1.63697 -1.05221 4.0206 82 127 124
-1.09024 -1.05549 4.03192 88 138 126
-0.990228 -1.05233 4.02546 101 146 137
-1.06027 -1.04881 4.02426 94 120 114
-2.21363 -1.02424 3.98032 89 136 127
-2.4025 -1.0168 3.9847 69 81 91
-1.03615 -1.02382 4.03541 64 76 64
-1.62071 -1.01616 4.01577 68 104 104
-2.10163 -0.997659 3.99458 96 126 121
-1.03379 -0.98445 4.0217 131 169 141
-0.640303 -0.988247 4.07091 55 104 96
-0.437682 -0.991809 4.06757 98 152 147
-0.786541 -0.981208 4.06558 92 141 139
-1.86772 -0.955377 4.00273 170 222 215
-1.67564 -0.956396 4.02663 95 142 133
-2.12739 -0.94434 4.01433 110 172 160
-1.2704 -0.951208 4.04529 101 154 145
-1.73335 -0.935541 4.01854 83 125 118
-0.999981 -0.932144 4.05985 162 226 214
-2.05069 -0.914248 4.02091 73 137 125
-0.861104 -0.919479 4.06782 100 152 152
-0.195217 -0.924103 4.08341 126 184 179
-2.17427 -0.900724 4.01736 81 143 129
-2.28529 -0.892622 4.00256 102 133 134
0.0702166 -0.913225 4.10525 129 180 183
-1.52909 -0.892711 4.03621 98 143 140
-1.03315 -0.891454 4.04794 170 218 212
-1.34999 -0.888595 4.05483 91 128 124
-1.74238 -0.880964 4.04598 100 148 149
-1.51466 -0.876978 4.04305 180 230 226
-1.75708 -0.86709 4.03952 113 168 159
-2.22298 -0.853833 4.02298 104 161 153
-2.14277 -0.852076 4.01933 109 160 156
-2.38138 -0.84555 4.01424 108 157 155
-2.098 -0.848672 4.01934 107 149 142
-1.36043 -0.857977 4.05753 92 133 125
-1.45838 -0.852467 4.05525 95 136 131
0.830735 -0.871665 4.16098 129 170 179
-0.00494552 -0.857535 4.10307 107 155 156
-0.169196 -0.851781 4.10049 122 182 182
0.0215452 -0.852994 4.10415 142 176 182
-2.02161 -0.824131 4.03781 104 156 146
-1.55683 -0.826721 4.0416 65 106 98
-1.36336 -0.818537 4.07063 99 136 128
-0.608832 -0.822192 4.08996 171 232 228
-0.920999 -0.815314 4.07237 95 164 149
-0.133909 -0.818158 4.10369 123 162 160
0.690343 -0.82076 4.1295 111 146 149
-2.19826 -0.796568 4.02087 107 148 141
-2.11835 -0.79258 4.01684 93 139 127
0.0428368 -0.813261 4.11671 108 136 147
-2.2887 -0.788556 4.02354 90 134 127
-0.765152 -0.798525 4.08239 169 217 219
-2.1132 -0.781173 4.02247 154 207 197
-2.31379 -0.779915 4.01527 95 139 133
-2.24622 -0.77645 4.02912 95 140 137
-1.85147 -0.78082 4.05639 93 150 142
-1.40026 -0.784767 4.07576 86 131 114
-1.8219 -0.778463 4.05566 178 230 220
0.696989 -0.790592 4.13552 133 164 173
-1.90019 -0.77515 4.05869 78 138 128
-0.407437 -0.777772 4.10961 114 179 170
-1.35796 -0.766305 4.07003 79 132 122
-1.10017 -0.766638 4.0767 76 131 122
-2.05532 -0.758313 4.04721 133 202 182
-0.737415 -0.767728 4.09569 114 156 149
-0.607272 -0.76755 4.09903 74 137 128
-2.25537 -0.747869 4.0357 108 156 157
1.6682 -0.71435 3.89498 112 172 161
-1.1893 -0.740352 4.0778 96 146 134
-0.830799 -0.734958 4.09833 98 155 152
0.433514 -0.744038 4.13302 116 174 169
-1.53897 -0.726359 4.06919 92 146 141
-1.46392 -0.719904 4.06008 73 124 116
-1.3653 -0.723052 4.07725 81 121 119
-1.05735 -0.723351 4.09347 168 233 217
-2.47398 -0.70387 4.03575 156 206 204
-2.04193 -0.704179 4.04632 151 183 172
-0.722909 -0.713306 4.10643 105 152 144
-2.54125 -0.696999 4.02777 112 144 149
-1.98107 -0.702665 4.06777 77 118 110
-0.384316 -0.712071 4.11017 169 233 233
-1.77758 -0.701053 4.07702 94 138 131
-1.02039 -0.69783 4.09571 181 228 219
-2.02122 -0.686772 4.05209 72 99 89
-0.286127 -0.695456 4.11206 80 104 96
-2.34664 -0.681988 4.04341 88 145 137
-2.55266 -0.678394 4.04001 113 158 155
-2.36959 -0.68187 4.053 157 210 201
-1.97829 -0.680398 4.0764 91 134 125
-0.782805 -0.683352 4.10472 93 132 134
-1.98804 -0.671299 4.04997 156 205 197
-1.64984 -0.676127 4.08801 111 164 155
1.53331 -0.64155 3.88012 116 176 168
-1.6419 -0.664545 4.08442 71 132 118
-1.98152 -0.644571 4.07958 57 107 97
-2.152 -0.636182 4.03676 119 153 147
-2.32413 -0.632262 4.05251 62 97 83
-1.40237 -0.638562 4.08968 77 127 123
-1.98185 -0.616793 4.06469 138 188 176
-1.75293 -0.618551 4.09316 86 156 143
-1.29947 -0.618476 4.0964 98 154 149
-2.36946 -0.606889 4.04514 66 95 92
-1.58921 -0.605467 4.09903 90 151 141
-0.219697 -0.603584 4.14616 75 138 129
0.739021 -0.608371 4.17342 117 169 162
-1.94421 -0.586262 4.09312 81 138 129
-2.13855 -0.571387 4.06431 92 145 136
-0.193856 -0.582743 4.14011 173 227 220
0.290281 -0.582168 4.15701 119 162 165
-2.19292 -0.551141 4.06296 97 131 121
-1.20548 -0.557297 4.09778 201 236 239
0.452739 -0.560924 4.15472 121 166 163
0.519143 -0.566069 4.16591 128 166 168
0.0154862 -0.558288 4.15189 96 145 147
-2.43638 -0.536887 4.06029 84 112 113
-2.28633 -0.538096 4.07684 81 147 136
0.877168 -0.550988 4.18523 77 150 112
0.808993 -0.546422 4.18118 109 146 138
-0.219549 -0.535453 4.14415 95 162 155
-0.248569 -0.529722 4.14916 192 233 235
-2.57913 -0.516557 4.07494 98 123 119
0.318323 -0.52774 4.16252 113 170 162
-0.364027 -0.521475 4.13608 89 156 147
-0.869009 -0.518023 4.13392 112 154 153
-2.47001 -0.504083 4.07474 69 122 109
-0.843981 -0.516728 4.13808 106 158 151
0.293698 -0.514435 4.16104 84 130 124
-0.333021 -0.509181 4.14332 174 238 238
0.338087 -0.512195 4.15526 127 176 168
-0.454328 -0.505885 4.14168 82 129 120
-1.34167 -0.495874 4.11321 160 216 211
0.856882 -0.501811 4.17533 74 130 107
-0.616791 -0.495839 4.14897 102 149 140
-0.337788 -0.494445 4.15142 168 242 230
-2.23061 -0.482879 4.07954 93 152 137
