ply
format ascii 1.0
element vertex 1264
property float x
property float y
property float z
property uchar blue
property uchar green
property uchar red
end_header
1.00166 -1.25542 3.16838 82 117 137
0.527263 -1.26598 3.2251 182 226 219
0.198477 -1.23803 3.28445 102 146 170
0.46358 -1.18528 3.23878 73 101 101
0.470389 -1.18192 3.24144 38 66 60
0.595026 -1.14446 3.23113 85 144 123
0.304259 -1.15717 3.27516 106 155 147
0.331216 -1.11406 3.26963 75 155 118
0.358684 -1.11006 3.26863 177 229 206
-1.72325 -1.12381 3.38201 124 163 208
0.374495 -1.04886 3.27798 62 72 60
0.336755 -1.04666 3.28124 193 208 194
0.0364217 -1.05428 3.32335 82 158 124
0.246408 -1.03108 3.29398 97 101 89
0.547299 -1.01297 3.25444 166 214 220
0.198658 -1.02492 3.3046 77 84 79
0.360092 -0.983489 3.29023 83 144 130
0.304955 -0.97263 3.29866 149 211 193
-0.425767 -0.957687 3.4025 102 167 145
1.0587 -0.878396 3.18496 79 135 130
-0.681762 -0.901791 3.44813 165 223 212
-0.527999 -0.854746 3.44362 95 166 149
0.0309023 -0.790006 3.36295 203 229 216
-1.06947 -0.759858 3.51597 202 243 222
1.82785 -0.626104 3.08575 58 115 77
1.83253 -0.595212 3.0979 35 84 62
0.165377 -0.623927 3.35594 85 142 133
-0.479478 -0.635925 3.46256 186 239 230
0.165741 -0.609934 3.35487 89 132 141
1.64511 -0.53392 3.13192 135 192 161
-1.45275 -0.596031 3.60232 136 172 226
0.10467 -0.555361 3.37322 90 143 146
0.370456 -0.492085 3.32872 98 151 154
-1.78435 -0.487584 3.50597 69 76 125
-2.0416 -0.508171 3.66844 60 111 77
0.175517 -0.453612 3.36231 57 137 106
1.85512 -0.408546 3.09606 106 119 145
0.4251 -0.414202 3.33101 206 237 255
0.539448 -0.4098 3.31506 83 148 123
0.320025 -0.404004 3.34336 88 149 139
-1.00448 -0.41999 3.54698 109 144 134
0.149792 -0.391838 3.37001 129 199 158
-1.02009 -0.408597 3.55027 106 135 126
1.84128 -0.327229 3.11607 95 123 94
0.23414 -0.344567 3.368 87 154 127
1.85554 -0.314672 3.10342 89 110 137
0.486869 -0.327459 3.32977 65 134 101
1.83194 -0.294441 3.12731 103 139 123
0.442954 -0.295139 3.3381 72 146 112
0.399001 -0.217841 3.35351 80 143 111
1.8384 -0.126367 3.13771 173 213 202
0.576594 -0.108706 3.33386 91 152 132
0.460072 -0.098231 3.34635 60 124 102
0.406524 -0.0686797 3.3548 98 135 127
0.288087 -0.0294704 3.37684 85 131 109
0.454695 -0.0231968 3.34027 79 131 101
0.421138 -0.0163314 3.3565 80 137 116
0.372054 -0.00191261 3.37031 80 114 113
0.36133 0.00187183 3.37375 135 169 182
0.421161 0.00917891 3.35934 126 175 159
-1.48908 0.0174532 3.54426 68 109 182
0.17288 0.0214557 3.4003 106 163 148
0.157441 0.0246265 3.41077 147 220 198
0.477534 0.0244922 3.35827 182 231 233
0.425229 0.0302254 3.37086 173 197 203
0.427735 0.0307556 3.36684 106 133 143
0.426601 0.0311414 3.36805 132 160 167
0.482309 0.0330768 3.35375 95 145 133
0.593074 0.0336916 3.34848 88 137 121
0.456713 0.0386113 3.35308 80 127 131
0.152006 0.0653369 3.41097 69 137 102
0.42931 0.075299 3.37033 136 167 188
1.84217 0.0788899 3.16105 117 165 136
0.613325 0.0883774 3.35594 192 234 227
0.159577 0.0914582 3.41968 71 142 122
-0.0791986 0.100968 3.4702 216 249 235
0.446445 0.0981866 3.37582 135 166 181
0.548231 0.102081 3.36223 187 234 242
0.875991 0.113933 3.32908 88 144 149
-0.541086 0.134317 3.54434 90 144 174
0.450339 0.133513 3.37729 154 175 190
0.728723 0.142471 3.34903 109 160 152
-1.72092 0.232316 3.58051 105 124 162
0.469264 0.24414 3.38948 132 150 167
0.307721 0.289293 3.41642 178 224 218
0.902898 0.280726 3.30957 140 211 168
0.732996 0.316462 3.33818 154 142 142
-1.88292 0.372202 3.78759 147 201 194
0.893576 0.342612 3.32249 73 133 102
0.864141 0.344215 3.32115 58 124 82
-1.87667 0.392706 3.78363 134 177 166
0.865972 0.346982 3.32799 66 133 94
-1.87241 0.401214 3.77879 130 186 175
0.921376 0.355835 3.32365 52 119 80
-1.8757 0.414768 3.7878 136 187 173
-1.86969 0.424415 3.77939 121 165 152
-1.87293 0.43275 3.78233 106 164 153
-1.86444 0.438502 3.77566 78 114 108
0.830209 0.422265 3.34136 36 91 64
0.829395 0.422396 3.34165 42 97 70
0.0902251 0.467153 3.4746 75 137 115
1.07004 0.453262 3.31576 72 142 111
0.620201 0.48654 3.38382 158 197 189
0.645426 0.486854 3.37307 89 149 125
0.143238 0.507391 3.47102 77 132 113
0.696644 0.500953 3.37201 67 123 94
0.643629 0.515299 3.37882 57 109 79
0.154756 0.533257 3.47352 85 149 144
0.442946 0.548031 3.4237 101 135 178
0.452642 0.561291 3.41832 90 116 152
0.474886 0.571107 3.42375 142 177 210
0.470967 0.578017 3.4193 137 171 201
0.370039 0.604573 3.44576 188 211 233
0.489492 0.615763 3.42451 118 141 143
0.436332 0.62625 3.42945 117 146 177
0.346046 0.668514 3.45314 122 159 163
0.390604 0.685242 3.44604 151 165 177
0.479346 0.691701 3.4363 154 184 203
0.549107 0.735504 3.42074 95 154 123
0.493483 0.75198 3.43866 120 157 165
0.157392 0.771752 3.49498 132 199 167
0.244186 0.801869 3.48745 104 147 144
0.448019 0.799423 3.45393 70 89 86
0.228139 0.829911 3.48943 172 222 212
-0.182519 0.884907 3.57091 171 227 208
-1.19754 -1.41931 3.44904 117 197 190
-1.79081 -1.37554 3.43141 66 64 94
0.583477 -1.23634 3.2201 69 126 101
0.459455 -1.18814 3.23683 110 162 152
0.379206 -1.17989 3.25914 147 231 203
0.600636 -1.09535 3.24088 198 237 222
0.502306 -1.08127 3.24904 146 220 202
0.47282 -1.06843 3.25444 211 236 238
-1.21023 -1.09911 3.49546 205 254 222
0.24485 -1.03053 3.29654 92 93 83
0.286618 -1.03047 3.29413 96 158 128
0.418023 -1.01059 3.27598 72 116 99
-0.0417824 -0.972492 3.35867 59 145 103
-1.28786 -0.963718 3.52013 176 238 224
1.22683 -0.840292 3.16461 89 151 127
-0.499952 -0.902619 3.4356 148 225 211
-0.680675 -0.901862 3.446 163 209 203
-0.529007 -0.854986 3.44451 90 162 142
-1.69161 -0.828816 3.412 154 185 240
-1.77763 -0.818395 3.45384 178 218 237
-1.77999 -0.80036 3.45236 98 99 113
-1.10779 -0.811753 3.51408 187 228 201
-1.77689 -0.796012 3.45573 185 211 211
-1.06792 -0.773864 3.51569 87 154 122
-0.0845428 -0.71875 3.40122 156 225 222
-1.71119 -0.71962 3.43849 238 243 246
0.245406 -0.628027 3.33802 159 218 210
-1.64376 -0.639534 3.41909 111 118 173
0.102895 -0.555076 3.37462 97 148 151
1.59824 -0.511084 3.14764 71 124 114
1.836 -0.50276 3.0938 36 56 37
0.0525844 -0.533938 3.38946 114 165 181
1.81865 -0.474514 3.10963 60 82 64
0.400992 -0.492375 3.32654 164 211 225
-1.07554 -0.497387 3.54786 104 143 122
0.216364 -0.46536 3.35705 112 151 183
0.160301 -0.453145 3.36548 64 123 102
-1.21746 -0.451474 3.57156 74 148 124
0.523165 -0.402347 3.31603 70 138 107
0.155575 -0.403213 3.36749 129 216 172
0.182217 -0.397491 3.36804 106 148 167
1.82162 -0.347726 3.11742 181 224 209
1.85315 -0.333247 3.09815 94 114 145
-2.01526 -0.24998 3.68071 105 149 142
-1.71222 -0.130963 3.52789 63 78 157
0.546102 -0.122126 3.33933 95 159 129
1.84242 -0.0858731 3.14234 44 82 64
0.406994 -0.0689014 3.35324 98 135 127
0.104836 -0.0582573 3.41397 100 147 138
0.461511 -0.0429349 3.34457 87 141 124
0.335402 -0.0422311 3.37113 84 144 120
0.444601 -0.029714 3.34775 157 205 199
0.669074 -0.0287298 3.34174 86 149 129
0.212666 -0.0233296 3.39444 72 129 114
0.460632 -0.0252543 3.33994 153 223 187
0.370354 -0.00666467 3.37037 185 220 224
0.406424 0.000684274 3.36625 72 111 103
0.464135 0.00961975 3.35183 165 211 205
0.412476 0.0142105 3.37309 111 141 142
0.448555 0.0222163 3.35774 84 121 113
0.422497 0.0303198 3.36636 167 192 196
0.317829 0.0410752 3.38512 147 184 204
0.128249 0.0441181 3.42026 89 134 118
0.222516 0.0427008 3.40319 99 148 156
0.319552 0.0473586 3.38403 206 232 248
0.736648 0.049562 3.34412 171 231 213
0.564752 0.0635659 3.35284 99 152 139
0.464042 0.0708353 3.36342 101 131 136
0.42991 0.0739839 3.37029 135 161 177
0.433978 0.0779876 3.36946 202 235 244
1.8404 0.0791935 3.16108 126 180 143
-0.110563 0.116522 3.48004 76 154 130
-1.58377 0.128702 3.54582 208 237 255
0.186287 0.12491 3.41528 94 150 145
-0.540392 0.133706 3.54244 86 141 162
0.590566 0.150046 3.36327 86 144 120
0.934581 0.161887 3.32232 75 131 112
-0.401061 0.174811 3.52812 201 246 249
0.49341 0.178223 3.37454 100 138 150
0.145047 0.184494 3.43456 75 125 107
0.653272 0.192786 3.36575 93 152 131
-0.143957 0.208361 3.49334 87 172 134
0.488686 0.225146 3.38273 100 143 122
0.470631 0.233592 3.38425 102 113 141
0.178776 0.243991 3.43046 189 220 243
0.316464 0.243703 3.41545 112 124 112
-1.72275 0.294907 3.59116 113 158 215
-1.72032 0.293841 3.58825 127 177 237
0.946125 0.285959 3.30695 132 198 156
1.06179 0.286468 3.2963 60 124 89
0.744378 0.306698 3.34006 143 200 162
1.25396 0.301698 3.2681 136 200 171
0.895778 0.31473 3.32348 40 107 75
0.826982 0.322606 3.32732 123 188 139
-1.87723 0.369401 3.77993 113 148 144
0.855613 0.347816 3.32166 65 130 98
0.0586217 0.37042 3.46887 130 200 183
-1.87617 0.415263 3.78914 149 198 184
0.876059 0.371652 3.32539 86 134 110
0.165625 0.388023 3.45077 100 158 140
0.916344 0.379403 3.32486 117 189 153
1.83257 0.364824 3.1792 140 197 164
1.87852 0.365993 3.18006 151 161 155
1.17062 0.39356 3.28728 76 138 116
-1.82278 0.457664 3.77486 61 116 107
1.85266 0.396118 3.18551 141 185 162
0.906322 0.422567 3.3327 148 204 175
0.308868 0.456099 3.4352 172 202 213
0.535133 0.451937 3.39292 235 244 247
1.06964 0.452666 3.3144 71 138 109
0.616587 0.486159 3.38344 112 145 141
0.781652 0.493613 3.35791 150 212 176
0.470827 0.552925 3.41659 218 249 242
0.710806 0.550604 3.37453 72 122 98
0.445338 0.562957 3.42768 124 147 185
0.47545 0.570017 3.4214 125 151 181
0.470004 0.578653 3.42065 147 183 213
0.483357 0.582837 3.41796 112 148 154
1.00787 0.574255 3.33254 81 155 125
0.135916 0.612099 3.47695 75 131 112
1.88804 0.565089 3.16934 147 181 227
0.149954 0.624074 3.47813 85 145 127
0.436168 0.626431 3.42982 116 144 174
0.587936 0.625545 3.40685 70 121 93
0.332001 0.655048 3.45563 144 171 191
0.472146 0.706013 3.43505 173 202 223
0.15276 0.723294 3.48752 160 229 202
0.150332 0.736851 3.49193 75 122 100
0.549181 0.735505 3.42074 81 141 110
0.340681 0.781593 3.46692 118 160 179
0.384927 0.782657 3.46109 210 245 255
0.448396 0.790072 3.44975 222 248 254
0.243174 0.801286 3.48332 104 147 144
1.00902 0.793444 3.35119 76 152 128
0.198774 0.838494 3.4971 142 213 193
0.472734 0.837042 3.44983 56 94 76
0.490368 0.835512 3.43148 117 157 139
-0.182563 0.884736 3.57058 171 227 208
0.583517 1.14734 3.94715 76 100 88
-1.58267 -1.31377 3.29478 148 173 237
-2.00319 -1.33711 3.35649 114 156 227
-1.58399 -1.30228 3.29594 160 180 237
1.09223 -1.237 3.14812 106 156 132
-2.05498 -1.30929 3.3653 158 207 255
-1.08871 -1.31629 3.45721 80 161 136
0.630603 -1.22571 3.21845 79 139 115
1.80219 -1.14488 3.04111 80 117 97
-1.58669 -1.2435 3.30782 138 170 241
0.612796 -1.21064 3.22451 114 157 144
0.460863 -1.19492 3.23549 64 99 79
0.389005 -1.20077 3.25718 166 231 210
0.461176 -1.19527 3.24135 69 100 85
0.45909 -1.18819 3.23779 113 168 159
0.487712 -1.18467 3.23517 38 48 31
0.611541 -1.1792 3.22934 104 153 139
-0.126785 -1.19523 3.36136 80 146 121
0.423601 -1.14959 3.25365 66 130 101
-0.132955 -1.18255 3.35986 197 247 247
-0.0115272 -1.15277 3.33984 69 114 95
0.265256 -1.10497 3.28059 83 147 117
0.589406 -1.0822 3.24013 225 254 251
0.502582 -1.08126 3.24994 146 220 202
-1.39658 -1.16239 3.50465 51 116 154
0.875559 -1.06468 3.21396 160 212 249
-1.44336 -1.14502 3.46317 91 124 174
0.534586 -1.07482 3.24738 241 255 251
0.51814 -1.07148 3.2476 176 215 199
0.497814 -1.06892 3.25056 191 224 217
0.344154 -1.07585 3.27589 113 188 142
1.81236 -0.991695 3.05531 79 118 97
0.445129 -1.05692 3.2611 116 113 105
-1.68512 -1.09058 3.37049 138 192 255
-1.30556 -1.12396 3.50449 98 155 164
0.339726 -1.04825 3.27989 205 231 218
0.367155 -1.04675 3.27683 76 88 82
1.7989 -0.974118 3.05166 71 92 70
0.352644 -1.04293 3.28323 88 136 107
-1.91313 -1.17788 3.71155 84 112 176
0.300706 -1.04139 3.28552 221 232 224
-1.20815 -1.10013 3.49605 210 250 222
-1.59615 -1.05133 3.3429 146 169 237
0.285367 -1.03005 3.29395 100 164 134
0.550518 -1.01485 3.25595 186 237 240
-1.25195 -1.08604 3.49974 59 152 107
0.199952 -1.02495 3.30589 65 73 66
1.29252 -0.973896 3.14126 88 127 106
-0.433621 -1.04709 3.39312 92 139 113
-0.280059 -1.03539 3.37396 89 161 139
0.338519 -1.00769 3.28543 45 105 71
-1.32804 -1.0755 3.51028 71 115 138
1.26477 -0.954836 3.15066 85 144 124
0.395644 -0.990728 3.28258 78 131 117
0.042458 -1.00241 3.33233 51 65 47
-0.012571 -1.00131 3.33817 231 240 237
-0.052809 -1.00117 3.34164 90 151 141
-1.45182 -1.03423 3.45955 170 181 208
-1.40876 -1.0511 3.52331 139 181 223
-0.0401147 -0.997655 3.34082 228 249 246
0.0291075 -0.995775 3.33928 48 96 68
0.0130682 -0.993114 3.33807 121 183 143
-0.0479763 -0.974759 3.3586 96 190 149
-1.43257 -0.970156 3.38354 138 157 232
-1.40384 -1.01223 3.52898 112 164 194
-1.09012 -0.994634 3.49617 78 156 133
-0.378632 -0.963939 3.39234 84 136 106
1.8412 -0.865509 3.05245 177 194 221
-0.277418 -0.938959 3.41101 131 213 190
-0.489964 -0.922148 3.42973 101 172 129
1.23152 -0.850385 3.15833 79 148 121
-0.790428 -0.921032 3.45991 166 228 222
-0.507224 -0.911909 3.43645 178 232 233
-0.497895 -0.910398 3.43499 79 103 109
1.2375 -0.833898 3.16639 70 131 105
-0.553303 -0.90195 3.43528 100 142 135
-1.77435 -0.88912 3.44321 195 208 216
-1.60424 -0.859797 3.37465 136 175 243
-0.574651 -0.865703 3.44521 155 223 198
-1.45113 -0.874063 3.49299 178 214 238
1.40185 -0.784601 3.14353 89 165 141
-0.550392 -0.856875 3.44674 188 237 223
-0.529018 -0.854946 3.44552 101 172 155
-1.76992 -0.829615 3.44768 182 210 245
0.0351519 -0.792456 3.36951 219 228 218
0.358355 -0.708982 3.31604 100 155 170
-1.71155 -0.719541 3.43949 246 248 249
-1.34108 -0.725138 3.57132 53 107 137
-1.67641 -0.690166 3.42607 121 98 142
0.22911 -0.66606 3.33727 194 230 254
1.82934 -0.608938 3.09463 33 61 38
1.62392 -0.611564 3.12736 75 113 85
-1.65575 -0.665109 3.42195 140 126 167
-1.61204 -0.652874 3.40823 143 182 244
-1.66654 -0.647038 3.41968 117 119 184
-1.63231 -0.640221 3.41396 94 110 187
0.186532 -0.624508 3.34802 105 158 149
0.165965 -0.622392 3.35504 98 158 147
-1.6127 -0.628805 3.41281 137 176 238
0.152047 -0.615532 3.36058 165 215 238
1.6177 -0.574612 3.13309 138 186 158
-1.65654 -0.626557 3.42487 124 122 174
-1.33394 -0.643215 3.57693 157 210 247
-1.35225 -0.616598 3.6047 46 70 98
-1.43262 -0.611389 3.57898 81 163 151
1.6429 -0.533353 3.13449 131 188 163
-1.40818 -0.604973 3.5973 112 175 179
0.0965292 -0.568341 3.37673 179 217 252
-1.37034 -0.5971 3.6017 185 229 252
-1.71746 -0.56288 3.4648 108 106 166
1.83345 -0.492171 3.09277 102 162 122
1.83971 -0.491282 3.08827 103 168 136
-1.72928 -0.550496 3.47175 102 101 157
-1.36438 -0.572126 3.61228 100 158 170
-1.71304 -0.545393 3.46559 160 201 255
0.0522725 -0.533964 3.38924 114 165 181
-1.74233 -0.537725 3.47905 123 121 167
0.0387253 -0.512527 3.38455 93 137 144
-1.44273 -0.541533 3.60437 156 216 255
-1.42792 -0.54339 3.6026 177 230 255
0.233475 -0.500248 3.34371 91 156 135
-1.4553 -0.533306 3.60218 203 235 255
1.83031 -0.460101 3.10742 22 45 31
-1.48592 -0.519629 3.5458 140 169 236
1.82447 -0.455078 3.11466 127 171 140
0.128992 -0.485039 3.37247 87 140 120
0.942764 -0.464992 3.26108 63 117 104
-1.66805 -0.491423 3.45095 57 67 151
-1.79318 -0.494871 3.50797 194 213 220
1.67672 -0.441813 3.13691 85 135 111
-1.07351 -0.49839 3.54697 104 143 121
0.277633 -0.468066 3.34536 133 170 204
0.324175 -0.465563 3.33437 104 155 171
-2.04117 -0.503063 3.66951 102 155 112
-2.05719 -0.5021 3.6742 110 189 138
-1.62118 -0.456613 3.4426 134 173 235
-1.22621 -0.473369 3.56888 84 161 124
-1.62043 -0.444642 3.44355 139 173 232
-1.79503 -0.444881 3.51641 167 209 244
-1.79881 -0.438496 3.51749 72 79 104
1.75117 -0.389386 3.1301 67 131 95
-2.11102 -0.452422 3.68283 87 165 118
-1.35702 -0.445285 3.63214 58 110 126
1.74837 -0.381948 3.13276 125 196 153
1.82936 -0.373857 3.121 120 191 141
-0.995977 -0.422428 3.54349 35 85 73
-1.00807 -0.418278 3.54834 95 127 116
0.18226 -0.397328 3.36836 106 148 167
-1.76674 -0.409839 3.51292 153 190 252
-1.02296 -0.407223 3.55263 113 169 158
0.312473 -0.38528 3.34658 70 132 114
1.78178 -0.352035 3.12556 121 161 136
1.82995 -0.34977 3.11321 90 121 118
1.82879 -0.350568 3.10943 66 97 94
0.363458 -0.368294 3.33915 95 151 168
0.395401 -0.369407 3.34132 207 236 251
1.72693 -0.346843 3.13826 96 146 122
0.350581 -0.363298 3.34628 120 164 193
1.85493 -0.332914 3.09973 96 123 150
0.326582 -0.359746 3.35044 207 237 242
1.83201 -0.331475 3.12054 71 107 90
1.73483 -0.329321 3.13787 58 114 95
1.84366 -0.321282 3.10265 58 68 62
0.253423 -0.344594 3.36213 160 225 193
-1.42431 -0.354239 3.53562 166 213 255
1.78479 -0.311771 3.13228 56 113 88
1.82597 -0.292556 3.12449 121 182 146
-2.03386 -0.308757 3.67831 99 123 121
0.286261 -0.280446 3.3612 136 219 194
1.238 -0.265864 3.22148 84 125 110
1.78064 -0.24852 3.14106 52 94 76
-1.26096 -0.253515 3.62148 52 98 76
-2.03162 -0.254015 3.67319 148 193 177
0.397789 -0.217767 3.35291 83 143 112
1.83972 -0.203133 3.13684 74 119 92
1.77817 -0.192253 3.14437 136 207 181
-1.45978 -0.207951 3.50624 116 152 230
-2.0693 -0.19625 3.71322 80 130 112
-1.26328 -0.193428 3.63617 52 93 72
1.75483 -0.151885 3.15633 77 136 121
0.216057 -0.130685 3.38659 76 146 116
0.488482 -0.113504 3.33984 84 145 117
-1.72845 -0.112421 3.53695 163 201 255
-0.218604 -0.110772 3.47372 189 234 238
-1.46244 -0.108332 3.52298 148 168 226
1.19242 -0.0992667 3.24899 76 141 116
0.249956 -0.0999212 3.38531 89 134 118
0.612399 -0.0843064 3.34167 78 133 114
0.642514 -0.0761161 3.33839 71 124 104
0.326082 -0.0714744 3.37098 96 140 139
0.306597 -0.0707074 3.37243 96 143 127
1.80601 -0.0614349 3.15026 132 182 150
1.81622 -0.0612647 3.1447 117 167 127
0.386685 -0.0495567 3.35936 119 162 149
0.482054 -0.0491469 3.33922 134 196 174
-0.466322 -0.0369414 3.51603 127 190 211
0.116952 -0.0349879 3.41326 222 239 236
-0.799738 -0.0351507 3.55631 234 255 255
0.453711 -0.0338 3.34493 60 100 88
0.445026 -0.0296306 3.34806 155 201 195
0.670022 -0.0289212 3.34211 75 138 118
1.84078 -0.0270244 3.14797 50 86 72
0.204746 -0.0260855 3.39188 72 126 103
0.432924 -0.0183934 3.35333 97 153 140
0.209613 -0.0156783 3.39361 186 227 230
0.316921 -0.00904048 3.37824 110 142 153
0.564948 -0.00784548 3.34149 57 128 85
1.75891 -0.00544247 3.17067 52 100 74
0.173632 0.00273606 3.40196 222 251 255
1.76153 0.00261125 3.17619 78 136 108
0.348436 0.00902694 3.38016 131 183 189
0.39643 0.0110697 3.36992 196 224 235
0.350639 0.0156489 3.37639 205 233 240
0.41117 0.0203134 3.36725 175 215 220
1.79105 0.0226164 3.16339 157 193 181
0.388162 0.0315449 3.37183 243 255 255
0.568389 0.0330444 3.34848 172 210 212
0.447277 0.0357514 3.36133 192 227 230
0.158311 0.0381138 3.4094 85 161 137
0.184879 0.037732 3.4008 94 155 135
0.213943 0.0424083 3.4043 193 230 238
0.22278 0.040417 3.39924 99 153 153
-1.13221 0.0470389 3.60958 191 241 229
0.748688 0.0455881 3.34388 79 141 125
0.318716 0.0485118 3.385 204 233 248
0.430599 0.0521066 3.3694 105 128 136
0.484659 0.0527209 3.35312 99 134 120
0.694988 0.0540745 3.34621 81 155 131
0.391138 0.0617003 3.37975 206 227 242
0.766952 0.0590951 3.34048 171 229 204
-0.987233 0.0645803 3.60018 206 247 240
0.730468 0.0614765 3.34571 153 218 203
0.322497 0.0694227 3.38233 112 154 153
0.335128 0.0707011 3.38868 194 238 239
0.46631 0.0771202 3.36623 95 137 130
0.434278 0.078317 3.37049 202 235 244
0.400063 0.0827694 3.37908 221 244 255
0.440174 0.0869593 3.37371 205 237 242
0.4565 0.0880541 3.3686 102 139 135
1.86984 0.0807346 3.13377 183 219 249
0.610871 0.0892781 3.359 186 237 229
1.84206 0.0929592 3.1606 93 145 115
-0.310225 0.112926 3.51172 73 155 137
0.571648 0.111139 3.35687 91 151 120
-0.11058 0.116824 3.48098 85 161 137
0.45001 0.113777 3.37323 152 185 201
0.471596 0.115274 3.37475 126 145 152
-0.0599215 0.124082 3.47136 209 241 240
0.510297 0.124882 3.36327 112 157 148
0.185426 0.130683 3.41594 164 214 212
0.452268 0.132479 3.37578 139 173 186
0.257645 0.138529 3.40839 223 236 234
0.49542 0.138196 3.36592 100 153 139
-1.68969 0.150005 3.56004 78 116 194
1.82374 0.13279 3.18047 62 111 89
0.169456 0.148167 3.41965 159 210 206
0.154797 0.148651 3.41337 134 205 178
0.532976 0.149524 3.36812 91 126 116
0.443991 0.155422 3.38014 126 154 165
0.450472 0.163633 3.38406 136 165 179
0.457278 0.168754 3.37561 207 230 246
0.293971 0.176616 3.40418 160 160 154
0.140812 0.182349 3.43391 145 211 192
0.460816 0.180465 3.38208 147 181 204
1.84081 0.177387 3.16843 188 237 209
0.157638 0.211278 3.42599 144 209 183
0.394403 0.215395 3.39397 223 226 224
0.205098 0.233065 3.43171 214 236 248
0.478905 0.238886 3.37832 145 171 177
-1.7198 0.255552 3.58446 124 162 227
0.319617 0.260109 3.40614 91 120 104
-1.66833 0.284646 3.56748 68 96 180
0.164013 0.278358 3.44182 85 143 125
0.298463 0.276636 3.41419 192 227 230
0.936112 0.282092 3.31121 129 199 162
0.343933 0.297631 3.41388 190 206 218
1.75025 0.281436 3.18437 116 185 152
1.87412 0.279124 3.15458 83 111 111
1.20837 0.291707 3.27035 57 135 98
1.25382 0.301437 3.26745 136 200 171
0.900141 0.310723 3.31837 134 206 163
0.895464 0.313665 3.3208 49 118 85
1.26358 0.311022 3.27021 141 190 170
0.327778 0.330022 3.41713 155 178 194
0.857379 0.318861 3.32006 60 123 84
1.37678 0.313671 3.25437 152 207 192
0.368294 0.331626 3.40561 141 142 152
0.925144 0.325866 3.31469 113 205 152
0.849469 0.331651 3.32542 65 123 94
1.12233 0.330134 3.29216 60 107 81
1.52862 0.322706 3.22479 60 136 102
0.180892 0.35052 3.44376 126 155 169
0.859471 0.347079 3.32754 54 113 82
0.93334 0.348213 3.31862 103 147 134
1.84789 0.334897 3.17481 78 111 90
0.755467 0.361478 3.34024 59 115 86
0.816652 0.363093 3.33499 72 135 95
0.744953 0.373281 3.34646 73 121 92
0.326122 0.381014 3.41557 196 209 217
0.968001 0.378094 3.30986 136 200 158
1.1332 0.378804 3.29506 161 225 190
1.83319 0.365184 3.18004 140 197 164
1.87872 0.366044 3.18018 157 170 162
1.87643 0.365108 3.17695 151 161 155
0.830255 0.391248 3.33758 138 214 173
1.58726 0.376364 3.22016 82 139 101
0.793651 0.397222 3.3404 136 206 175
1.85386 0.395519 3.1843 143 189 166
1.02994 0.415171 3.31192 148 204 181
0.906711 0.422961 3.33362 148 202 173
0.866735 0.428586 3.33789 80 129 107
0.59179 0.434681 3.38297 199 213 235
-0.13683 0.455119 3.51926 224 252 252
0.520096 0.442301 3.38843 131 135 154
1.46984 0.423832 3.24771 72 142 106
0.882931 0.438667 3.33276 65 129 93
0.308696 0.455467 3.43371 180 210 221
-0.46551 0.474904 3.56667 97 159 153
0.154013 0.461292 3.46006 103 182 155
0.548145 0.451294 3.3901 226 247 249
1.8532 0.449705 3.17849 58 105 72
0.533147 0.483459 3.39298 114 166 156
0.70559 0.485578 3.3691 99 151 134
0.644487 0.488857 3.37571 84 140 117
0.621475 0.496254 3.38693 100 144 138
0.782547 0.493861 3.35848 155 216 180
0.561167 0.506074 3.39363 179 229 217
0.965371 0.502503 3.33435 121 191 154
0.206162 0.523849 3.46026 137 193 194
0.848223 0.514684 3.35214 181 217 223
1.84121 0.491108 3.19756 187 233 197
0.203315 0.534152 3.46462 171 206 219
0.481743 0.532306 3.41021 71 98 89
0.445127 0.537411 3.4174 148 188 213
0.346827 0.558799 3.442 211 234 249
0.637614 0.550262 3.38907 56 108 71
0.445986 0.562078 3.42578 116 132 169
0.455021 0.561662 3.42363 87 111 141
0.430426 0.562905 3.42705 123 161 203
0.715071 0.554206 3.37503 77 124 108
1.89255 0.525375 3.18542 111 156 147
0.474278 0.564734 3.42066 78 109 124
1.88658 0.533225 3.18697 151 188 210
0.892162 0.564369 3.3509 84 142 113
0.481272 0.579 3.42195 63 89 101
1.97161 0.541219 3.18257 234 251 248
1.88362 0.544678 3.17607 154 191 241
1.00832 0.574691 3.33347 94 168 134
0.519216 0.60018 3.403 88 128 103
1.00043 0.589262 3.33591 66 130 101
0.593232 0.606234 3.3966 70 137 100
0.733969 0.606846 3.38111 187 224 222
1.89118 0.568711 3.17666 160 202 245
0.736043 0.606512 3.37946 194 228 227
0.586348 0.624077 3.39998 64 120 85
0.392709 0.633509 3.44455 122 126 145
0.173391 0.644177 3.48109 79 116 142
0.592598 0.632018 3.40423 70 134 99
0.420091 0.642211 3.43935 114 122 151
-0.196582 0.66716 3.55544 82 158 134
0.479651 0.646912 3.43069 167 214 242
0.425038 0.664343 3.44429 214 233 240
0.397562 0.6701 3.44565 105 106 110
-0.370025 0.700954 3.58535 162 229 200
0.406684 0.673717 3.44055 183 208 218
0.401102 0.683914 3.4539 121 122 142
0.475598 0.692353 3.43605 183 220 240
0.477181 0.711323 3.43976 147 174 195
0.488323 0.708322 3.42615 78 102 114
0.152902 0.723392 3.48772 155 227 197
0.174814 0.72769 3.48914 117 175 157
0.480043 0.717664 3.43985 182 209 229
1.885 0.686544 3.18447 169 209 244
1.88255 0.700129 3.18275 162 195 245
0.36151 0.76897 3.46193 115 155 184
0.448599 0.789188 3.44806 221 246 255
0.949159 0.790214 3.36775 133 211 180
0.606919 0.807181 3.42009 64 133 100
0.500891 0.832688 3.4395 63 103 78
0.489309 0.834752 3.42728 122 165 144
0.532765 0.861262 3.43496 160 226 184
0.608443 0.862466 3.42862 70 136 107
0.506585 0.864757 3.42767 76 112 95
-1.10776 -1.41313 3.44778 226 253 243
-0.986029 -1.39625 3.43436 103 172 145
1.104 -1.26026 3.13609 114 183 150
-1.34635 -1.36702 3.46987 152 142 148
1.06239 -1.23119 3.15254 92 125 98
0.208472 -1.26497 3.2771 69 136 127
-1.34393 -1.33119 3.4694 142 195 245
1.06567 -1.20752 3.15508 107 157 127
-1.08876 -1.31611 3.45528 78 155 128
0.613941 -1.21097 3.22955 112 155 140
-1.11874 -1.28868 3.46386 66 124 113
1.23599 -1.15776 3.13079 74 141 109
0.4873 -1.18478 3.23728 41 51 34
0.592692 -1.17279 3.22426 92 165 133
0.439478 -1.17794 3.24684 92 160 125
0.436691 -1.15086 3.2502 134 195 169
1.7276 -1.08446 3.06274 63 111 85
-1.92896 -1.24932 3.5412 52 56 91
-0.132877 -1.18254 3.35968 208 252 251
0.423405 -1.14049 3.2558 120 194 160
-0.0115272 -1.15277 3.33984 69 114 95
-1.38781 -1.18464 3.47235 83 83 147
0.441663 -1.10379 3.24548 81 136 109
-1.37827 -1.17858 3.49127 251 254 255
0.586228 -1.08021 3.23772 235 254 251
0.534662 -1.07485 3.24848 241 255 251
0.468836 -1.06659 3.25688 231 251 246
0.30116 -1.04469 3.28265 214 246 241
1.80636 -0.973965 3.06784 73 101 78
0.301249 -1.04482 3.29293 214 229 225
-1.20801 -1.10014 3.49635 210 250 222
0.243722 -1.02938 3.29741 70 91 82
0.130256 -1.02378 3.31159 197 241 234
-1.53556 -1.03437 3.35627 188 241 255
0.165989 -1.01994 3.30918 82 105 91
-2.11126 -1.10155 3.6008 229 254 255
1.73796 -0.937903 3.08603 58 102 73
0.081641 -1.00766 3.32428 87 92 83
-0.144549 -1.01177 3.35759 252 254 254
-0.0411311 -0.979986 3.3613 33 82 66
-0.0405859 -0.973371 3.36055 61 144 105
-1.40388 -1.01223 3.52943 109 166 188
-0.470581 -0.958562 3.38731 76 119 106
-1.39908 -0.973084 3.53881 97 169 157
1.81509 -0.83553 3.08122 44 68 58
1.8152 -0.8295 3.07711 164 195 186
-0.489459 -0.922038 3.43543 87 157 116
-0.503953 -0.919582 3.43212 61 76 68
-0.497701 -0.910432 3.43366 79 103 109
0.0908939 -0.876993 3.33895 70 82 76
0.105883 -0.870659 3.33841 61 92 85
1.94923 -0.788598 3.05935 114 116 97
-0.486567 -0.869815 3.44211 91 160 145
1.73612 -0.771718 3.09362 52 88 76
-0.996401 -0.867282 3.4939 219 251 250
-0.556816 -0.851268 3.4464 193 250 235
-1.47587 -0.858488 3.49138 113 140 226
1.80525 -0.745097 3.09056 69 106 90
-1.10977 -0.812803 3.51695 187 231 202
0.42333 -0.724653 3.30477 60 122 110
-1.06486 -0.759576 3.51185 232 255 242
-1.46459 -0.724332 3.51835 101 104 112
-1.63435 -0.690904 3.40941 99 109 179
0.228828 -0.66691 3.34098 194 230 254
-1.66433 -0.677882 3.42212 119 106 150
1.62463 -0.6105 3.13087 85 122 96
-1.51451 -0.655936 3.42748 106 139 225
-1.36021 -0.684911 3.59323 99 159 165
1.62444 -0.596425 3.12653 47 77 52
1.64841 -0.586954 3.12053 119 176 131
0.167946 -0.617177 3.35768 84 140 135
1.64043 -0.553973 3.12883 106 164 129
1.67233 -0.55526 3.12804 55 114 93
-1.45275 -0.605739 3.44575 111 139 233
-1.64152 -0.591668 3.42781 79 87 176
1.69108 -0.537857 3.12062 91 147 124
-1.35034 -0.615895 3.59227 55 78 86
0.104003 -0.554496 3.36777 97 148 151
1.83897 -0.501254 3.08986 38 41 49
0.415884 -0.523743 3.31773 91 140 142
1.83759 -0.488257 3.09691 109 163 120
-1.38925 -0.549232 3.59935 79 157 150
1.82329 -0.476838 3.11059 36 49 35
-1.4358 -0.542926 3.59647 174 227 255
0.0369165 -0.504774 3.40032 107 154 162
0.233395 -0.494451 3.34236 87 143 138
0.361501 -0.491193 3.33177 205 229 241
1.77012 -0.458182 3.11948 109 168 140
0.307866 -0.477524 3.33985 107 147 136
0.359086 -0.477862 3.33819 208 237 252
-1.79374 -0.5001 3.51436 222 229 232
0.277633 -0.468066 3.34536 133 170 204
-1.78275 -0.48817 3.5118 53 57 128
1.75656 -0.413579 3.11829 134 198 156
-1.77894 -0.463103 3.50882 52 50 109
1.74986 -0.407446 3.13129 67 123 88
0.262518 -0.423828 3.3547 130 178 206
1.82735 -0.390373 3.11395 98 145 112
1.82977 -0.37372 3.12169 122 194 142
-1.79707 -0.408838 3.52435 182 208 245
-1.01607 -0.408014 3.55264 64 95 88
1.81349 -0.34961 3.12241 75 114 93
-1.41157 -0.367763 3.5225 98 112 164
1.84147 -0.325903 3.11218 92 132 97
1.84855 -0.324988 3.09313 127 162 166
1.84309 -0.318959 3.10281 31 42 34
-1.42629 -0.353992 3.53684 133 177 238
-0.111929 -0.298178 3.44373 212 245 248
-0.0612734 -0.266559 3.42995 194 220 220
1.86018 -0.237528 3.11247 123 139 182
-0.13441 -0.248862 3.4543 177 237 219
1.44348 -0.205779 3.20308 62 78 60
1.80167 -0.198012 3.14625 53 74 65
-1.48916 -0.160633 3.52267 107 127 198
1.80024 -0.123798 3.14374 62 100 88
-0.126949 -0.130165 3.46122 218 247 244
0.428974 -0.127154 3.34871 70 134 104
-1.40729 -0.112968 3.6762 91 179 166
0.496521 -0.0932824 3.34041 79 132 112
0.437609 -0.0664932 3.34793 67 138 98
1.81659 -0.0622778 3.15338 133 184 150
1.78542 -0.0582231 3.15495 53 103 69
0.252864 -0.0625547 3.38028 56 111 86
1.82881 -0.0534794 3.14368 114 183 133
1.81768 -0.0493353 3.14417 69 99 74
-0.553022 -0.0520683 3.5266 149 191 214
0.268465 -0.0402308 3.37954 162 224 206
0.420327 -0.032654 3.34549 60 138 101
-1.78766 -0.0263696 3.56622 140 189 255
0.206372 -0.0245643 3.39724 79 138 118
0.180234 -0.0209764 3.4007 181 217 227
1.76042 0.00179831 3.17363 66 118 94
0.315226 0.0192511 3.38016 113 155 154
0.409378 0.0211715 3.36815 185 220 224
0.419843 0.0336149 3.37023 185 217 223
0.222736 0.0401354 3.39832 99 153 153
0.476293 0.0458428 3.35583 102 140 128
0.318035 0.0487512 3.38574 218 241 255
0.430082 0.0731344 3.37112 135 161 177
0.153547 0.0784332 3.41095 160 230 190
1.84119 0.0779136 3.16077 103 159 124
0.151805 0.0894254 3.41566 91 147 126
-0.547843 0.0968475 3.55416 138 184 208
0.569097 0.0926621 3.35838 102 136 125
0.697596 0.0920845 3.34358 75 133 115
1.84136 0.0925398 3.15938 93 145 115
-1.5743 0.119192 3.54829 96 136 219
0.688094 0.120591 3.35763 74 125 111
1.86838 0.118643 3.14095 93 98 131
0.451952 0.133342 3.37833 135 164 178
0.472478 0.130431 3.37224 98 133 123
1.78035 0.125558 3.17986 80 121 106
1.82003 0.132252 3.17534 72 121 99
0.935032 0.161698 3.32777 84 139 120
1.76004 0.151981 3.18044 75 103 103
0.197767 0.168048 3.41802 205 233 244
0.457341 0.170576 3.38085 212 235 251
0.777776 0.184608 3.34514 92 158 139
0.219627 0.196738 3.41116 202 207 205
-0.322686 0.218438 3.52332 207 234 238
0.133753 0.21347 3.42726 93 142 122
-1.70337 0.229547 3.57232 149 194 255
0.478404 0.22544 3.38834 179 217 221
0.203667 0.231367 3.41719 213 235 247
0.213827 0.229579 3.42123 157 159 167
3.98168 0.473899 6.67214 162 185 233
1.39902 0.315188 3.25428 148 212 183
1.63805 0.310337 3.20942 55 103 74
1.74663 0.309952 3.19413 50 82 57
0.871327 0.327989 3.31844 46 88 65
1.24996 0.32354 3.27694 61 111 81
1.64112 0.318104 3.20963 131 210 169
0.99424 0.330907 3.30632 40 73 52
1.88863 0.349032 3.17469 71 71 71
0.34578 0.398766 3.41474 252 254 254
0.829679 0.390415 3.33558 136 213 175
0.328171 0.407952 3.42372 134 158 156
0.352989 0.416505 3.42238 165 193 200
0.164545 0.423296 3.4517 118 153 156
0.828905 0.421132 3.34138 66 116 92
1.03625 0.427982 3.3135 66 129 97
0.519433 0.441628 3.38684 131 135 154
0.160922 0.454099 3.4632 243 252 255
0.415451 0.449198 3.40375 147 126 111
0.528955 0.451489 3.38818 253 253 253
1.75866 0.432856 3.20159 145 201 160
0.141714 0.491009 3.47359 204 241 245
0.775462 0.483557 3.36295 148 213 181
0.644495 0.49072 3.37991 92 143 116
1.74067 0.464503 3.20543 50 85 59
0.496167 0.502937 3.39743 138 181 160
0.162263 0.515796 3.4699 162 226 220
0.477507 0.51304 3.41028 124 176 176
0.95965 0.502899 3.33052 134 198 163
1.74899 0.487497 3.20784 63 104 73
0.327555 0.543277 3.44028 155 167 177
0.706689 0.532852 3.37328 135 205 165
0.407726 0.544796 3.42902 153 130 115
0.71443 0.553182 3.37281 74 119 102
1.89403 0.52694 3.18868 100 147 139
1.88777 0.533722 3.18801 153 191 215
0.377563 0.584882 3.44314 180 186 205
1.50748 0.555674 3.25394 84 156 120
1.89241 0.543533 3.16607 122 133 153
0.466011 0.588769 3.42486 77 94 121
0.376775 0.596453 3.4423 115 106 133
0.476411 0.595646 3.43244 146 183 209
0.362649 0.605914 3.44551 148 173 193
0.679013 0.595069 3.38365 178 224 218
1.14086 0.58499 3.3155 83 154 128
0.3644 0.620657 3.44412 212 237 253
1.89007 0.575238 3.18114 189 226 255
0.848245 0.613503 3.35379 58 131 99
0.927133 0.61331 3.34801 177 219 212
0.173326 0.644084 3.48081 79 116 142
0.332289 0.654497 3.45449 137 167 186
0.731765 0.648843 3.38239 139 204 172
0.345511 0.672629 3.45892 120 147 161
0.408007 0.675096 3.44341 192 218 225
-0.409319 0.713539 3.59225 64 138 114
0.399612 0.682747 3.45148 122 115 128
0.858571 0.673361 3.35941 79 130 102
0.149266 0.731935 3.48896 90 133 112
0.37683 0.729 3.45164 89 93 111
0.488099 0.742296 3.44065 109 135 149
0.488229 0.754949 3.44244 173 210 232
1.88479 0.70099 3.18009 175 217 252
0.358665 0.769408 3.45967 114 160 184
1.85822 0.734291 3.21954 91 144 111
0.377772 0.793434 3.45811 156 223 216
0.444716 0.801273 3.45324 70 87 83
0.354064 0.804476 3.4661 94 147 138
0.349835 0.831582 3.47225 199 229 246
1.06486 0.817262 3.34997 81 147 118
-1.40951 -1.34155 3.39209 72 97 161
1.83081 -1.19154 3.02094 158 185 206
1.82683 -1.1683 2.96826 111 146 132
1.82969 -1.17422 3.02246 53 62 100
1.09956 -1.22355 3.14622 68 118 100
-1.21019 -1.33873 3.46487 42 67 53
1.89006 -1.16567 3.01214 118 155 135
-1.35914 -1.33753 3.46938 81 111 170
1.0983 -1.21143 3.15024 115 173 149
-1.3069 -1.32896 3.46578 223 249 255
-1.91058 -1.28855 3.42759 22 20 40
-0.131178 -1.18192 3.35859 212 251 249
0.295931 -1.15063 3.27092 195 236 228
-1.3876 -1.18448 3.46965 92 93 154
0.603465 -1.09653 3.23893 199 238 230
0.587288 -1.08026 3.239 240 255 253
-1.89998 -1.16901 3.53264 150 208 237
2.62881 -1.43975 4.35454 92 110 141
0.50219 -1.07076 3.25531 203 228 218
0.30088 -1.04491 3.28472 217 242 238
1.77255 -0.970437 3.0686 52 80 57
0.31714 -1.0269 3.29109 116 180 144
-1.33143 -1.0971 3.51821 57 91 121
-0.427995 -1.04662 3.39428 95 152 119
0.178991 -1.02077 3.30153 73 79 74
-2.06757 -1.10373 3.59407 105 180 172
1.81277 -0.875371 3.06303 87 138 111
-1.76625 -0.956708 3.42462 170 209 237
1.84139 -0.84656 3.05037 151 184 210
1.81501 -0.848714 3.07532 130 188 160
0.807388 -0.885114 3.24166 170 212 255
1.816 -0.836245 3.07422 51 68 55
-0.492505 -0.912432 3.43537 67 99 94
-1.41994 -0.903084 3.44866 65 90 146
-0.664859 -0.907954 3.44731 117 119 113
-1.34647 -0.925773 3.54749 117 173 160
-1.45116 -0.899232 3.47989 33 36 74
-0.810093 -0.893493 3.46886 214 241 237
1.77068 -0.800232 3.09879 61 88 79
0.0684021 -0.850213 3.34863 58 93 89
-0.994143 -0.867445 3.49008 216 249 252
1.85508 -0.724519 3.06133 160 191 214
0.0365301 -0.792436 3.37015 224 235 225
1.85792 -0.711399 3.06256 78 76 95
2.15794 -0.799444 3.55942 106 116 140
0.1459 -0.746933 3.34732 143 185 228
1.81874 -0.674866 3.10242 239 239 209
0.220398 -0.668555 3.34843 121 168 190
-1.55274 -0.653948 3.41533 96 132 220
1.64527 -0.587993 3.11274 133 194 156
1.79135 -0.587219 3.10426 242 252 176
1.66564 -0.585581 3.12389 51 47 42
0.168717 -0.617078 3.35864 78 136 131
-1.32997 -0.647127 3.57244 167 213 254
-1.33263 -0.619039 3.58179 164 217 250
-1.16351 -0.610374 3.54587 234 249 251
-1.44878 -0.600445 3.59487 93 133 181
-1.36895 -0.593175 3.59784 186 228 251
0.411922 -0.526102 3.31746 108 150 155
1.83659 -0.488666 3.09445 111 173 127
0.0462318 -0.53456 3.39741 117 168 184
1.83831 -0.47667 3.08574 39 42 50
1.74625 -0.475057 3.12566 64 108 79
0.233355 -0.494718 3.3406 75 137 125
0.232725 -0.481643 3.34364 119 159 171
0.346701 -0.479415 3.33795 116 157 182
0.361954 -0.482356 3.32995 216 237 245
0.941276 -0.464211 3.25624 63 117 104
1.76223 -0.435593 3.12059 139 202 162
-2.0482 -0.508921 3.66444 127 203 161
-1.09562 -0.483036 3.54806 66 88 70
0.407262 -0.445248 3.33682 111 158 179
-0.60801 -0.460191 3.48854 124 182 194
1.75359 -0.406249 3.13762 60 127 90
-0.948363 -0.455525 3.4951 42 70 51
0.263158 -0.423601 3.35606 130 178 206
-1.01322 -0.408979 3.54696 58 75 66
0.324975 -0.366686 3.3476 218 246 253
1.84563 -0.34077 3.10203 44 43 45
1.84469 -0.327036 3.10898 88 126 90
1.84616 -0.31422 3.10555 33 40 37
-0.111613 -0.297055 3.44928 197 229 228
1.24309 -0.26861 3.22095 63 106 93
-2.03498 -0.303548 3.67711 97 140 125
1.44965 -0.225459 3.19027 118 174 151
1.78733 -0.222762 3.14132 73 112 96
-1.25248 -0.246609 3.60906 50 108 84
1.40185 -0.216612 3.19758 120 189 169
1.45336 -0.212137 3.1922 53 64 48
1.80243 -0.200069 3.14085 53 74 65
1.77631 -0.182214 3.14317 59 90 83
1.83495 -0.127945 3.1374 155 192 182
1.78857 -0.0578375 3.15274 56 103 64
0.312316 -0.0465183 3.36338 96 137 116
1.79708 -0.0423481 3.14912 44 63 36
0.115182 -0.0330712 3.41168 219 241 236
0.313087 -0.0278472 3.38359 203 242 240
0.144908 -0.0130586 3.40835 54 102 76
0.275332 -0.0135261 3.38316 222 250 255
1.75703 -0.00774992 3.16384 37 83 60
0.366148 0.00114806 3.38266 134 169 179
0.457325 0.00453541 3.34516 172 216 215
0.355397 0.0117988 3.3745 233 252 255
-1.23166 0.0225901 3.64316 60 125 100
0.312762 0.0177911 3.37523 155 191 207
-1.42822 0.0265766 3.54659 50 74 128
1.80383 0.058042 3.1681 63 104 83
0.339541 0.0686127 3.38367 204 240 250
0.420704 0.0679474 3.3723 198 221 236
0.383465 0.075464 3.38317 243 254 255
0.229698 0.0765167 3.40596 159 196 218
0.210202 0.0862286 3.40199 236 254 255
0.509864 0.0939301 3.361 79 130 110
0.471582 0.110928 3.36023 102 133 132
0.68884 0.121422 3.36013 76 122 109
0.441134 0.13994 3.38246 240 250 255
0.429975 0.149397 3.38843 133 161 185
1.78074 0.136996 3.18813 58 84 78
-1.78878 0.174283 3.56317 156 191 231
0.394769 0.197663 3.39263 155 151 150
0.206825 0.198772 3.42265 105 91 79
0.219762 0.199585 3.41927 202 204 204
0.282735 0.202377 3.40437 127 118 115
0.295003 0.216631 3.412 139 137 136
0.277273 0.223038 3.41838 248 249 253
0.499549 0.229773 3.37387 64 67 71
0.17055 0.245732 3.43423 187 221 245
0.270346 0.240302 3.42163 204 212 211
-1.37895 0.292566 3.74676 86 141 180
0.294572 0.260278 3.40642 147 184 180
0.351737 0.265707 3.40049 140 187 184
-1.92507 0.314525 3.75593 79 107 94
0.0961223 0.290302 3.45566 42 80 58
0.370232 0.336776 3.40722 129 122 127
1.25005 0.32128 3.27274 58 108 78
0.996387 0.332711 3.31082 35 72 52
0.862425 0.347202 3.32364 57 116 85
-1.17623 0.404501 3.66558 206 234 228
0.737242 0.368504 3.34585 83 122 97
0.979954 0.379267 3.31586 137 210 170
0.346395 0.400675 3.41941 243 250 247
0.328241 0.408197 3.42432 134 158 156
0.31988 0.425387 3.42887 245 255 255
1.7403 0.39713 3.20301 59 87 64
1.85156 0.39419 3.17949 143 185 167
1.0976 0.420956 3.3047 67 141 105
0.418417 0.44846 3.40529 146 123 107
1.77042 0.425276 3.21232 150 191 183
0.942292 0.454053 3.32934 80 133 94
0.574684 0.476155 3.3789 120 187 158
0.501929 0.48734 3.39887 50 58 51
0.595414 0.516474 3.39385 79 144 118
0.958931 0.502652 3.32995 130 194 159
1.75211 0.490238 3.212 59 103 72
0.328192 0.531207 3.44303 223 240 243
0.340567 0.523907 3.42187 114 167 158
0.498755 0.518227 3.38379 44 56 44
0.846447 0.515822 3.35407 194 226 232
0.892144 0.513169 3.34818 161 218 203
1.85012 0.497855 3.19393 84 128 105
0.444138 0.542666 3.42276 169 202 235
0.302518 0.54826 3.4423 150 177 198
0.482789 0.546856 3.4175 122 182 172
0.481558 0.547508 3.4189 123 189 178
0.924992 0.548521 3.34125 73 140 109
0.479823 0.565352 3.41891 86 108 106
0.348766 0.574762 3.42875 142 176 182
0.350118 0.584701 3.45037 134 168 174
0.859288 0.570107 3.358 108 157 137
1.88653 0.537036 3.17968 167 210 255
1.96735 0.536041 3.1744 234 251 247
1.89626 0.545875 3.17089 105 116 130
1.02348 0.577585 3.33356 75 157 122
0.488387 0.604082 3.42497 70 82 84
0.524107 0.601184 3.41063 106 135 112
0.343643 0.617747 3.45644 151 180 187
0.735636 0.608655 3.38493 189 228 226
0.84983 0.60441 3.35098 71 143 107
0.926929 0.61416 3.34975 178 223 214
0.3932 0.633173 3.44719 122 126 145
0.834932 0.61778 3.36457 132 204 174
0.473653 0.64392 3.43271 95 98 136
0.178001 0.657769 3.47967 194 227 247
0.479758 0.652689 3.4342 176 212 242
0.153995 0.672929 3.48393 77 138 110
0.445771 0.663679 3.43591 81 73 90
0.296382 0.6784 3.46641 152 177 203
0.402421 0.703169 3.45285 115 107 117
0.150158 0.730026 3.48514 89 137 113
0.395477 0.721498 3.44994 202 219 228
1.88368 0.677503 3.17892 187 225 255
1.89174 0.674375 3.16956 81 102 134
1.86571 0.689558 3.20924 73 114 76
0.514608 0.744568 3.414 254 254 254
1.88613 0.704182 3.1834 185 223 255
0.528339 0.759122 3.40975 102 133 112
0.810394 0.748669 3.37323 68 119 91
0.777845 0.758718 3.39003 151 211 210
0.48671 0.777946 3.43881 152 188 204
0.306806 0.796574 3.47334 169 226 218
0.449772 0.791073 3.45746 208 235 245
1.85856 0.737388 3.21981 97 143 114
0.296651 0.801289 3.47597 124 177 163
0.282564 0.805298 3.47404 160 227 212
0.419523 0.807311 3.4316 71 117 95
0.470559 0.815115 3.45398 80 117 97
0.354651 0.829498 3.46902 208 234 251
0.508796 0.87396 3.44058 83 102 85
-1.29373 -1.34658 3.48341 55 76 68
-1.21158 -1.33746 3.45982 55 71 53
-1.34434 -1.3279 3.47128 167 217 253
-1.33906 -1.3362 3.49844 46 50 69
-1.30756 -1.32909 3.46721 227 249 255
1.01807 -1.21149 3.16319 53 83 58
1.05115 -1.20273 3.15169 103 164 138
-1.90596 -1.31206 3.44477 56 48 79
1.06806 -1.1924 3.15277 72 108 91
-1.427 -1.28017 3.39826 253 255 255
0.964363 -1.19693 3.17863 88 135 119
1.87787 -1.13739 3.01576 60 68 58
-1.95344 -1.27472 3.46141 240 249 255
1.77082 -1.12824 3.06088 43 83 58
-1.4089 -1.2108 3.39958 59 68 131
1.72047 -1.08908 3.05632 84 125 104
-1.61697 -1.12329 3.33426 93 106 180
0.578724 -1.08095 3.24864 243 255 251
-1.9135 -1.1702 3.55757 158 215 246
0.532821 -1.07526 3.25261 229 249 244
-2.0294 -1.17395 3.56994 51 66 85
-1.45259 -1.07913 3.40427 133 154 239
1.87476 -0.960742 3.04942 75 98 84
1.75773 -0.957294 3.08015 45 89 60
-1.75718 -1.05129 3.4008 177 210 230
1.74507 -0.939645 3.10244 71 115 86
-1.61996 -1.00469 3.35791 112 109 178
-0.140919 -0.984476 3.35919 217 238 236
1.84611 -0.876415 3.0537 164 204 233
-1.7657 -0.956714 3.42527 168 200 236
-1.39721 -0.974723 3.54236 93 172 159
0.799933 -0.882155 3.23772 175 212 255
-0.465906 -0.924084 3.4101 60 58 40
-0.465443 -0.923785 3.42528 40 64 40
0.131113 -0.897645 3.33276 56 70 64
0.0942988 -0.876207 3.33581 61 66 57
1.23101 -0.833887 3.16194 102 166 137
-1.42049 -0.903021 3.45118 53 79 139
1.77507 -0.808264 3.08944 79 101 77
-1.44981 -0.895923 3.48074 25 32 59
0.0708142 -0.851942 3.34427 65 95 90
1.73963 -0.773885 3.10383 66 107 92
1.84371 -0.725674 3.05934 166 191 223
-1.42713 -0.816564 3.47743 84 99 132
-1.81718 -0.798674 3.4566 51 65 71
1.81569 -0.675207 3.1031 234 230 202
-1.41914 -0.760038 3.52208 239 255 255
1.61634 -0.595455 3.12829 52 72 53
1.64491 -0.594176 3.12763 113 182 145
1.66429 -0.585314 3.12725 54 51 47
-1.35457 -0.614023 3.5966 56 81 91
-1.3322 -0.615876 3.5829 161 213 243
-1.44478 -0.603958 3.58327 71 113 150
0.0661872 -0.560386 3.37979 141 188 216
-2.01684 -0.592979 3.64171 181 216 242
-1.36918 -0.584273 3.59617 172 208 238
-1.66301 -0.536998 3.47711 87 92 153
1.87792 -0.480002 3.09511 92 100 117
1.83189 -0.472154 3.08534 30 30 30
1.52283 -0.476294 3.16851 56 68 56
-2.05158 -0.516791 3.67562 115 190 146
1.82366 -0.427589 3.10839 82 126 103
1.85501 -0.42791 3.08937 169 203 239
-2.07443 -0.499324 3.67736 60 90 61
-1.44405 -0.457731 3.51437 75 86 136
0.457596 -0.411021 3.3246 223 238 247
1.40028 -0.390518 3.1801 69 101 82
-1.0828 -0.425959 3.55207 46 72 56
1.38361 -0.380644 3.18076 102 154 131
1.78427 -0.37921 3.12822 132 181 161
-1.01743 -0.411021 3.55556 65 86 78
1.78616 -0.356381 3.11768 61 90 75
0.469265 -0.375802 3.33781 208 229 237
1.79232 -0.339754 3.1219 131 170 148
-1.9267 -0.384861 3.66752 127 205 188
1.86357 -0.269908 3.11257 140 175 209
1.46775 -0.253124 3.18402 42 65 51
1.7813 -0.249144 3.14672 77 121 104
1.82418 -0.240242 3.13116 115 161 139
1.3967 -0.219683 3.18505 112 184 164
1.40199 -0.204258 3.20069 51 74 59
1.44856 -0.206437 3.19887 49 64 43
1.782 -0.185818 3.15107 93 133 121
2.40282 -0.117474 4.03535 43 42 58
0.314678 -0.0434596 3.37423 94 140 121
1.79338 -0.0356557 3.16474 54 94 66
0.175033 -0.0214961 3.39738 172 222 222
0.27303 -0.0110099 3.39166 188 222 235
0.428636 -0.0118136 3.36156 143 198 183
0.349335 -0.00388957 3.38188 176 212 220
-1.46245 -0.000649539 3.59743 76 93 144
0.455684 0.0149828 3.36326 182 233 226
0.395076 0.0167377 3.36389 196 218 230
0.424778 0.0163968 3.36563 66 73 60
1.80772 0.015048 3.15674 52 59 44
0.37777 0.0328991 3.38258 201 224 232
1.84958 0.0273266 3.13144 47 42 39
1.85038 0.0277704 3.13279 43 40 36
0.470403 0.0321764 3.36251 174 219 223
1.77422 0.0521653 3.18341 52 63 53
1.74453 0.0665864 3.17738 50 79 64
0.227501 0.0758434 3.40766 155 195 214
0.350926 0.0754579 3.38485 90 98 98
0.382741 0.0751522 3.38217 242 253 255
0.40186 0.074741 3.37865 173 191 214
0.470523 0.129651 3.36418 109 137 138
1.83925 0.157706 3.16772 80 119 97
-1.8091 0.208564 3.60021 92 111 154
0.469648 0.197464 3.37816 217 238 253
-1.82091 0.217016 3.62544 166 197 242
0.17388 0.226806 3.44004 77 85 84
-1.73481 0.235127 3.59372 39 45 44
0.279021 0.226503 3.4196 250 252 252
0.512536 0.224512 3.38321 251 254 252
0.289126 0.233625 3.40003 253 255 255
0.491726 0.236579 3.37276 73 67 68
0.744935 0.233051 3.30131 98 118 105
1.84554 0.211161 3.0567 238 245 242
0.1704 0.249713 3.44518 167 205 229
0.203863 0.245058 3.42935 228 249 255
0.317562 0.244678 3.4098 117 140 125
0.121875 0.268702 3.45264 62 84 55
-1.70909 0.279108 3.57676 173 211 255
0.823618 0.257787 3.31214 40 72 48
0.0965118 0.285245 3.44202 68 104 74
0.313059 0.280763 3.40999 114 160 147
0.295064 0.300657 3.42147 144 195 198
1.286 0.286859 3.27281 45 91 55
0.369854 0.336207 3.40576 139 136 145
1.87785 0.352003 3.17116 51 56 55
-1.85822 0.435337 3.76899 68 88 83
1.87891 0.361901 3.1478 174 191 200
0.747415 0.398168 3.34108 66 129 87
1.85011 0.392764 3.17625 142 181 165
1.90235 0.411224 3.17586 202 228 235
1.7562 0.422385 3.19468 123 167 154
0.775068 0.450929 3.30648 100 145 118
0.715451 0.466093 3.36636 231 242 246
0.787033 0.470524 3.35118 65 120 81
1.74964 0.46018 3.2114 55 73 50
1.86379 0.465892 3.20675 82 138 95
0.14875 0.50398 3.46455 108 159 132
1.9143 0.462763 3.18692 177 193 200
0.329615 0.505878 3.43278 151 186 190
0.29502 0.550485 3.44124 165 189 211
1.77237 0.514861 3.21624 119 176 145
0.442659 0.575581 3.42778 189 217 251
1.88719 0.534813 3.18041 177 218 255
1.92274 0.53007 3.18761 159 175 188
1.94482 0.527468 3.14667 220 232 234
0.344086 0.5796 3.44534 139 175 185
0.378136 0.586896 3.4311 107 94 120
0.265738 0.600823 3.47232 216 238 250
1.87136 0.546433 3.19009 39 50 42
0.377335 0.591171 3.4403 110 122 146
0.730266 0.604913 3.382 176 224 218
0.471026 0.616989 3.42611 241 249 255
0.847331 0.607125 3.35718 69 139 109
1.89611 0.583439 3.19958 181 214 255
0.172 0.641987 3.47779 90 133 150
0.28032 0.643429 3.46322 167 189 207
0.83148 0.622715 3.36513 133 200 163
1.85096 0.599013 3.19241 88 147 102
0.440033 0.667104 3.43711 88 76 96
0.474091 0.659197 3.42839 170 198 232
0.493934 0.66732 3.43195 64 83 74
0.853001 0.649968 3.36199 245 251 250
0.395449 0.673468 3.45438 115 115 115
0.438317 0.671451 3.446 129 134 149
0.47733 0.696386 3.43331 100 111 143
1.75246 0.663044 3.22909 45 73 53
0.492232 0.746383 3.40977 87 112 114
0.509518 0.755741 3.42536 111 145 134
0.436386 0.80803 3.46306 69 90 87
0.409517 0.819737 3.44613 96 141 115
0.472298 0.820884 3.45078 59 99 74
