ply
format ascii 1.0
element vertex 1265
property float x
property float y
property float z
property uchar blue
property uchar green
property uchar red
end_header
1.99107 0.893427 4.15074 135 212 178
1.33635 0.93626 4.30123 172 203 224
2.06824 0.890415 4.07767 146 228 186
1.38756 0.943015 4.31403 137 137 149
0.648074 0.928795 4.23336 172 165 162
1.37715 0.951482 4.30344 118 153 187
2.37022 0.897714 4.0276 152 217 178
1.3238 0.970357 4.306 113 123 147
1.30922 0.972494 4.3005 167 176 190
2.37087 0.90639 4.01129 112 214 172
1.51082 0.906184 3.98659 148 120 119
2.24813 0.906668 3.9838 113 157 128
2.08752 0.944339 4.06088 149 233 204
0.508209 1.00161 4.22951 116 124 141
0.532941 1.00476 4.24697 147 160 176
2.04255 0.994808 4.17727 85 164 123
2.18961 0.960141 3.98805 144 224 181
2.3402 0.961937 3.98166 138 234 194
0.295696 1.02838 4.21567 120 144 142
0.297909 1.03396 4.22008 218 238 225
0.302459 1.03916 4.22379 126 146 147
0.350788 1.04104 4.22393 217 250 255
0.317424 1.09533 4.23727 143 140 149
0.320994 1.11258 4.23477 111 160 182
0.317535 1.11487 4.23229 150 194 207
0.318462 1.11875 4.24005 185 230 244
0.52723 1.13703 4.24816 147 133 111
0.37862 1.13409 4.23436 167 189 194
0.321417 1.14072 4.24363 211 234 249
0.322639 1.14999 4.26202 120 139 152
0.369491 1.14774 4.24551 180 186 191
0.38006 1.15517 4.24504 159 153 148
0.326117 1.15731 4.24364 110 127 153
0.327852 1.16166 4.24378 169 184 203
0.0752027 1.1514 4.19723 122 120 119
0.329627 1.16887 4.25795 102 115 129
0.333261 1.16459 4.24487 185 211 223
0.346964 1.16395 4.23896 98 101 115
0.3325 1.17126 4.24205 148 171 179
-0.411374 -1.62739 3.54582 115 175 167
-0.139921 -1.644 3.59069 93 158 142
-0.900785 -1.58292 3.46063 102 166 154
-1.07995 -1.56405 3.42569 93 146 133
1.04623 -1.72665 3.79624 100 160 142
1.19927 -1.73729 3.81811 84 155 135
-1.23041 -1.54967 3.40892 159 224 202
-0.0641829 -1.63866 3.60598 69 142 134
-0.139877 -1.63199 3.59203 88 125 121
0.145624 -1.65138 3.63637 103 172 159
-1.23592 -1.53895 3.40844 168 234 205
-0.869173 -1.56176 3.47022 202 255 245
-1.06603 -1.54328 3.43177 82 150 133
-0.114014 -1.6158 3.59332 111 176 161
-0.0836396 -1.62134 3.60435 86 152 140
-1.14681 -1.54007 3.42695 105 165 157
0.151117 -1.63099 3.64273 160 222 210
0.567055 -1.65887 3.70727 110 173 171
-0.053481 -1.61506 3.61507 100 152 158
-1.144 -1.52966 3.4268 116 175 161
-0.398759 -1.58741 3.55611 77 129 122
1.19702 -1.70705 3.82941 89 109 114
-1.168 -1.52352 3.42228 84 134 130
-1.11462 -1.52443 3.42399 154 225 209
1.12305 -1.69025 3.80831 160 219 199
-0.412265 -1.57153 3.54862 101 167 148
-1.23846 -1.51067 3.41744 84 124 129
-0.127564 -1.59141 3.60451 122 182 171
-1.14737 -1.51089 3.43152 75 147 134
-1.42726 -1.48844 3.38709 157 213 218
-0.0622347 -1.58833 3.61525 64 137 141
-1.2598 -1.49118 3.41323 138 204 185
-1.24582 -1.49138 3.41245 139 216 195
-1.23909 -1.49029 3.41501 73 126 112
-1.23377 -1.49284 3.42861 159 220 210
-1.08134 -1.49383 3.44467 94 151 142
-1.24693 -1.48108 3.42043 94 151 136
-1.52798 -1.45777 3.38202 61 133 120
-1.16948 -1.47919 3.42922 167 221 204
-1.10273 -1.48265 3.4444 83 148 133
-0.627539 -1.51217 3.52263 86 147 127
1.69765 -1.68357 3.92367 100 151 144
0.953936 -1.62593 3.79125 96 147 140
1.70012 -1.6844 3.92842 94 151 142
-1.474 -1.45202 3.39259 80 151 134
-0.623449 -1.50842 3.52442 141 227 193
0.27968 -1.569 3.67635 78 150 137
-0.608787 -1.50621 3.53156 50 129 116
-1.06066 -1.46967 3.45541 112 178 166
-0.658992 -1.49736 3.52254 72 144 131
-0.916076 -1.48004 3.48533 86 150 145
-1.24638 -1.45329 3.42706 96 158 144
1.0504 -1.61426 3.80805 99 155 142
-1.55617 -1.4309 3.37957 160 226 215
-0.6793 -1.48983 3.52184 106 171 156
-1.22099 -1.44579 3.43046 160 216 203
-1.3401 -1.43709 3.41569 92 137 134
-1.30649 -1.44112 3.42187 76 144 127
0.861496 -1.58636 3.7743 125 191 180
-0.671679 -1.48065 3.52913 154 229 215
0.352773 -1.54796 3.69603 95 167 154
-1.06022 -1.44425 3.45849 91 160 147
1.20595 -1.59406 3.84416 103 152 144
-1.2269 -1.41839 3.43176 68 148 125
-1.62226 -1.39197 3.37785 75 118 107
0.597986 -1.53908 3.73662 104 163 172
-1.19908 -1.41702 3.44321 110 168 157
-1.27075 -1.41034 3.4386 60 114 101
-1.17875 -1.41499 3.44778 159 230 214
-0.899965 -1.43222 3.49223 107 158 154
0.657922 -1.53548 3.74307 105 168 152
-1.68552 -1.37783 3.36468 147 212 180
-1.25621 -1.40601 3.43708 157 228 208
0.648442 -1.53072 3.74088 115 175 164
-1.78383 -1.37043 3.34958 146 235 202
-1.61613 -1.38044 3.3782 146 221 200
-1.50822 -1.38741 3.39659 78 133 124
0.934506 -1.54906 3.79497 97 176 163
-1.3449 -1.39365 3.41802 141 216 208
-1.37936 -1.39286 3.42063 102 181 168
-1.35549 -1.39115 3.41562 175 234 220
-1.13092 -1.4035 3.45889 176 237 223
-1.59334 -1.37089 3.38809 167 227 203
-1.50041 -1.37716 3.40015 66 135 122
-1.02344 -1.40071 3.46965 76 130 125
1.26532 -1.55878 3.86757 115 196 181
-1.79248 -1.35318 3.35923 78 143 127
-1.38546 -1.37612 3.41703 89 154 139
-0.571876 -1.42983 3.55146 94 164 151
1.18091 -1.54583 3.84265 52 129 115
-1.68283 -1.35745 3.37741 154 220 185
-0.71176 -1.41889 3.52816 83 149 138
-1.71549 -1.35221 3.36644 121 187 152
-1.05176 -1.39317 3.46929 85 146 136
-1.04598 -1.39126 3.46891 168 233 224
-1.23015 -1.37998 3.44446 119 172 162
-1.15278 -1.38106 3.45115 109 180 154
-1.12048 -1.37935 3.46065 77 148 128
-2.00284 -1.32019 3.32928 74 156 134
-1.35557 -1.35392 3.42695 76 140 128
-0.743033 -1.39392 3.52841 167 236 221
-0.826436 -1.3868 3.51705 95 155 147
-1.33849 -1.3557 3.43433 81 148 127
-1.50124 -1.33943 3.40997 78 133 124
-0.970017 -1.37081 3.49112 178 233 224
1.09715 -1.5057 3.83941 105 136 145
-0.973482 -1.36572 3.4873 104 148 141
1.04478 -1.49698 3.82344 114 161 165
-1.22475 -1.34634 3.45258 66 107 100
-1.61975 -1.32249 3.39365 74 149 121
-1.15454 -1.34343 3.46517 154 229 197
0.334156 -1.43752 3.70952 107 158 161
-0.893848 -1.35071 3.51061 170 237 222
0.298258 -1.42519 3.7071 111 176 167
-1.10147 -1.3318 3.47054 65 138 112
-0.951508 -1.341 3.49873 173 235 219
0.688883 -1.44292 3.76551 123 187 181
-1.1213 -1.32738 3.46639 159 238 195
0.484695 -1.43167 3.74107 109 165 154
-1.57815 -1.30079 3.40386 78 129 115
-1.10407 -1.32391 3.47512 144 207 181
-1.73287 -1.28584 3.37931 79 124 107
-0.619825 -1.3527 3.55602 93 156 146
0.989754 -1.4524 3.81599 90 167 153
-0.679783 -1.34278 3.54365 86 141 162
-1.34153 -1.30477 3.44414 75 135 124
-0.675624 -1.343 3.54784 170 234 235
-1.3313 -1.30114 3.44495 90 154 142
-1.47698 -1.29164 3.42012 132 203 177
-1.03128 -1.31165 3.49072 111 177 166
-1.71225 -1.27252 3.38764 85 143 115
-1.60039 -1.27413 3.40874 80 138 120
-1.11098 -1.30236 3.48074 77 166 127
-1.23947 -1.29505 3.46912 106 163 154
-0.834173 -1.31716 3.52828 166 226 218
-1.30681 -1.28666 3.45405 90 148 137
-1.23612 -1.2862 3.46682 163 222 208
-0.529801 -1.32776 3.5812 149 215 203
-1.77183 -1.25204 3.38497 84 148 119
-1.52408 -1.26469 3.42086 67 124 109
-1.01236 -1.29215 3.50202 108 160 150
0.362774 -1.37047 3.71874 124 178 173
-1.26786 -1.27217 3.4665 63 134 108
-0.932139 -1.28621 3.51585 84 142 137
-1.5028 -1.25407 3.43167 136 208 185
-1.27997 -1.26685 3.46198 79 115 101
-0.712642 -1.29634 3.54785 157 212 203
-1.28261 -1.2618 3.46483 131 198 166
-1.24146 -1.26583 3.47701 79 134 117
-0.764316 -1.29129 3.54655 158 237 218
-1.34914 -1.25525 3.45127 150 218 187
-1.33953 -1.25639 3.45423 133 210 182
-1.22269 -1.26207 3.47617 100 160 152
-1.16131 -1.26503 3.47859 47 93 80
-1.00507 -1.27422 3.50992 175 227 220
-0.698128 -1.29329 3.55955 75 128 119
-1.67529 -1.23675 3.40759 134 194 176
-1.28232 -1.25664 3.4663 83 150 111
-1.31902 -1.25153 3.4546 132 211 167
-1.71771 -1.22711 3.39218 130 204 162
-1.54368 -1.23781 3.42858 101 165 146
0.342083 -1.3428 3.72833 83 147 125
-1.13317 -1.25349 3.48251 70 141 114
-1.7839 -1.22029 3.38873 99 138 100
-1.77131 -1.21764 3.3945 72 137 115
-1.76789 -1.21727 3.38871 81 144 118
0.900303 -1.36995 3.81417 156 231 215
-1.22491 -1.24159 3.47741 140 218 187
-1.15599 -1.24067 3.48733 78 126 108
-0.935396 -1.24949 3.51308 160 231 204
-0.688147 -1.26902 3.56556 92 161 150
1.96969 -1.42694 4.00872 130 190 182
-0.0992625 -1.30291 3.66706 59 131 111
-1.4772 -1.21912 3.44001 85 128 117
0.0918845 -1.30713 3.68952 84 164 159
-1.35082 -1.22229 3.45482 73 144 104
-1.11194 -1.2367 3.48849 156 232 198
-1.10811 -1.23778 3.49518 60 130 107
0.515771 -1.33143 3.7587 120 164 163
-1.15174 -1.23305 3.49016 59 115 94
-0.585255 -1.26583 3.58379 83 143 135
0.39741 -1.31783 3.73961 175 238 229
-1.50398 -1.21034 3.43792 93 155 139
-0.378625 -1.27492 3.62096 173 233 223
-1.38816 -1.21171 3.45107 75 137 113
-1.72947 -1.19571 3.40908 57 105 87
-1.19561 -1.22283 3.48687 84 144 126
-0.891912 -1.23977 3.53616 96 186 163
-1.84696 -1.18612 3.39009 168 247 208
-1.68567 -1.1964 3.41199 67 126 105
-1.73925 -1.19064 3.40884 72 132 108
-1.1857 -1.21867 3.49018 83 159 141
0.912624 -1.33596 3.82158 105 169 163
-1.37293 -1.2058 3.4577 174 238 219
-1.39191 -1.20286 3.45584 147 216 201
-1.23001 -1.21462 3.48931 161 216 201
-1.44952 -1.19632 3.44288 59 97 91
-0.978864 -1.22372 3.52059 86 149 140
-1.08182 -1.21544 3.50803 63 135 122
-1.71843 -1.17868 3.40544 101 162 134
-1.21773 -1.20656 3.49003 90 141 137
-1.24154 -1.19933 3.47752 150 221 188
-0.685727 -1.23332 3.57288 67 131 125
-0.516608 -1.24275 3.60271 169 229 219
-1.71612 -1.17297 3.41256 73 138 113
-1.16541 -1.20331 3.49564 57 103 90
-1.02119 -1.20881 3.51526 68 129 119
-0.083052 -1.26403 3.6728 73 147 135
0.842234 -1.31299 3.81439 86 137 130
-1.15877 -1.20078 3.49475 149 212 196
-1.23067 -1.19751 3.49104 150 203 200
-1.504 -1.17878 3.4436 139 207 184
0.860285 -1.30825 3.819 93 153 143
-1.15493 -1.19718 3.49736 78 137 122
-1.7183 -1.16612 3.41201 93 150 129
-1.21207 -1.19629 3.49668 89 112 127
-1.16403 -1.19365 3.49691 64 114 96
-1.11089 -1.19645 3.50218 86 142 131
-0.677481 -1.22169 3.57511 171 228 220
-1.03085 -1.20031 3.5175 93 166 150
-0.755883 -1.21339 3.55653 75 128 119
-1.17518 -1.18988 3.4934 142 220 189
-0.302915 -1.23903 3.64146 83 153 146
2.41561 -1.37009 4.03575 87 131 114
-1.43476 -1.16889 3.45009 159 224 215
-1.22885 -1.18469 3.49133 95 156 130
-1.17471 -1.18544 3.49508 97 158 132
-0.461112 -1.22511 3.61494 91 154 145
-1.88175 -1.14708 3.39282 74 147 107
-1.54318 -1.16309 3.44158 92 167 153
-1.21394 -1.18019 3.49384 142 211 190
-1.12273 -1.18359 3.50506 91 141 129
-1.35159 -1.16966 3.47435 99 143 137
-1.28324 -1.17224 3.48161 168 238 221
-1.45248 -1.16232 3.45575 164 235 219
-1.01677 -1.18366 3.52149 78 153 139
-1.43663 -1.1602 3.4574 177 237 229
-1.53768 -1.15602 3.44752 102 148 136
-1.79922 -1.14229 3.40697 106 168 146
1.85218 -1.33722 3.99513 90 151 141
-1.5964 -1.15038 3.44236 97 139 132
-1.3265 -1.16139 3.47487 73 114 107
-1.09948 -1.17279 3.51088 180 235 226
-1.9928 -1.1282 3.37764 160 238 221
-1.20294 -1.16717 3.50061 91 157 132
-1.17327 -1.16324 3.49235 178 240 228
-1.84731 -1.13098 3.39699 150 222 186
-1.15459 -1.16524 3.50086 78 137 123
1.44453 -1.30642 3.92715 94 161 152
-1.59172 -1.14449 3.44085 150 218 201
-0.080684 -1.22109 3.68188 92 177 157
-1.14523 -1.16033 3.50356 95 148 139
-1.16321 -1.15588 3.5028 119 167 149
-1.26536 -1.15132 3.49371 149 219 202
-1.77916 -1.1241 3.4163 73 145 123
0.0361744 -1.2157 3.70165 85 153 146
2.3185 -1.30655 3.97954 137 222 177
-1.34993 -1.14221 3.47663 115 162 160
-1.05926 -1.15439 3.51863 153 215 201
2.35922 -1.30651 3.98911 129 193 157
0.575697 -1.23792 3.78337 115 161 168
-1.47773 -1.12985 3.45721 192 241 233
-0.931994 -1.15839 3.54371 159 222 220
-0.0312818 -1.20432 3.68735 97 165 158
-1.63902 -1.12244 3.44303 68 115 99
-1.5481 -1.12496 3.44632 187 242 225
-1.00496 -1.15085 3.53264 158 231 223
-1.81165 -1.10899 3.40992 162 222 188
-1.13321 -1.14068 3.50715 65 118 109
-0.951385 -1.15211 3.5398 71 137 126
-1.65449 -1.11697 3.43898 90 159 138
-0.819126 -1.1569 3.56704 89 157 150
-1.86225 -1.10227 3.4011 145 225 190
-1.1591 -1.13443 3.50399 169 234 213
-0.991171 -1.14385 3.52756 82 151 140
-1.5689 -1.1118 3.44887 77 134 125
-1.42067 -1.12089 3.47112 144 229 209
-1.34696 -1.12298 3.49082 95 146 142
0.950313 -1.23705 3.84355 116 169 160
2.18345 -1.30068 4.04147 94 181 153
-1.5616 -1.10807 3.44938 146 207 197
0.858477 -1.23041 3.82706 81 134 124
-1.112 -1.12803 3.51824 81 150 137
-0.689939 -1.15148 3.58471 104 161 152
-1.87426 -1.09277 3.41057 144 200 159
-1.49565 -1.10943 3.46094 99 150 142
-0.836805 -1.14212 3.56633 93 161 150
0.623102 -1.2137 3.78995 120 180 170
1.08538 -1.23898 3.86915 179 229 227
-1.56876 -1.10417 3.45325 75 126 118
-1.53681 -1.10646 3.45509 71 125 112
1.54333 -1.265 3.95435 122 175 178
0.227126 -1.19087 3.73439 97 159 147
-1.81717 -1.08667 3.41261 69 129 105
-1.56712 -1.09687 3.44663 150 219 206
-1.52124 -1.10075 3.45773 92 144 137
-1.39783 -1.1078 3.47799 64 130 118
-1.01769 -1.12498 3.53343 146 222 204
-1.98775 -1.07893 3.40091 165 226 216
-1.55203 -1.09429 3.44898 70 122 104
-1.96926 -1.07876 3.40063 75 146 129
-1.57743 -1.09268 3.44886 94 167 151
-1.08939 -1.11685 3.52342 97 162 147
0.887777 -1.21366 3.83524 121 173 166
-1.94542 -1.07674 3.40272 133 197 168
-1.64787 -1.0868 3.43814 82 129 107
-1.22275 -1.10946 3.51119 183 236 239
-0.999465 -1.11807 3.5393 105 177 165
-0.472376 -1.14676 3.62942 105 175 152
0.232141 -1.17629 3.72949 65 132 111
-1.85135 -1.07484 3.41304 69 118 90
-1.73709 -1.0806 3.43184 151 216 194
-0.990059 -1.11197 3.53739 86 149 140
-0.702914 -1.12852 3.59125 82 154 142
0.209546 -1.17267 3.73225 102 168 156
-1.83199 -1.07326 3.41728 62 127 95
-1.74772 -1.07732 3.4287 143 216 184
-1.54409 -1.08058 3.45208 151 216 201
-1.47744 -1.08633 3.46465 95 157 151
-0.93967 -1.11098 3.54353 137 232 211
0.938623 -1.206 3.84934 94 161 154
-1.32752 -1.09585 3.49985 106 163 155
-1.31144 -1.09582 3.50153 96 155 147
-1.17389 -1.099 3.51632 161 231 208
0.268839 -1.17188 3.75082 57 133 101
-1.54947 -1.07711 3.45488 82 134 124
-1.52674 -1.0811 3.46328 167 233 214
0.507265 -1.17814 3.7764 117 176 172
0.682405 -1.18576 3.80369 98 157 149
0.956833 -1.20199 3.85288 174 231 222
-1.53135 -1.07765 3.46211 89 161 139
0.231005 -1.1654 3.74319 255 255 255
-1.93806 -1.0608 3.41112 77 153 119
-1.83776 -1.06251 3.41479 132 222 179
-1.31421 -1.08511 3.50166 180 236 225
-0.391866 -1.12744 3.63961 74 139 123
-1.80537 -1.05979 3.42498 93 129 105
-1.11016 -1.0906 3.52044 156 220 208
-1.09409 -1.09102 3.52677 89 154 138
-1.67174 -1.06155 3.44274 65 118 105
-1.85832 -1.04823 3.41317 90 160 130
-1.84829 -1.05119 3.41857 136 204 169
0.55236 -1.16199 3.78648 121 170 168
-1.74688 -1.05427 3.43308 148 222 188
-0.93614 -1.09069 3.55465 172 239 234
-1.25299 -1.07699 3.51525 83 149 148
-1.34575 -1.07001 3.49812 63 134 118
-1.52452 -1.05944 3.47058 84 121 113
0.619209 -1.15989 3.79804 101 168 159
-1.74026 -1.04942 3.43867 81 144 128
-1.15547 -1.07253 3.51565 80 136 125
-0.198537 -1.12114 3.67976 87 152 137
-1.27725 -1.06815 3.50819 181 234 231
1.47489 -1.19979 3.94138 105 172 157
0.233933 -1.13746 3.74388 119 182 173
-1.77812 -1.04115 3.43199 70 109 87
-1.5881 -1.05063 3.46221 89 141 131
0.547092 -1.1502 3.79419 114 173 165
0.812441 -1.16001 3.82943 102 167 158
-1.84416 -1.03764 3.43012 146 225 184
0.729714 -1.1544 3.81754 162 213 193
-0.913607 -1.07104 3.56648 99 148 140
1.47605 -1.18434 3.94261 81 148 133
-1.12469 -1.05435 3.52469 163 229 204
0.57525 -1.13383 3.79294 106 171 169
0.514331 -1.12642 3.77712 92 152 142
-1.35911 -1.04319 3.49981 102 166 161
0.436029 -1.12464 3.77257 105 159 152
0.533049 -1.12841 3.78881 91 149 144
-1.73523 -1.02568 3.45156 80 133 113
-1.52762 -1.03362 3.47121 150 219 206
-1.11728 -1.04867 3.52768 161 227 215
0.299737 -1.11768 3.75992 94 163 166
0.470483 -1.12324 3.78171 193 250 241
0.657429 -1.13314 3.80504 154 213 198
-1.10631 -1.05086 3.53676 139 208 195
-0.994519 -1.05534 3.5535 116 176 168
-0.923657 -1.05677 3.56411 166 227 213
-1.11037 -1.04545 3.53226 53 124 108
-1.80541 -1.01531 3.43551 88 148 114
0.278237 -1.1085 3.75247 80 156 144
-1.3204 -1.0339 3.5052 156 232 214
-1.64176 -1.01963 3.46224 60 119 98
-1.75182 -1.01393 3.44756 83 150 123
-1.66119 -1.01618 3.45063 143 214 187
-0.229211 -1.08156 3.68274 96 162 157
1.25516 -1.14815 3.91203 92 156 144
-0.851194 -1.04999 3.57872 156 223 214
0.812104 -1.12752 3.84197 85 156 140
-0.823731 -1.04826 3.58173 151 231 214
-0.97485 -1.03923 3.55972 167 222 213
-0.747711 -1.05009 3.59578 106 165 161
-1.83528 -1.00209 3.43762 150 224 188
-1.28608 -1.02437 3.51464 171 235 223
1.78522 -1.16748 4.00414 86 165 151
-1.22724 -1.02477 3.52148 65 118 108
-0.902765 -1.03985 3.57308 123 189 177
-0.878349 -1.03916 3.57831 68 149 134
0.426658 -1.09806 3.77994 107 155 149
-1.72443 -1.00183 3.45318 111 171 153
-1.75923 -0.999353 3.4534 98 147 133
-1.37054 -1.01583 3.50958 155 219 213
-1.86784 -0.992819 3.43081 169 243 217
-1.64854 -1.0009 3.46354 152 216 187
-1.32911 -1.01552 3.51853 172 242 229
-1.43436 -1.00819 3.49559 109 169 161
-0.53307 -1.04911 3.63616 82 147 138
-0.0450928 -1.06792 3.70473 79 155 144
2.40924 -1.14909 3.98455 65 137 117
-1.67663 -0.993315 3.45756 62 108 95
-1.28892 -1.01343 3.52408 172 241 226
-0.814388 -1.03246 3.58887 155 227 214
-0.732148 -1.03553 3.59988 112 173 163
0.722862 -1.09648 3.81764 85 150 135
0.740748 -1.0993 3.826 79 132 123
1.27892 -1.12535 3.91582 145 223 186
1.16168 -1.11854 3.90653 163 226 217
-1.28958 -1.00814 3.52391 177 230 233
-1.02174 -1.01888 3.55981 169 229 218
-1.03801 -1.01476 3.55347 107 160 151
-0.807157 -1.02566 3.59092 65 139 127
-0.557335 -1.03664 3.62936 72 130 129
-1.13912 -1.0078 3.53273 154 223 210
-1.10464 -1.00758 3.53919 63 126 110
-0.0555424 -1.05588 3.71086 106 181 167
-1.30464 -0.998564 3.52229 97 146 138
-0.185124 -1.04905 3.69387 55 123 98
-1.68485 -0.979311 3.46145 117 173 162
0.5367 -1.07511 3.7959 94 157 147
1.08165 -1.10082 3.89174 112 173 169
-0.742139 -1.01948 3.6058 169 239 209
0.483621 -1.06814 3.78191 106 159 150
-1.35365 -0.991717 3.51734 73 126 117
-1.17502 -0.996163 3.5335 155 219 207
-1.41245 -0.989133 3.50854 100 157 149
0.902795 -1.08646 3.85885 111 167 154
-1.43152 -0.985766 3.5072 98 155 146
-1.15444 -0.994416 3.53523 64 127 95
0.327045 -1.05868 3.76752 156 227 217
-1.89648 -0.965747 3.44004 105 165 147
-0.981959 -1.00016 3.56741 68 140 128
0.381387 -1.06004 3.77806 175 238 228
1.30927 -1.09679 3.91001 100 157 136
-1.13339 -0.989806 3.53274 167 241 215
-0.140311 -1.03651 3.70016 96 187 164
1.32965 -1.08985 3.90021 65 111 98
-1.04895 -0.991292 3.55167 88 145 136
0.384271 -1.05484 3.77864 98 163 154
-1.97886 -0.956654 3.4289 77 139 121
-1.00917 -0.993656 3.56799 74 135 125
-1.46651 -0.975655 3.50696 95 162 155
-1.02548 -0.991373 3.56396 82 151 141
0.816243 -1.06982 3.84917 164 227 211
2.30575 -1.11259 3.99921 73 112 97
-0.770058 -0.999215 3.60073 83 162 148
-0.982476 -0.988567 3.57841 84 156 144
-0.290235 -1.01775 3.68581 165 228 218
-1.38809 -0.969192 3.51584 163 237 219
-1.37085 -0.967536 3.51515 155 239 214
-1.20208 -0.973921 3.53755 106 172 161
-0.532695 -1.00004 3.6461 83 158 144
0.892099 -1.05977 3.86053 139 179 174
-1.84789 -0.947316 3.45202 69 137 114
-1.16668 -0.97033 3.53881 158 218 194
0.512771 -1.04001 3.79291 100 167 152
-0.185656 -1.01179 3.69888 65 155 132
-0.228622 -1.00843 3.69793 67 125 114
0.17513 -1.02573 3.75377 109 166 163
0.533058 -1.03821 3.79978 118 182 170
-1.33574 -0.959305 3.51693 162 235 213
-1.15244 -0.966296 3.54661 82 141 120
0.0842681 -1.01803 3.73771 81 151 138
0.409749 -1.03215 3.78586 106 164 153
1.68246 -1.0885 4.00356 97 173 161
1.98206 -1.0992 4.04007 84 174 144
-1.86683 -0.939351 3.45499 64 147 122
-1.13022 -0.962286 3.54362 90 148 120
-1.28673 -0.958361 3.5399 126 179 170
-1.18702 -0.959935 3.53593 60 111 103
-1.16084 -0.959602 3.5377 172 242 212
-1.29461 -0.957087 3.5351 173 236 216
-0.615393 -0.984511 3.63372 67 130 120
1.67507 -1.08132 3.99638 181 243 229
-1.07927 -0.960128 3.55822 101 156 141
0.847674 -1.038 3.84739 169 231 219
-1.06381 -0.956097 3.5612 77 114 98
-1.5678 -0.936337 3.49141 91 152 132
0.452755 -1.01864 3.79876 160 231 204
-1.21518 -0.947353 3.54024 147 215 198
0.779826 -1.02527 3.83267 170 226 215
-0.214358 -0.989851 3.69959 67 128 114
-0.237142 -0.986504 3.69728 81 136 127
-1.47951 -0.93434 3.50819 78 137 123
-0.765075 -0.960017 3.60844 77 149 129
0.747088 -1.02022 3.8275 144 207 187
-1.97277 -0.91556 3.442 73 148 132
-1.83125 -0.920411 3.45798 93 158 142
0.107977 -0.993989 3.7424 160 231 214
0.790972 -1.01784 3.83753 109 177 166
0.8673 -1.02157 3.84985 146 191 182
1.45933 -1.04868 3.95911 56 114 96
-1.73406 -0.919667 3.47296 92 162 145
0.772395 -1.01416 3.83508 63 103 92
2.23946 -1.06435 4.02983 153 219 168
-0.273306 -0.973834 3.69172 94 150 151
-1.13311 -0.936224 3.55336 148 227 206
-1.1165 -0.935223 3.55566 89 150 136
0.513795 -1.00142 3.80943 72 110 92
-1.57648 -0.916704 3.49532 167 239 196
-1.56334 -0.915987 3.49241 61 100 78
-1.45433 -0.922952 3.51664 95 161 149
-1.33707 -0.927311 3.53293 83 145 129
-1.28406 -0.928763 3.53968 145 209 197
-0.668365 -0.951216 3.63128 65 147 128
0.974286 -1.01642 3.88323 88 156 145
-1.56592 -0.911296 3.49252 136 199 157
-1.3993 -0.920952 3.52227 92 156 144
0.304721 -0.987053 3.78011 78 152 148
-1.56162 -0.91232 3.49712 104 156 119
-1.53936 -0.914469 3.50551 151 200 180
-1.49526 -0.916313 3.51653 80 145 130
-1.39223 -0.918959 3.5263 80 147 132
-1.0639 -0.929523 3.56533 80 139 131
-0.722395 -0.944472 3.62245 95 180 158
-1.15977 -0.923909 3.54893 109 165 154
-1.55212 -0.907579 3.49755 108 194 152
-1.14309 -0.924234 3.55597 80 151 131
-0.0660185 -0.966962 3.72258 81 154 138
-1.43557 -0.914116 3.52221 91 163 150
0.787462 -0.994465 3.8373 66 108 90
-1.14812 -0.918377 3.55313 148 228 205
-1.43528 -0.909313 3.52501 153 226 210
-0.952946 -0.923628 3.58258 88 140 117
0.805832 -0.991569 3.843 80 130 118
-1.69533 -0.897119 3.48418 83 137 120
-1.57948 -0.900173 3.4947 153 218 173
-1.74549 -0.89308 3.47846 145 201 180
-1.57492 -0.896456 3.4965 62 116 87
-1.35649 -0.906687 3.53166 58 123 98
-0.406896 -0.945228 3.676 99 171 159
0.0242047 -0.957149 3.7354 103 166 157
-1.70261 -0.892355 3.4865 59 121 105
-1.36538 -0.903024 3.53143 58 127 100
-0.776465 -0.925168 3.61895 152 225 203
0.892844 -0.990652 3.87113 151 210 195
-1.59711 -0.890306 3.48806 154 203 171
-0.22804 -0.946648 3.7055 87 154 151
0.779999 -0.981611 3.84255 146 185 164
-1.48982 -0.896368 3.51601 63 140 119
-1.45593 -0.896975 3.52328 86 158 145
0.25299 -0.961459 3.7772 96 163 158
0.299047 -0.961344 3.7812 170 230 224
-0.686384 -0.920077 3.63256 79 177 147
-0.550348 -0.926504 3.65448 96 159 150
0.78643 -0.973328 3.84548 140 176 159
-2.02585 -0.870329 3.44416 91 158 143
-1.48362 -0.889973 3.51905 164 229 208
-0.806435 -0.913789 3.61436 81 160 146
-1.77371 -0.877181 3.47353 152 235 190
-1.74223 -0.88027 3.48391 79 131 113
-1.52289 -0.887949 3.51217 149 228 195
-1.40209 -0.891521 3.53167 73 143 126
-0.249805 -0.933458 3.69895 78 145 136
-1.55244 -0.883144 3.50443 51 123 87
-1.2545 -0.891778 3.54526 169 233 221
-0.0827722 -0.937641 3.72489 63 144 111
0.829713 -0.970298 3.85405 116 176 165
-1.88475 -0.872727 3.46873 77 147 117
-0.254001 -0.930349 3.70215 158 238 225
1.98091 -1.01693 4.05732 106 181 159
-1.5098 -0.879388 3.51187 73 142 121
-1.93745 -0.865707 3.4652 67 127 109
-1.19944 -0.889791 3.55827 74 144 131
-0.0971567 -0.930446 3.72113 58 145 111
0.158387 -0.93947 3.76146 97 160 150
0.847122 -0.963322 3.85493 82 146 134
0.0675518 -0.934442 3.74804 162 222 211
-1.83553 -0.864424 3.4659 91 171 140
-1.52182 -0.876446 3.51424 107 174 147
-1.47826 -0.879176 3.52751 94 147 134
0.188976 -0.936793 3.77127 175 239 234
0.287596 -0.941192 3.77815 99 149 145
0.794199 -0.956459 3.85197 134 192 174
-1.50836 -0.873036 3.51484 153 227 209
-1.43921 -0.875203 3.52884 161 225 206
-1.37162 -0.879051 3.53892 83 152 132
0.239181 -0.937758 3.77413 172 230 225
-1.63733 -0.86697 3.4969 150 220 183
-1.30266 -0.878221 3.54142 160 235 214
0.141899 -0.93324 3.75968 115 178 168
-1.84693 -0.857408 3.46432 154 232 201
-1.56189 -0.867316 3.50961 153 240 196
-1.55278 -0.866127 3.50798 147 225 178
-0.0691622 -0.919583 3.72462 73 150 116
-1.82964 -0.85704 3.47113 57 127 97
-1.79026 -0.857508 3.48176 66 133 104
-1.75993 -0.859084 3.48598 57 123 111
-1.47088 -0.867943 3.52327 171 233 219
0.042494 -0.923549 3.75029 168 230 218
2.14004 -0.989379 4.01297 160 184 152
-0.593157 -0.89765 3.65089 94 148 141
2.01247 -0.996189 4.05676 175 235 211
-1.55711 -0.858418 3.50213 63 125 89
1.49076 -0.974439 3.98204 115 184 173
-1.41889 -0.86336 3.52922 165 227 213
-1.41188 -0.864963 3.53702 150 210 200
0.0748606 -0.917355 3.75167 76 145 132
-1.52492 -0.85962 3.52132 48 92 69
-0.358385 -0.899515 3.69053 88 161 145
0.279385 -0.921867 3.77903 115 180 171
1.90445 -0.987667 4.05438 90 190 172
-1.98521 -0.842425 3.45975 77 149 119
1.96823 -0.987331 4.05611 154 221 190
-1.95356 -0.840268 3.45859 74 136 112
-1.91836 -0.841047 3.45795 151 217 182
-1.08514 -0.869801 3.57315 68 114 91
-1.06219 -0.868347 3.57484 40 83 62
-1.83166 -0.843606 3.47239 83 141 117
-1.77819 -0.845063 3.48384 75 133 109
-1.45583 -0.855695 3.52768 159 223 211
-0.215527 -0.899559 3.71205 50 120 103
2.46563 -0.970628 4.00741 104 154 142
-1.64285 -0.846039 3.49541 145 207 177
-1.02434 -0.866654 3.58838 70 126 113
-1.91988 -0.837574 3.46824 68 125 92
-1.82106 -0.839647 3.47938 68 147 104
-1.44496 -0.854359 3.5351 84 154 137
1.95636 -0.980461 4.06101 130 175 149
-0.154975 -0.89717 3.71993 158 227 212
-1.73685 -0.838873 3.49158 143 220 199
-1.64377 -0.839993 3.49954 60 110 86
0.381233 -0.912196 3.79676 92 159 152
0.518186 -0.916137 3.80631 167 241 215
-1.59511 -0.84204 3.51527 61 111 99
-1.53821 -0.841816 3.5217 141 218 190
-1.07257 -0.857249 3.57773 162 247 203
-1.22304 -0.850148 3.56339 102 167 151
2.15499 -0.955242 4.00906 135 157 132
-1.60386 -0.835518 3.51559 51 81 68
-1.59651 -0.835307 3.51318 154 218 196
-1.06109 -0.850862 3.58667 143 215 169
0.456452 -0.904456 3.81014 59 118 103
-1.32102 -0.841374 3.55036 99 171 149
-0.31126 -0.878179 3.70948 85 153 142
-1.45798 -0.835559 3.5328 53 114 100
-1.43505 -0.835735 3.53231 62 116 103
-1.42526 -0.837843 3.54056 82 143 129
-2.07455 -0.813553 3.45225 92 169 161
-2.0217 -0.81518 3.46306 93 159 134
-1.44734 -0.833992 3.53761 72 138 126
-0.0691321 -0.880274 3.73755 99 165 154
-1.43245 -0.831704 3.53864 46 106 88
-1.07274 -0.843202 3.58691 60 134 106
-1.46431 -0.828223 3.53078 158 228 205
-0.576203 -0.857569 3.6593 95 166 156
-2.08493 -0.807324 3.45342 88 148 142
-1.67928 -0.819766 3.49933 136 213 179
-0.255293 -0.869414 3.71437 54 115 105
0.765693 -0.897741 3.84937 94 156 132
-0.563644 -0.852042 3.66107 154 223 210
-0.399797 -0.859115 3.69292 124 208 190
0.34427 -0.886043 3.79855 91 144 135
-1.79681 -0.811304 3.48721 63 112 92
-1.39642 -0.824655 3.54725 87 140 126
-0.403696 -0.8579 3.69244 67 153 135
-1.22029 -0.828583 3.56845 200 245 236
-1.71666 -0.809784 3.49602 81 138 113
-1.1956 -0.82607 3.57502 97 157 146
-0.899564 -0.837259 3.61946 74 140 128
-0.71296 -0.843982 3.64006 62 140 123
-2.08656 -0.797991 3.45432 92 150 139
-1.85746 -0.803847 3.47838 77 151 125
-1.77306 -0.807509 3.49351 94 149 134
-1.50684 -0.81571 3.53001 107 167 143
0.0686109 -0.867049 3.76466 153 217 205
0.930852 -0.896245 3.88934 105 174 163
-2.01246 -0.797271 3.46932 74 139 117
-1.83699 -0.800954 3.48402 148 223 185
0.491161 -0.878106 3.82113 66 129 113
-1.65205 -0.806571 3.51386 124 204 175
-1.22059 -0.818016 3.56416 153 214 200
0.533689 -0.873637 3.824 171 233 217
-1.03345 -0.821255 3.60002 164 225 205
-0.361674 -0.844621 3.6967 160 229 214
-2.0697 -0.789955 3.46184 64 111 108
-1.12804 -0.815532 3.57657 174 231 223
-0.934447 -0.823581 3.61215 55 124 113
0.397046 -0.868445 3.81025 104 169 153
0.47285 -0.870897 3.81628 128 169 161
0.824969 -0.884038 3.87393 91 165 153
-1.61445 -0.799679 3.51449 139 220 187
0.526643 -0.869479 3.82604 119 175 164
0.545496 -0.868511 3.81643 81 121 110
-2.12395 -0.784877 3.45594 92 157 155
-1.74968 -0.79419 3.49329 151 212 192
-1.16901 -0.811872 3.57254 158 215 206
0.0158493 -0.852917 3.75331 106 166 156
-0.515224 -0.834191 3.67888 77 157 140
0.58758 -0.865897 3.82417 170 231 205
1.24339 -0.893906 3.94574 110 165 162
1.3097 -0.897019 3.95657 93 132 124
-1.87561 -0.788044 3.48349 77 150 128
-1.58946 -0.795709 3.5202 105 167 155
-1.31665 -0.805209 3.56687 88 151 135
-1.61992 -0.795574 3.52822 69 115 96
0.338511 -0.856597 3.80529 112 185 177
0.955916 -0.878501 3.89397 97 164 155
-1.98128 -0.783122 3.4755 63 134 108
-1.69177 -0.788593 3.50489 82 124 99
0.0476003 -0.846477 3.7626 94 150 137
0.432396 -0.856922 3.81255 77 143 131
-0.329604 -0.831604 3.70807 101 169 158
0.450754 -0.857294 3.81632 175 237 221
0.544899 -0.857068 3.81773 53 95 78
1.2905 -0.888729 3.95957 147 232 217
1.32986 -0.890623 3.96813 101 156 153
-1.88526 -0.779591 3.48399 145 217 187
-1.69233 -0.785772 3.50881 73 128 109
0.419709 -0.854311 3.81512 151 213 199
0.733166 -0.860819 3.8555 85 154 141
-1.96472 -0.776815 3.47927 70 140 123
0.24073 -0.845162 3.79111 69 139 126
-1.81379 -0.777964 3.49367 184 231 215
-1.69852 -0.780501 3.50713 84 152 129
-1.39559 -0.78888 3.5445 94 151 143
0.410765 -0.848098 3.82008 166 228 210
-1.30544 -0.791119 3.56545 77 132 113
-1.83092 -0.771511 3.48711 77 127 103
-1.54997 -0.780764 3.53232 104 156 139
0.982937 -0.863791 3.90258 126 184 166
1.05843 -0.866532 3.92529 86 160 142
-1.54525 -0.780302 3.53642 108 155 146
-1.22809 -0.788883 3.57464 68 136 113
-1.2183 -0.788721 3.57625 109 173 161
-1.0176 -0.795956 3.60835 73 140 131
-1.81769 -0.770765 3.49712 127 200 168
-0.64896 -0.804772 3.6547 144 232 208
0.444226 -0.842498 3.82329 172 235 219
0.636525 -0.845362 3.83758 159 242 203
-0.728655 -0.799248 3.6462 168 234 222
-1.4508 -0.777496 3.54515 68 128 104
-0.835642 -0.794759 3.63071 71 144 122
-1.65229 -0.769464 3.51864 71 113 90
-0.24634 -0.8152 3.72658 82 141 133
-1.7513 -0.764836 3.50317 83 131 119
-1.02778 -0.786854 3.60538 87 163 145
1.34557 -0.866816 3.97549 93 161 150
-1.24875 -0.778511 3.57713 90 152 134
-0.498038 -0.800102 3.6777 74 138 169
-0.98996 -0.781699 3.60961 65 127 113
-1.76671 -0.758092 3.50395 69 130 110
-1.56639 -0.764842 3.54032 112 160 148
0.566603 -0.826377 3.82846 76 141 126
-1.28722 -0.771011 3.57335 76 125 117
-1.06067 -0.778178 3.60236 61 121 103
-0.958425 -0.779576 3.61894 87 146 138
-0.386522 -0.798815 3.70206 75 142 135
0.226154 -0.817807 3.79405 164 238 220
0.949956 -0.839259 3.90019 95 157 143
-1.6592 -0.755163 3.51371 152 237 209
-1.20345 -0.770421 3.58379 161 228 213
-0.0716641 -0.805126 3.74768 78 143 134
0.688015 -0.825182 3.86118 75 140 124
-1.33033 -0.762789 3.56761 168 233 211
-1.43452 -0.756705 3.55299 74 132 121
-0.11464 -0.79742 3.7428 194 242 236
1.03057 -0.836566 3.92193 93 162 147
-2.10505 -0.738556 3.47039 84 136 143
-1.72542 -0.74633 3.50929 179 231 214
-0.0955128 -0.797102 3.75138 175 235 224
-0.0728124 -0.795298 3.74446 100 161 151
0.552308 -0.814803 3.83128 81 140 132
-1.75444 -0.740172 3.49513 50 93 60
-0.792965 -0.772443 3.64403 79 165 147
0.238288 -0.806118 3.79662 100 175 159
-1.17307 -0.759195 3.58733 133 215 193
0.284676 -0.80427 3.80692 71 149 138
0.789615 -0.819441 3.88034 98 167 156
-1.58036 -0.748107 3.54055 101 145 132
-0.363262 -0.78473 3.71362 176 233 224
-0.878931 -0.764646 3.63138 92 150 139
-0.497872 -0.778762 3.69097 63 131 114
-1.73014 -0.738291 3.50933 161 225 196
-1.25972 -0.753239 3.57901 81 135 122
-0.0542993 -0.78826 3.7555 94 169 155
0.575134 -0.80472 3.83669 96 160 141
-1.56341 -0.74027 3.53558 62 98 86
-1.05667 -0.755502 3.60869 75 130 115
-0.521019 -0.770646 3.68371 79 159 130
-1.41198 -0.74372 3.55966 105 168 158
-1.31321 -0.747102 3.57483 90 149 128
-1.0783 -0.753527 3.60732 142 220 209
-2.1282 -0.72314 3.47388 95 144 146
-1.57959 -0.736904 3.54323 54 104 86
-1.17897 -0.746915 3.58899 61 115 92
0.404755 -0.797226 3.82741 72 141 128
-1.92931 -0.72626 3.49395 88 161 135
-1.72209 -0.730754 3.51397 79 110 103
-1.47362 -0.736193 3.55196 62 118 89
-1.26482 -0.744148 3.58269 51 109 91
-1.52118 -0.73334 3.5459 64 120 107
-1.05492 -0.74858 3.61116 143 211 194
-0.721232 -0.757564 3.6545 151 226 205
-1.43369 -0.73704 3.56345 156 212 199
-1.19122 -0.74126 3.58707 98 164 139
-1.07535 -0.74528 3.60668 63 120 105
-0.88898 -0.749886 3.63261 125 175 173
-0.717277 -0.753853 3.65743 59 136 108
-0.242829 -0.770764 3.73692 200 247 239
-1.55213 -0.727537 3.54262 181 221 209
-0.951395 -0.745148 3.62268 87 135 123
0.535179 -0.790372 3.8409 115 166 159
-1.20238 -0.735163 3.58638 118 189 139
-1.19117 -0.736656 3.59089 169 225 204
2.13221 -0.839554 4.09361 83 151 126
-1.58444 -0.724782 3.5371 55 107 84
-1.42713 -0.728894 3.56353 144 222 199
-0.512903 -0.756419 3.69146 60 140 123
-1.56215 -0.723286 3.54254 68 112 95
-0.846926 -0.74312 3.64624 84 143 129
-0.366672 -0.757128 3.71305 125 180 165
-1.24494 -0.730054 3.58596 41 95 66
0.747081 -0.78998 3.87808 172 240 229
-1.0249 -0.734097 3.61753 94 153 139
-0.93676 -0.738422 3.63109 103 159 154
-0.60965 -0.746462 3.68095 85 167 155
-0.372734 -0.754873 3.71521 52 112 78
-1.72616 -0.71291 3.51441 64 117 108
-1.40195 -0.722022 3.56217 174 248 218
-1.36433 -0.723865 3.57343 90 157 142
-0.128655 -0.760715 3.74886 111 171 165
0.422837 -0.776363 3.83221 102 163 153
-1.32103 -0.724125 3.57499 58 114 101
-1.75578 -0.707725 3.51152 120 165 149
-1.5223 -0.714849 3.55019 77 132 115
-0.480799 -0.74318 3.69702 51 119 94
-1.83875 -0.704196 3.50532 65 130 104
-1.45393 -0.715418 3.56266 154 221 200
-1.08338 -0.724859 3.60888 156 218 204
-1.04651 -0.724875 3.61861 79 142 132
-0.373829 -0.743652 3.71175 149 233 199
-1.69996 -0.703099 3.52123 72 123 109
-1.66615 -0.703444 3.53034 184 237 228
-1.62108 -0.702847 3.52917 57 99 74
-1.26485 -0.71434 3.58676 85 146 112
-1.24014 -0.716179 3.5914 72 139 108
-0.395196 -0.740506 3.71611 101 171 158
-1.85947 -0.697577 3.5063 166 235 202
-0.829633 -0.723574 3.6444 79 145 134
-1.55825 -0.701491 3.55095 159 225 206
-1.23293 -0.711589 3.59701 51 112 84
-0.996502 -0.716811 3.62748 168 233 217
-0.728572 -0.72169 3.66048 98 156 151
-1.47775 -0.7015 3.56143 93 143 125
-1.3536 -0.703462 3.57437 170 244 202
-0.971224 -0.712252 3.63037 111 171 160
-0.948147 -0.711282 3.63424 105 172 157
-0.796178 -0.714317 3.65134 59 115 94
1.09162 -0.77151 3.94706 94 164 147
-1.81428 -0.687046 3.51566 148 215 184
-1.76861 -0.685969 3.51484 54 117 97
-1.52265 -0.69257 3.55838 79 115 98
-1.25812 -0.698315 3.59075 156 235 186
-0.826953 -0.711019 3.64873 98 158 147
1.73519 -0.786395 4.04223 79 158 137
-1.33364 -0.695068 3.58437 148 220 190
-0.505985 -0.715689 3.70198 48 127 114
0.429157 -0.742624 3.84496 99 154 145
0.609182 -0.747233 3.86087 119 150 151
1.22411 -0.76718 3.97061 105 177 165
-0.335427 -0.719327 3.73146 164 236 216
0.61529 -0.745835 3.86635 185 217 222
-1.82339 -0.675545 3.51178 146 226 183
-1.16754 -0.692458 3.60473 92 155 139
-1.06249 -0.695204 3.62291 85 151 139
1.7715 -0.773905 4.05005 111 163 146
-1.42147 -0.681699 3.57184 182 238 217
-0.414641 -0.709731 3.72004 80 151 135
0.592118 -0.736439 3.86184 113 182 169
0.854868 -0.744313 3.89908 111 172 162
-1.91449 -0.667509 3.51242 163 237 209
0.491996 -0.731645 3.84399 154 211 190
0.969626 -0.746902 3.92587 89 169 156
-1.02785 -0.68892 3.62766 170 228 217
0.616596 -0.731335 3.8635 150 199 191
-1.95726 -0.66372 3.50872 78 144 133
-1.43545 -0.674494 3.57036 95 161 142
0.515577 -0.7284 3.85171 84 140 105
-1.96041 -0.661004 3.50646 176 237 223
-0.860574 -0.687034 3.65104 87 149 135
0.610425 -0.725899 3.85762 80 133 123
1.72116 -0.761285 4.04524 99 178 145
-1.16588 -0.677059 3.60528 154 218 196
-1.5485 -0.66609 3.55509 104 159 144
-1.62078 -0.661113 3.54998 155 215 209
-0.773435 -0.681252 3.66183 87 147 123
-1.22355 -0.670804 3.60383 104 157 137
-0.949168 -0.677113 3.64065 77 153 129
-0.264754 -0.697055 3.74586 111 163 163
-1.2983 -0.666157 3.59337 34 95 69
-1.91148 -0.650882 3.51459 70 135 113
-1.81351 -0.650552 3.51685 61 120 105
-1.21898 -0.665385 3.60025 159 217 193
-1.17127 -0.665258 3.60903 165 247 204
-0.239246 -0.689402 3.74521 80 138 137
-1.67919 -0.65013 3.53637 70 99 74
-0.983253 -0.668962 3.63759 169 231 215
-0.525054 -0.680997 3.70422 85 162 141
0.476914 -0.704098 3.84751 103 176 150
0.484736 -0.705289 3.84885 87 167 138
0.67104 -0.712538 3.88307 74 151 137
-1.88731 -0.642015 3.51129 156 221 200
-1.57963 -0.651367 3.55899 77 122 113
-1.05485 -0.664368 3.62778 90 155 140
-0.683562 -0.67281 3.68726 93 172 158
0.27658 -0.698844 3.82145 84 147 138
0.52031 -0.704493 3.85098 98 169 143
-2.01621 -0.639989 3.51033 80 155 139
-1.87517 -0.642249 3.52035 92 148 129
-1.62323 -0.647948 3.55191 159 214 199
-0.952517 -0.661816 3.63737 80 158 141
-0.753648 -0.668572 3.67122 155 227 207
-1.0605 -0.658621 3.63046 169 234 218
-1.40481 -0.649229 3.58557 100 147 138
-1.33374 -0.651137 3.59387 50 100 70
-0.597324 -0.668408 3.69693 73 157 145
-0.24427 -0.678812 3.75001 93 153 143
0.604439 -0.699488 3.8678 95 157 141
-1.44231 -0.643071 3.57931 61 134 118
0.943131 -0.707752 3.92984 107 179 167
-1.40595 -0.643123 3.58358 144 212 195
-0.774243 -0.659295 3.66616 101 172 152
-0.584447 -0.663776 3.70166 89 166 145
0.587723 -0.691251 3.86587 92 153 139
-1.56286 -0.637447 3.5655 151 204 184
-0.302834 -0.667376 3.7445 84 154 148
-1.5346 -0.633499 3.57198 85 135 125
-1.39234 -0.637255 3.59027 166 234 217
-0.334958 -0.664393 3.74167 74 142 131
-1.51363 -0.632905 3.57362 99 167 142
-1.50293 -0.630417 3.57015 73 109 93
0.26946 -0.677543 3.82722 169 231 225
0.721391 -0.689319 3.89307 92 136 137
-1.66191 -0.627351 3.54933 145 209 180
-1.59387 -0.627659 3.56428 58 84 71
-1.91096 -0.618847 3.51922 145 218 180
-0.92013 -0.641107 3.64636 68 137 104
0.667099 -0.683818 3.8844 196 234 239
-1.82274 -0.619012 3.52776 82 147 121
-1.13284 -0.636694 3.6276 96 160 148
-1.854 -0.617345 3.52631 77 136 108
-1.57025 -0.624985 3.56726 53 92 70
0.64768 -0.677348 3.88205 181 223 216
-1.83791 -0.6161 3.53091 163 236 210
0.37626 -0.671264 3.84038 81 150 123
1.00502 -0.685905 3.94214 112 177 162
-1.56654 -0.618225 3.57275 69 132 112
0.661976 -0.673055 3.87901 159 210 206
-1.65836 -0.61572 3.5561 135 200 174
-1.5707 -0.618322 3.56923 130 178 154
-1.17733 -0.626143 3.61875 82 147 126
-1.14901 -0.628054 3.62341 157 224 203
0.246753 -0.662144 3.82403 160 237 210
0.635823 -0.668791 3.87091 92 149 140
0.652156 -0.67035 3.87562 72 121 113
0.676844 -0.670822 3.88648 112 151 159
-1.97132 -0.607257 3.51916 128 197 170
-1.85895 -0.606363 3.52871 76 128 105
-1.58264 -0.612702 3.56675 57 87 62
-1.04633 -0.626013 3.63982 90 149 134
0.246978 -0.65715 3.82658 79 144 128
-1.75352 -0.607519 3.53487 79 111 94
-1.5079 -0.613502 3.58031 51 100 78
-1.12677 -0.621718 3.62642 87 151 132
0.41099 -0.660604 3.85162 75 140 118
-1.67532 -0.606482 3.5538 71 135 106
-1.56957 -0.610738 3.5725 76 131 116
0.657132 -0.663775 3.87971 170 230 219
0.784974 -0.665677 3.90648 99 167 160
-2.06616 -0.598109 3.51314 159 230 214
-1.81666 -0.601268 3.53525 162 214 184
-1.84238 -0.599519 3.53133 149 197 179
-1.78868 -0.600411 3.53765 93 142 114
-1.52198 -0.606505 3.5767 89 158 137
-1.15606 -0.614818 3.62296 83 126 117
1.06933 -0.671803 3.95774 92 164 152
-1.99923 -0.595236 3.52105 161 237 213
-1.82174 -0.597085 3.53305 136 202 161
-1.9419 -0.596166 3.52823 145 206 186
-1.07632 -0.612654 3.63694 150 215 190
0.64215 -0.653286 3.87496 162 212 202
-1.76313 -0.595727 3.5409 73 125 101
-2.06797 -0.587719 3.51386 165 245 214
-1.87163 -0.589356 3.52649 138 222 174
-1.79424 -0.591563 3.53782 89 159 122
-1.42994 -0.602026 3.59377 113 173 155
-1.17308 -0.606411 3.61777 137 209 179
-1.01776 -0.611543 3.64866 84 152 129
-1.94606 -0.587378 3.52645 165 234 207
-1.51259 -0.596284 3.57895 50 86 62
-1.58558 -0.593219 3.57206 188 241 227
0.458598 -0.639422 3.85622 78 117 95
0.753856 -0.646581 3.89758 174 225 217
-1.95462 -0.585026 3.52403 172 246 212
-1.79202 -0.586928 3.54195 143 223 186
-1.27654 -0.59746 3.61383 91 160 117
-1.24613 -0.598976 3.61611 82 136 99
-1.23729 -0.599648 3.61652 70 144 108
-1.12476 -0.601909 3.63167 46 84 62
-1.11397 -0.600263 3.63423 137 216 195
0.584804 -0.637504 3.86143 158 224 199
-1.80587 -0.583165 3.54321 123 183 152
-1.75154 -0.583332 3.5445 153 236 197
-1.50886 -0.590229 3.58694 79 147 136
-0.479807 -0.612015 3.72339 91 175 157
-0.4321 -0.613605 3.74098 90 153 144
0.361212 -0.633565 3.84549 82 145 129
-1.9579 -0.579852 3.53045 76 151 129
-1.72434 -0.583357 3.55096 142 224 202
-1.94332 -0.578613 3.53481 83 152 137
-1.7878 -0.580148 3.54452 64 137 111
-1.25448 -0.590759 3.60816 70 148 111
1.03441 -0.645555 3.95064 100 169 158
-0.261699 -0.612329 3.75573 96 169 161
0.606085 -0.630388 3.86516 145 188 173
-1.81183 -0.575443 3.54065 118 159 128
-1.32863 -0.586438 3.60656 96 144 108
-1.06685 -0.592798 3.64418 82 142 124
-0.48964 -0.606042 3.72882 50 121 104
1.04721 -0.641082 3.9514 82 149 134
-1.55829 -0.581315 3.58222 72 131 116
0.681482 -0.62919 3.89574 96 151 142
1.10548 -0.642551 3.96987 80 146 134
-1.68443 -0.57531 3.56313 152 210 185
-0.976085 -0.589775 3.65334 73 141 116
-1.80173 -0.571125 3.54285 60 122 86
-1.28038 -0.583517 3.6128 79 145 110
-0.935759 -0.590159 3.66114 160 229 202
0.60888 -0.622797 3.86422 75 109 99
1.08573 -0.638471 3.96411 61 129 118
-1.53621 -0.574568 3.58369 88 165 144
-1.37881 -0.579097 3.60438 147 214 185
0.709903 -0.625482 3.88958 98 154 143
1.07319 -0.636358 3.96455 92 152 141
-1.79874 -0.568398 3.5452 144 219 175
-1.78445 -0.567827 3.54647 67 120 93
-0.913651 -0.585833 3.66277 84 155 139
-0.446546 -0.597344 3.73229 84 139 136
-0.255842 -0.603075 3.76125 154 210 199
-0.938463 -0.584098 3.66476 65 136 116
-0.404457 -0.598299 3.74193 169 227 222
-0.302464 -0.600612 3.76563 106 175 164
-1.56123 -0.570632 3.58353 149 221 191
0.775112 -0.622042 3.90637 71 123 116
-1.81122 -0.562503 3.54171 74 141 114
-1.76725 -0.561284 3.54652 159 245 203
-1.63024 -0.565047 3.57074 87 140 113
-1.25044 -0.575374 3.62208 95 168 142
-1.19486 -0.573662 3.62011 35 113 60
0.090644 -0.604076 3.81077 89 174 160
-1.32077 -0.571705 3.61602 156 221 200
-1.3038 -0.57171 3.61582 78 134 113
-2.11703 -0.553714 3.51823 73 146 136
-0.778837 -0.578328 3.68419 78 141 131
-0.337643 -0.589734 3.75606 99 154 151
-2.14633 -0.550743 3.51794 84 153 140
-1.11414 -0.571078 3.63645 152 206 177
-0.810744 -0.575248 3.67971 169 232 222
0.289597 -0.600565 3.83777 55 123 100
-0.806135 -0.574976 3.6843 75 135 124
-1.78131 -0.553811 3.5455 59 129 88
-1.42583 -0.560981 3.6049 75 148 122
-0.907435 -0.571178 3.67145 66 128 110
-1.07336 -0.565591 3.65067 81 123 98
1.17999 -0.614138 3.9799 86 155 144
-1.56025 -0.552498 3.58603 83 149 120
-1.47147 -0.555558 3.60108 95 152 137
-1.12451 -0.561608 3.64172 125 193 176
-1.12087 -0.559211 3.64851 167 232 216
-0.0101344 -0.583879 3.79829 83 160 146
0.327944 -0.592382 3.84666 97 160 144
1.03394 -0.609478 3.95963 126 197 187
1.34625 -0.617131 4.01646 161 238 224
-1.54867 -0.550979 3.59311 69 141 118
-1.93913 -0.540165 3.53985 42 117 103
0.208895 -0.584207 3.83455 162 228 216
0.385713 -0.589011 3.86066 158 235 198
-1.64559 -0.54216 3.57358 84 147 127
-1.37799 -0.547686 3.60451 51 100 72
-1.13335 -0.553888 3.63952 127 160 146
-0.497901 -0.566271 3.73275 91 159 148
0.188096 -0.582401 3.8276 104 182 165
-1.38955 -0.545688 3.60921 67 151 116
-1.25991 -0.550447 3.62797 154 223 203
0.257027 -0.580608 3.83629 52 130 107
0.284812 -0.583322 3.842 155 241 199
-1.87654 -0.535224 3.53796 58 116 87
-1.87292 -0.53544 3.53963 64 122 93
-1.32993 -0.54797 3.62129 72 135 109
-1.06507 -0.551854 3.65242 160 210 178
-1.06093 -0.552339 3.65876 96 143 117
0.455584 -0.58286 3.86331 98 164 145
0.729363 -0.589676 3.90187 76 124 118
-0.0338358 -0.572118 3.80555 90 156 145
1.29481 -0.602824 4.00599 98 165 158
-1.03494 -0.548952 3.65879 56 102 90
-0.99321 -0.550814 3.6604 60 118 100
-0.974907 -0.54997 3.66256 67 120 100
-0.009557 -0.570364 3.79897 49 99 87
-1.68811 -0.534092 3.56819 64 95 86
-1.02573 -0.548691 3.66182 148 213 197
-0.983024 -0.548198 3.66145 72 135 115
-0.0958783 -0.567436 3.78828 106 174 163
-0.0206879 -0.569572 3.79441 72 139 112
0.388711 -0.578211 3.86128 95 154 133
-1.83016 -0.529859 3.55017 154 248 207
-1.62799 -0.534072 3.58114 62 129 114
-0.763372 -0.550722 3.69381 74 126 116
-1.92934 -0.526762 3.54367 62 124 102
-1.58345 -0.534296 3.59015 85 144 130
-0.330213 -0.55722 3.75922 94 152 141
0.372755 -0.573019 3.85539 70 123 96
0.431879 -0.573819 3.87183 88 144 133
-1.75284 -0.52645 3.55308 68 143 111
-1.16826 -0.536368 3.62519 135 218 173
-0.925166 -0.543684 3.67277 93 155 139
-0.689806 -0.549555 3.70592 80 140 130
-1.27781 -0.53672 3.63117 87 143 130
0.0045608 -0.561227 3.80674 89 145 134
0.260268 -0.566533 3.83522 84 148 126
-1.58445 -0.528181 3.59145 152 217 196
-1.0623 -0.536503 3.64809 165 242 205
-0.557928 -0.547925 3.72537 103 159 154
-0.833314 -0.539999 3.68594 79 142 126
-0.721245 -0.543344 3.70096 92 143 136
-1.71015 -0.522158 3.56814 70 134 104
-1.7136 -0.519715 3.56521 169 246 209
-1.57675 -0.523702 3.59034 157 224 209
-1.51907 -0.522394 3.59884 67 117 105
-0.969784 -0.531932 3.66405 165 234 201
0.398286 -0.561027 3.86791 77 148 122
0.892378 -0.572404 3.94285 114 178 166
-1.32949 -0.523223 3.631 156 228 206
0.219469 -0.553984 3.83951 100 163 153
-1.70631 -0.513276 3.57029 94 132 110
-0.958719 -0.526976 3.67162 158 220 202
-0.00980872 -0.548037 3.80775 58 147 107
0.421584 -0.554827 3.86878 87 136 116
-1.78122 -0.510098 3.56135 40 106 77
-1.01543 -0.525833 3.66721 72 113 105
-1.53065 -0.513822 3.59793 151 218 191
-0.990969 -0.522993 3.66757 46 102 79
-0.589955 -0.532778 3.73095 97 163 152
0.769465 -0.555856 3.91876 175 241 230
2.47516 -0.597322 4.19697 180 238 220
-0.743017 -0.52479 3.70438 165 226 216
0.422852 -0.546986 3.86707 144 228 204
-1.11007 -0.518208 3.65712 113 153 142
-1.06446 -0.517784 3.65675 46 103 78
-1.00923 -0.517956 3.66962 89 125 111
-1.80955 -0.500324 3.5559 157 237 202
-1.43622 -0.508685 3.61694 56 114 89
-0.985454 -0.516775 3.67116 130 204 176
-0.636493 -0.523226 3.72817 81 150 139
-1.60893 -0.503729 3.59021 71 135 116
-1.59874 -0.503954 3.59664 92 152 134
-0.528775 -0.522299 3.73507 170 235 219
2.56313 -0.590694 4.20471 165 232 201
-1.91 -0.495963 3.54535 150 241 202
-1.70702 -0.500487 3.57892 80 120 108
-0.0123166 -0.533102 3.81006 161 215 210
-1.81648 -0.495736 3.55688 142 193 166
-1.00002 -0.511178 3.67276 132 202 179
0.391329 -0.539094 3.86912 86 157 130
-1.11871 -0.507116 3.65826 161 223 199
-1.06968 -0.50801 3.66667 172 230 219
0.412457 -0.536463 3.87163 84 146 134
-1.54011 -0.491836 3.60228 156 216 198
-1.02134 -0.501785 3.66923 69 140 113
-1.0087 -0.500623 3.66837 147 219 196
-0.991461 -0.502158 3.66991 20 90 73
-0.96885 -0.503226 3.67881 61 114 94
-1.06351 -0.49946 3.66425 94 162 145
-1.19773 -0.495523 3.64798 155 213 189
-1.01837 -0.497272 3.66319 45 110 89
-1.7989 -0.482709 3.56398 140 211 185
-1.48878 -0.48757 3.61382 80 157 136
-1.30843 -0.486993 3.63593 79 141 105
-1.09683 -0.492075 3.66276 95 163 146
-1.82799 -0.475886 3.55922 40 116 85
-1.17781 -0.48633 3.64043 157 228 201
-0.356025 -0.505364 3.77367 100 160 154
-1.31197 -0.483033 3.62608 179 242 202
-1.28666 -0.48485 3.64109 61 113 90
2.50204 -0.55864 4.19227 157 213 192
-1.63317 -0.477224 3.5974 101 164 154
-1.4385 -0.48066 3.62236 73 150 123
-1.26477 -0.483763 3.64322 162 239 211
-1.03072 -0.486272 3.66759 95 159 137
-0.944826 -0.489515 3.68256 169 236 215
0.799915 -0.522523 3.93503 108 165 156
2.31522 -0.553248 4.17961 102 146 140
-1.81119 -0.47357 3.56493 46 99 79
-1.7773 -0.474011 3.57801 162 226 204
-1.51316 -0.477526 3.61189 90 143 133
-1.49317 -0.478754 3.61562 49 121 99
-1.82168 -0.470851 3.5578 150 221 195
-1.63716 -0.474856 3.59461 177 238 228
-1.59554 -0.475092 3.6032 93 159 140
-1.49876 -0.473787 3.61805 171 239 214
-1.41853 -0.477553 3.6289 94 168 144
2.52636 -0.548296 4.18259 181 235 222
-1.26021 -0.477484 3.64588 81 137 126
-1.83489 -0.46496 3.5704 81 151 121
-1.56022 -0.46877 3.60717 83 149 138
-1.3256 -0.471598 3.63485 43 103 63
-1.15245 -0.474247 3.66148 166 219 199
-0.780717 -0.477965 3.70978 103 157 152
-0.627088 -0.480903 3.73533 72 126 121
-1.8277 -0.459348 3.57175 68 117 95
2.43799 -0.528692 4.13556 133 194 156
1.08301 -0.509386 3.9915 169 225 212
-1.30794 -0.464823 3.64225 128 196 161
-1.37068 -0.459904 3.63561 91 155 119
-1.30836 -0.459889 3.64263 61 118 87
-1.26247 -0.461183 3.64927 110 105 66
