ply
format ascii 1.0
element vertex 1243
property float x
property float y
property float z
property uchar blue
property uchar green
property uchar red
end_header
0.622922 -0.433803 3.75511 91 170 151
-0.250609 -0.399883 3.46257 202 231 255
-0.0123412 -0.400984 3.48357 208 231 255
0.450834 -0.430055 3.73208 157 233 202
0.499203 -0.429681 3.74509 140 218 181
-0.468093 -0.415756 3.64628 181 237 238
-0.269755 -0.394695 3.45929 188 215 252
-0.264375 -0.395159 3.45759 133 163 198
-0.287909 -0.392223 3.45895 179 210 241
0.614838 -0.425099 3.75484 152 233 206
-0.295881 -0.391276 3.46052 202 223 250
0.365842 -0.420698 3.72237 156 226 196
0.180553 -0.418378 3.71823 62 105 96
-0.187619 -0.388934 3.46626 183 204 236
0.588351 -0.421477 3.75301 85 162 135
0.713559 -0.422167 3.77066 83 162 141
0.911769 -0.422152 3.78992 93 172 161
-0.367151 -0.384729 3.45464 227 244 255
-0.304177 -0.384849 3.45934 192 221 248
-0.265761 -0.384892 3.46418 205 228 250
-0.24417 -0.384955 3.46596 197 216 237
0.537894 -0.416861 3.74544 166 235 202
-0.19442 -0.384501 3.46896 190 217 251
0.210414 -0.41027 3.71597 156 222 211
-1.05474 -0.399277 3.63517 96 164 153
0.21125 -0.409373 3.72163 148 213 204
0.523109 -0.411033 3.74677 158 226 201
-0.297264 -0.378372 3.46315 185 217 246
-1.02975 -0.394589 3.63561 199 255 244
0.197799 -0.403117 3.71775 56 97 92
-0.31592 -0.374278 3.46241 186 213 239
-0.308592 -0.372399 3.46647 190 218 242
-0.275295 -0.369134 3.46738 191 218 232
-0.23396 -0.370539 3.47065 198 222 240
0.273211 -0.396979 3.72904 70 140 123
-0.538558 -0.38655 3.63685 164 220 225
-0.27965 -0.367838 3.46468 187 212 228
0.392276 -0.397168 3.73375 79 153 119
-0.47589 -0.384074 3.65195 11 94 102
0.16183 -0.388739 3.71306 134 193 172
-0.53666 -0.379726 3.64178 110 174 169
-0.23786 -0.36225 3.47063 192 213 234
-0.383692 -0.357502 3.45238 94 117 162
-0.274442 -0.359313 3.46718 191 212 233
-0.530679 -0.375316 3.64647 104 157 148
-0.263548 -0.356582 3.46927 195 209 237
-0.533294 -0.37272 3.64393 169 228 220
-0.326258 -0.354313 3.46626 132 157 189
0.164013 -0.37966 3.71629 56 110 97
-0.481758 -0.372997 3.66705 139 207 196
0.525834 -0.380237 3.75646 80 147 120
-0.224297 -0.350602 3.47433 195 213 242
0.195631 -0.37597 3.7228 139 201 177
0.598977 -0.379981 3.76094 160 240 211
-0.271988 -0.349601 3.47111 192 215 241
0.244873 -0.375511 3.72723 78 153 139
-0.277846 -0.34757 3.46876 196 225 252
-0.264956 -0.34735 3.47121 200 218 241
-0.507409 -0.361629 3.64539 158 196 244
-0.333334 -0.343344 3.46503 193 215 243
-0.485394 -0.359974 3.66818 121 196 174
-0.284339 -0.338981 3.47131 135 161 201
-0.266151 -0.339045 3.4701 199 223 245
0.143242 -0.362287 3.71593 77 139 115
0.633737 -0.367198 3.77309 79 159 130
-0.519249 -0.353268 3.65127 199 241 255
0.120687 -0.35966 3.71247 148 213 188
0.464261 -0.362984 3.74802 89 170 137
0.553187 -0.364297 3.76244 70 148 117
-0.259219 -0.334409 3.47454 184 216 245
-0.483763 -0.352452 3.6672 15 93 76
0.128994 -0.356328 3.71546 85 147 131
0.283196 -0.357483 3.73282 81 155 137
-0.367138 -0.33134 3.46605 223 244 255
-0.530072 -0.34606 3.64561 144 214 213
-0.491675 -0.348505 3.66627 98 158 147
-0.176968 -0.328072 3.48296 151 173 215
0.898045 -0.358339 3.79567 137 195 177
0.177839 -0.349739 3.72685 183 221 209
0.409967 -0.352364 3.74596 85 167 132
0.61004 -0.35133 3.77243 105 177 147
0.176505 -0.347665 3.73158 191 225 214
0.26477 -0.3479 3.73432 168 232 220
-0.491267 -0.339922 3.66585 131 183 165
-0.484458 -0.341164 3.67126 32 100 89
0.540088 -0.350552 3.76839 79 145 110
-0.347871 -0.32004 3.46988 186 216 233
-0.323802 -0.320373 3.46913 195 225 250
0.313595 -0.343807 3.7337 95 166 140
-0.541541 -0.334433 3.6488 185 248 238
-0.361484 -0.317131 3.47033 194 222 239
-0.250644 -0.318669 3.4774 210 233 255
0.412768 -0.340734 3.74873 90 166 135
-0.25734 -0.315062 3.47763 234 252 255
0.214029 -0.338896 3.73309 77 141 135
0.218284 -0.338176 3.73246 153 219 218
0.272517 -0.338662 3.73255 64 138 108
0.569978 -0.343156 3.76962 102 161 140
0.276246 -0.337245 3.73349 135 208 176
0.376483 -0.337462 3.749 76 149 117
-0.183353 -0.312783 3.48351 206 230 255
0.364991 -0.335163 3.74519 88 165 131
-0.263064 -0.310618 3.47826 197 221 245
0.146209 -0.331162 3.72039 57 110 97
1.26325 -0.339998 3.83668 94 172 149
-0.185646 -0.304767 3.48605 198 227 254
-0.523606 -0.319227 3.65151 136 198 182
-0.295994 -0.302278 3.47642 151 164 196
-0.204226 -0.303802 3.48535 131 154 186
0.351113 -0.325905 3.74392 110 180 143
1.27218 -0.33289 3.83053 76 162 128
0.205905 -0.321404 3.73625 74 132 121
-1.16123 -0.313353 3.64878 164 222 221
0.229751 -0.320103 3.7324 65 141 117
0.414256 -0.323059 3.76054 78 145 113
-0.352709 -0.296775 3.47271 182 202 219
-0.341831 -0.295142 3.47634 194 228 255
0.182991 -0.315558 3.72942 145 202 193
-0.547321 -0.30927 3.65674 102 155 168
-0.541102 -0.308328 3.65481 142 201 210
-0.345376 -0.291318 3.47102 185 219 248
-0.329645 -0.29164 3.47482 110 125 164
-0.31569 -0.293352 3.48029 214 238 255
-0.269924 -0.292551 3.48204 203 224 251
-0.258881 -0.291751 3.48137 180 210 235
-0.220079 -0.290967 3.4856 188 207 242
0.32179 -0.312634 3.74781 147 209 185
-1.08891 -0.302716 3.65712 120 172 202
-0.259535 -0.288287 3.48198 145 166 194
-0.477441 -0.301437 3.65867 169 207 237
0.0872098 -0.307065 3.71651 140 216 182
0.146665 -0.306412 3.7219 61 98 82
0.25175 -0.308424 3.73603 143 220 199
0.203588 -0.307046 3.73777 67 126 111
0.323457 -0.308153 3.75155 83 141 117
0.418865 -0.309954 3.76411 56 124 99
-0.488569 -0.301081 3.67599 130 172 155
0.0271603 -0.303839 3.71166 61 137 106
0.0339435 -0.303349 3.71151 73 151 120
0.305795 -0.306697 3.74878 92 145 136
0.407741 -0.3076 3.76248 66 133 96
0.413434 -0.307065 3.75923 153 222 185
0.438829 -0.30755 3.76626 134 212 181
-0.335852 -0.283906 3.47807 128 160 203
-0.232405 -0.284975 3.48281 149 163 192
-0.222411 -0.284444 3.48775 187 206 233
-0.182185 -0.28468 3.48877 129 150 181
0.469571 -0.307198 3.76663 160 243 198
0.165462 -0.304155 3.73778 52 96 89
0.235391 -0.302617 3.73449 160 223 203
0.558782 -0.306882 3.77941 62 142 111
-0.327953 -0.281908 3.47847 148 172 202
0.202622 -0.300534 3.74208 69 136 121
0.433433 -0.300528 3.76864 136 206 170
0.578694 -0.30211 3.77806 72 156 122
0.311432 -0.298728 3.75609 91 155 136
-0.314063 -0.275958 3.48066 206 230 255
0.25242 -0.296699 3.73662 84 149 123
-1.59774 -0.281927 3.60879 90 142 159
-0.229532 -0.273398 3.48856 185 209 237
0.299561 -0.293224 3.75831 74 127 114
0.148302 -0.288322 3.73783 58 119 93
0.282167 -0.288515 3.74282 88 142 129
-0.235078 -0.268287 3.49089 194 216 241
-0.2919 -0.266136 3.48239 192 212 247
0.0281564 -0.283554 3.71945 85 167 144
-0.510011 -0.277451 3.66163 152 190 225
0.182315 -0.283889 3.74549 134 198 179
-0.306912 -0.258736 3.48543 138 152 188
0.0651439 -0.274978 3.72071 87 164 127
0.156251 -0.276832 3.73809 146 202 183
-0.0144349 -0.273061 3.70925 50 158 115
0.149272 -0.274987 3.73526 130 206 172
0.122232 -0.273328 3.73127 80 154 124
0.36113 -0.276547 3.76891 74 143 110
0.38114 -0.275241 3.76779 71 147 106
-0.508702 -0.265447 3.66636 175 231 212
0.0689535 -0.270011 3.71755 85 164 120
0.342751 -0.273506 3.76839 78 146 129
0.0127063 -0.268454 3.71474 75 138 118
0.283116 -0.271283 3.74424 156 214 186
0.0653634 -0.267668 3.71927 149 236 192
0.125874 -0.268101 3.73078 148 231 193
-0.53287 -0.263863 3.67489 92 167 151
-0.311244 -0.249264 3.4859 184 199 225
-0.163544 -0.251161 3.50138 223 243 255
-0.0176553 -0.266167 3.71533 87 167 132
0.354774 -0.270576 3.76622 103 176 150
-0.512923 -0.262776 3.67308 119 185 156
-0.205899 -0.247547 3.49636 203 230 255
0.331125 -0.266459 3.76035 101 163 149
0.0507618 -0.262486 3.71914 141 206 181
0.47044 -0.266856 3.77754 89 168 124
0.205757 -0.26268 3.75006 63 132 111
-0.48221 -0.253514 3.6676 172 217 255
0.139714 -0.257757 3.73547 66 123 102
1.31805 -0.265425 3.85429 92 173 154
-0.0388647 -0.255312 3.71353 137 207 170
0.269493 -0.257377 3.75085 74 138 102
-0.210771 -0.239243 3.5021 205 230 246
-0.202208 -0.238748 3.49657 203 231 255
0.0967313 -0.254238 3.72748 69 150 111
0.255654 -0.256605 3.75515 149 214 189
0.365173 -0.257442 3.773 86 175 136
-0.21176 -0.237715 3.49512 205 224 239
0.153999 -0.253765 3.7428 136 198 174
0.0341911 -0.251579 3.71933 160 225 203
0.137044 -0.252033 3.74061 160 237 199
0.475337 -0.25385 3.78199 99 172 132
0.490082 -0.253626 3.78262 155 230 184
0.100377 -0.250227 3.73423 135 209 175
0.381525 -0.253402 3.77645 72 139 107
0.0346297 -0.247678 3.72206 79 143 121
0.387139 -0.249566 3.77297 91 156 124
0.480328 -0.249722 3.78121 149 232 194
1.09669 -0.2536 3.83575 145 230 198
-0.25162 -0.228325 3.49557 197 218 239
-0.00266401 -0.243866 3.7189 71 149 118
0.141693 -0.244819 3.74051 64 141 103
0.194833 -0.24507 3.75203 70 125 116
0.363492 -0.245092 3.77894 118 180 166
-0.0115178 -0.240925 3.71873 72 149 111
0.0166392 -0.238492 3.72433 82 157 129
0.0635987 -0.238513 3.72715 74 154 111
0.151956 -0.2397 3.74799 154 238 196
0.389618 -0.240059 3.77554 89 161 125
1.05487 -0.245138 3.83941 100 162 148
-0.276938 -0.218038 3.49633 199 216 242
0.162756 -0.234277 3.75547 146 205 190
0.490996 -0.235627 3.78437 102 184 149
0.206612 -0.232682 3.75648 155 224 209
0.154225 -0.231939 3.74759 148 217 180
-0.567714 -0.225582 3.66904 148 186 174
0.0526637 -0.229071 3.72709 159 233 199
0.151838 -0.229596 3.75201 80 151 108
0.279887 -0.229968 3.76085 59 128 95
0.299138 -0.230365 3.76606 147 222 194
-0.0424479 -0.226523 3.7181 68 155 117
0.0321191 -0.228146 3.72638 64 130 105
0.0495781 -0.225921 3.72453 93 164 131
0.0663219 -0.224417 3.72636 146 230 182
0.335079 -0.227478 3.7813 78 136 131
0.365462 -0.228092 3.78244 93 160 128
-0.0224601 -0.222296 3.72189 87 162 146
0.0935567 -0.224264 3.73617 75 152 115
0.256709 -0.223799 3.75604 100 181 148
0.0594957 -0.219644 3.7285 85 153 112
0.0372884 -0.218722 3.72596 164 227 201
0.229785 -0.22172 3.7654 72 141 121
-0.0062783 -0.218023 3.72629 68 143 115
0.0218587 -0.217379 3.72809 74 145 118
-0.516135 -0.213568 3.68136 117 186 173
-0.427042 -0.213054 3.6901 41 86 67
0.190228 -0.217401 3.76084 147 220 198
0.11911 -0.214407 3.74354 75 141 106
0.174525 -0.214133 3.76378 80 138 120
0.136756 -0.212361 3.75178 144 208 189
0.384074 -0.212458 3.78731 146 212 177
1.57206 -0.216684 3.8738 91 172 145
0.502065 -0.212158 3.79744 94 165 138
0.1666 -0.208546 3.75723 161 216 201
0.521264 -0.209651 3.78889 128 193 172
1.33262 -0.215081 3.8627 95 170 156
-0.0623202 -0.205598 3.71775 147 218 192
-0.0401679 -0.202121 3.72245 156 228 208
0.146288 -0.204625 3.75789 140 200 169
1.0025 -0.208937 3.84048 160 236 212
0.451255 -0.205114 3.7948 95 154 133
0.331063 -0.203445 3.79219 74 127 113
0.370565 -0.202174 3.79352 140 220 185
0.376264 -0.202265 3.79286 72 142 111
0.389585 -0.202906 3.7905 139 221 186
0.247522 -0.20014 3.76854 102 170 145
0.0363793 -0.197444 3.72856 60 108 80
0.053416 -0.195835 3.73432 87 161 125
0.382834 -0.198869 3.79053 80 162 119
0.550324 -0.199541 3.80004 160 226 201
0.0514719 -0.193321 3.73162 156 226 186
0.191989 -0.193098 3.77203 77 130 116
1.5472 -0.197573 3.884 115 179 150
0.311479 -0.190388 3.78366 134 210 176
0.51175 -0.191704 3.80598 154 236 207
-0.0322854 -0.188149 3.72968 96 165 145
0.133395 -0.187473 3.74803 150 214 179
-1.34547 -0.181748 3.6622 160 214 231
0.313993 -0.187338 3.78521 72 143 116
-1.73269 -0.177625 3.61586 175 223 247
-0.104781 -0.18155 3.71014 132 219 175
0.0499068 -0.183137 3.73603 92 166 124
0.117957 -0.184549 3.75034 75 151 120
0.150422 -0.185147 3.76227 112 162 144
0.154456 -0.183644 3.7637 54 97 82
0.413902 -0.1849 3.79501 145 216 190
-0.0892278 -0.18126 3.71825 65 140 112
0.598931 -0.183625 3.80755 136 185 157
0.142816 -0.179543 3.75743 75 133 108
0.939261 -0.183772 3.84099 74 160 136
0.159143 -0.178363 3.7666 144 204 186
0.414308 -0.180041 3.79932 83 162 129
1.612 -0.184833 3.88012 144 208 173
-0.122662 -0.175217 3.71851 175 250 218
0.0583078 -0.176606 3.73883 84 143 112
1.61254 -0.178803 3.87878 151 223 187
-0.4432 -0.167306 3.69283 220 255 255
0.507243 -0.170498 3.80762 143 224 191
1.61424 -0.172549 3.88231 155 235 192
1.74863 -0.173982 3.89514 83 148 126
1.52701 -0.171249 3.88363 114 183 150
-0.560326 -0.162589 3.69713 73 171 147
0.443528 -0.16642 3.80523 149 217 182
0.0327943 -0.16276 3.74013 89 151 129
0.251615 -0.162752 3.78275 85 151 126
0.267255 -0.162864 3.77752 200 238 226
0.285715 -0.163126 3.78313 142 198 169
0.2967 -0.16351 3.78893 90 168 131
0.42313 -0.161362 3.80227 141 209 174
0.337038 -0.157993 3.79624 104 176 154
-1.07188 -0.153039 3.69167 73 140 131
0.198308 -0.156658 3.78156 173 213 208
1.77118 -0.16109 3.89887 92 157 141
2.17789 -0.162991 3.93401 86 166 135
-0.454062 -0.152689 3.69984 81 176 156
-0.390998 -0.152405 3.69966 106 138 137
0.296763 -0.155981 3.79116 83 162 129
0.416683 -0.156408 3.80428 165 229 200
1.55351 -0.159062 3.88181 166 229 209
-0.430833 -0.151323 3.70319 131 216 194
0.0306738 -0.153317 3.74262 163 231 206
0.539737 -0.155131 3.80882 161 226 201
0.154874 -0.15418 3.77506 79 149 118
0.367935 -0.153968 3.80689 100 159 131
-0.395763 -0.148846 3.69487 34 76 119
-0.0740737 -0.148478 3.73342 76 135 120
0.190502 -0.151197 3.78419 38 83 80
0.943448 -0.153404 3.84547 130 209 168
1.65224 -0.153857 3.89323 91 168 131
-0.421165 -0.142982 3.6995 95 167 154
0.313516 -0.146924 3.79513 158 227 206
0.373141 -0.147725 3.80317 137 201 182
0.381181 -0.147548 3.80518 162 225 205
0.20124 -0.144356 3.78216 172 226 213
0.595676 -0.146605 3.81367 123 171 145
-0.504438 -0.140983 3.70477 87 163 151
1.65886 -0.146992 3.89554 75 153 116
-0.531776 -0.139183 3.70603 140 210 187
-0.0338981 -0.140945 3.74129 155 223 188
0.368112 -0.141693 3.80625 99 170 144
0.466874 -0.144239 3.81997 76 135 115
0.523485 -0.140131 3.81278 76 146 109
-0.029543 -0.137454 3.74319 73 142 105
-1.61046 -0.132624 3.64111 72 124 177
0.123369 -0.13642 3.77419 75 137 115
0.134886 -0.136763 3.77244 157 230 198
-0.171409 -0.133685 3.71919 152 254 199
1.46865 -0.139451 3.88538 71 153 130
-0.194435 -0.131806 3.71565 76 140 110
-0.178276 -0.131593 3.72074 152 250 206
0.0862775 -0.133521 3.75272 161 222 194
0.1142 -0.133572 3.76691 70 131 105
-0.153047 -0.130226 3.72582 130 200 170
0.153819 -0.132119 3.77494 69 146 109
0.168663 -0.132581 3.78804 165 206 201
0.521783 -0.133109 3.81284 120 202 160
0.288043 -0.130825 3.79682 76 138 120
0.403561 -0.130363 3.80335 153 232 189
0.0469712 -0.127138 3.74544 165 232 200
0.0613669 -0.127149 3.75177 144 204 174
0.959958 -0.131083 3.85661 79 164 136
0.108098 -0.125998 3.76162 119 185 156
0.108371 -0.125683 3.76298 143 208 176
0.353063 -0.127832 3.80637 98 163 148
1.50274 -0.130915 3.88539 75 144 124
1.80863 -0.130615 3.90064 94 162 139
-0.0625931 -0.123595 3.73903 171 232 206
0.0475677 -0.125946 3.75056 147 211 175
0.128847 -0.12441 3.77602 139 214 182
0.492392 -0.126623 3.81316 153 217 198
1.53368 -0.129599 3.88607 77 149 136
-0.0460461 -0.122665 3.74592 90 172 150
0.119427 -0.12421 3.77241 101 151 133
1.54999 -0.127681 3.88298 152 221 208
-0.163435 -0.12128 3.72803 63 140 106
0.109501 -0.122562 3.77642 61 122 88
0.134369 -0.122436 3.77957 45 116 89
0.544987 -0.124711 3.80892 56 123 102
-1.15175 -0.118737 3.69836 88 139 131
-0.444718 -0.116944 3.70873 68 161 124
0.213831 -0.119954 3.79284 147 208 194
-1.0802 -0.115986 3.70387 85 156 153
-0.212228 -0.11651 3.72719 108 189 150
0.111138 -0.118516 3.76807 72 149 111
1.59311 -0.121945 3.89062 99 178 157
-0.412868 -0.115427 3.70849 74 135 121
-0.208274 -0.115673 3.73052 194 248 213
0.496034 -0.118375 3.81435 151 209 185
-0.660858 -0.113526 3.70707 82 152 135
0.499771 -0.117135 3.81523 74 124 92
-0.40594 -0.112139 3.7118 85 156 139
-0.123126 -0.113203 3.73742 95 166 150
-0.569482 -0.111474 3.71013 74 163 130
-0.00606209 -0.113574 3.74977 97 157 127
1.59206 -0.116836 3.89492 159 227 204
-0.405881 -0.110813 3.71735 81 155 137
-1.10093 -0.108046 3.70254 82 149 140
0.0517528 -0.109704 3.75467 155 230 192
0.154865 -0.111646 3.78857 126 183 152
0.259018 -0.111677 3.79736 84 148 118
0.491049 -0.111804 3.81693 142 187 168
0.91726 -0.112583 3.84946 137 214 193
-0.170261 -0.107797 3.72989 159 234 202
0.352619 -0.10889 3.81044 162 234 212
0.567702 -0.109728 3.82155 198 239 234
-0.716063 -0.104661 3.70857 119 182 173
-0.575602 -0.105357 3.70792 140 237 205
-0.0796543 -0.104197 3.74181 162 230 213
0.105991 -0.10548 3.77076 86 162 130
0.119492 -0.106494 3.77808 147 216 179
0.187532 -0.104706 3.79207 69 131 115
-0.128981 -0.101985 3.74 103 168 152
0.479103 -0.10528 3.82116 131 175 158
0.530008 -0.103816 3.82157 87 153 128
0.535842 -0.102378 3.81485 90 165 143
0.549278 -0.103473 3.81318 87 160 134
0.59588 -0.10294 3.82197 87 154 133
1.33172 -0.104383 3.88569 108 186 175
-0.0610431 -0.0999979 3.74705 161 227 216
-0.0574518 -0.10085 3.74799 109 178 168
-0.0307928 -0.100159 3.75236 81 168 134
0.240567 -0.10194 3.79682 94 157 131
0.253774 -0.101789 3.79746 71 142 115
-0.626923 -0.0972027 3.70623 150 222 202
0.892143 -0.102616 3.85777 101 174 166
-0.653606 -0.0961221 3.71115 145 212 191
0.18992 -0.0993651 3.79344 92 141 133
-0.463214 -0.0956874 3.71905 87 174 141
-0.098103 -0.0962794 3.74195 74 149 133
0.0704342 -0.0955023 3.76176 158 214 191
0.572128 -0.0963123 3.82285 121 171 159
-1.58815 -0.0918546 3.65246 150 205 236
-0.0419123 -0.0939872 3.75308 90 142 125
0.0564533 -0.0945141 3.76509 65 128 102
0.507189 -0.0956257 3.81945 154 212 201
-0.135849 -0.0923267 3.73715 165 233 202
0.208189 -0.0929986 3.79349 130 148 149
0.529596 -0.0940667 3.81863 91 163 140
-0.480994 -0.0898285 3.71626 156 230 212
-0.11794 -0.0900652 3.74545 115 183 172
-0.0921506 -0.0909762 3.74781 92 172 149
0.117369 -0.0916485 3.78084 62 129 98
-0.714144 -0.0887914 3.71649 96 172 160
-0.144078 -0.0898283 3.73899 91 156 130
-0.480832 -0.0891805 3.71891 162 235 219
0.019091 -0.0880049 3.75795 125 217 168
0.122408 -0.0888258 3.78523 131 206 168
0.560724 -0.0898832 3.82147 85 147 129
-0.698088 -0.0874704 3.71784 78 147 132
1.49324 -0.0903618 3.88522 149 238 199
-0.231738 -0.0856676 3.73527 146 232 198
0.088584 -0.0877289 3.77703 150 224 194
-0.155131 -0.0847534 3.7359 71 127 104
-0.226194 -0.0829748 3.73223 75 163 123
-0.222244 -0.0826254 3.73344 149 228 187
-0.140447 -0.0825443 3.74125 81 150 123
-0.917659 -0.0812608 3.71154 119 174 179
-2.02394 -0.0773296 3.60974 86 146 138
-0.0579619 -0.0795842 3.75431 92 142 118
0.132817 -0.08149 3.79376 150 204 181
0.0591058 -0.0789703 3.77433 84 158 134
0.325369 -0.0798042 3.80839 142 207 185
0.330097 -0.0805759 3.81138 66 137 111
0.976622 -0.0815646 3.86582 83 155 135
-0.166579 -0.0768314 3.73825 57 124 103
-0.0344131 -0.0766547 3.76142 135 200 161
1.48777 -0.0817347 3.89165 100 166 147
-1.1003 -0.0758882 3.71369 154 213 222
-0.134319 -0.0753894 3.74132 167 227 203
-0.0349556 -0.0765072 3.76201 135 199 163
0.618069 -0.0772061 3.83095 72 139 107
-0.596776 -0.0734336 3.72356 99 179 156
0.246085 -0.0737354 3.80689 188 215 206
0.312566 -0.0742843 3.81219 94 156 142
0.589476 -0.0730022 3.82793 130 191 155
-0.410562 -0.0692149 3.71911 145 223 192
0.33138 -0.070845 3.81119 171 229 211
0.554441 -0.0717699 3.82555 164 235 202
-0.37745 -0.0685628 3.7219 88 168 131
-1.08403 -0.0674899 3.70803 92 161 171
-0.591448 -0.0666517 3.72777 98 179 160
0.341889 -0.0684763 3.81881 72 137 112
1.4728 -0.0704169 3.89781 94 176 154
0.0617344 -0.0664643 3.77346 74 151 123
-1.40243 -0.0643306 3.6892 76 134 146
-0.130084 -0.0636207 3.74914 156 227 200
2.12396 -0.0678122 3.94801 95 180 160
-0.936591 -0.0617728 3.72155 113 174 188
-0.61544 -0.0631428 3.72464 151 217 205
-0.305891 -0.0631989 3.74339 230 247 243
-0.14706 -0.0616864 3.74022 96 161 140
-0.0711476 -0.0626482 3.75718 88 148 124
0.592905 -0.0629311 3.83192 163 228 196
1.33725 -0.0651008 3.89019 96 176 147
-1.4111 -0.0606063 3.68818 145 208 216
-0.469894 -0.0607129 3.7275 77 151 133
1.59185 -0.0640448 3.89953 154 221 200
-0.207413 -0.0597191 3.73763 76 146 116
-0.155259 -0.0603948 3.74606 86 148 124
0.61857 -0.0620262 3.83939 138 202 173
0.658066 -0.0618073 3.84179 103 172 151
-0.240475 -0.0586483 3.74132 78 157 124
-1.91835 -0.0561219 3.62463 156 212 193
-0.634102 -0.0579601 3.7214 93 165 145
0.106302 -0.0589988 3.79704 74 137 117
0.282539 -0.0587895 3.80936 100 148 142
0.583422 -0.058275 3.83238 86 164 127
-0.0638965 -0.05706 3.76265 96 157 153
0.000254488 -0.056768 3.77994 82 152 129
0.610127 -0.0583327 3.83692 159 230 190
-1.00917 -0.0532427 3.72496 86 148 142
-0.0680639 -0.0539471 3.76284 197 242 245
-0.098631 -0.0527246 3.75588 64 123 102
-0.371159 -0.0513867 3.73021 85 154 121
-0.332754 -0.050785 3.73668 152 205 191
-0.309232 -0.052737 3.74281 89 157 132
-1.03486 -0.0503604 3.72179 144 210 205
-0.450757 -0.049862 3.73086 92 159 138
0.580056 -0.0520075 3.83754 156 229 191
0.628571 -0.0521075 3.84162 66 134 109
-0.203035 -0.0485721 3.74294 98 170 147
1.32168 -0.0508453 3.89228 60 144 115
-1.10509 -0.0475239 3.71719 205 241 247
-0.451306 -0.048139 3.73763 81 154 132
-0.00619945 -0.0478535 3.78273 59 129 89
-0.216894 -0.0468397 3.74564 57 128 111
-0.192988 -0.0462198 3.74533 150 226 202
-0.104412 -0.0447203 3.7586 81 162 135
-1.08893 -0.0432863 3.72077 100 172 189
0.149964 -0.0442179 3.80543 156 220 198
-0.582374 -0.0426225 3.734 80 160 143
0.636247 -0.0450027 3.84644 68 134 105
0.809419 -0.0436209 3.85614 72 138 113
1.28427 -0.0444648 3.89098 77 157 134
-0.0648079 -0.0411664 3.76447 96 138 121
0.0665617 -0.0409698 3.79684 78 136 112
0.150397 -0.0429539 3.81046 154 218 196
0.628463 -0.0429781 3.84397 48 106 77
0.133113 -0.0405322 3.80681 58 124 105
0.78945 -0.0418862 3.85175 56 121 105
-0.312241 -0.0394126 3.74704 144 219 197
0.00647311 -0.0388032 3.78791 85 150 129
-0.691521 -0.036859 3.72788 115 177 185
0.575986 -0.0374615 3.84555 87 162 134
1.28935 -0.0384787 3.89102 74 152 121
-0.000424731 -0.0356914 3.79355 152 227 195
0.0454852 -0.0363587 3.79103 101 161 143
0.0926299 -0.0368542 3.80466 39 110 93
1.3145 -0.0355257 3.89318 70 151 124
-0.581211 -0.0333572 3.73399 93 171 154
-1.14045 -0.0316063 3.72178 168 227 237
-0.0404492 -0.0302777 3.7796 137 201 179
0.0315081 -0.031416 3.79611 107 163 144
-0.523233 -0.0293498 3.73598 91 171 154
-0.119582 -0.0291143 3.76157 77 150 124
0.0434114 -0.0290492 3.79132 80 144 115
0.788144 -0.0304577 3.85779 83 155 142
0.819805 -0.0299661 3.8647 134 209 193
0.823906 -0.0291459 3.86062 76 148 135
1.5752 -0.0297576 3.91084 149 210 182
-1.0777 -0.0271433 3.72268 86 147 157
-0.656781 -0.0275159 3.73278 215 255 251
-0.277292 -0.0259615 3.7495 144 213 186
0.0383178 -0.0265342 3.79911 104 179 158
0.0434302 -0.0262875 3.8021 69 142 120
0.309759 -0.0258941 3.82088 78 149 132
0.828533 -0.0265178 3.86029 152 217 202
1.0633 -0.0267117 3.88381 81 163 150
-0.323401 -0.0236742 3.74244 63 125 109
0.00958453 -0.0237245 3.80173 97 165 142
0.108021 -0.0231316 3.81089 90 153 133
-0.314767 -0.0218854 3.75013 138 201 181
0.100016 -0.022286 3.80476 68 143 121
-1.428 -0.0208798 3.69499 147 211 206
-0.474401 -0.0211886 3.74015 84 149 140
0.0958289 -0.0210063 3.81106 163 230 203
1.48675 -0.0214032 3.90562 103 182 161
-1.10978 -0.0192882 3.72513 162 212 224
-0.277921 -0.0201109 3.74949 64 134 111
0.0392563 -0.0172375 3.80429 96 167 140
0.158888 -0.0178799 3.81922 84 146 132
0.324714 -0.0190249 3.82032 144 203 189
-2.00809 -0.0165916 3.62863 92 157 148
-0.281285 -0.016913 3.75201 139 219 196
-0.207655 -0.0157375 3.755 82 144 132
0.187797 -0.015447 3.82105 170 223 210
-0.977205 -0.013186 3.73704 165 231 226
-0.0486114 -0.0130568 3.78871 173 210 206
-0.428388 -0.0117863 3.74495 159 229 212
-1.04008 -0.00997009 3.73569 163 225 236
-0.637732 -0.00893534 3.73862 118 174 169
-0.365786 -0.00818318 3.74946 95 163 140
0.284317 -0.00791949 3.82216 146 226 195
0.297729 -0.0071355 3.82134 98 178 143
0.316987 -0.00736988 3.81549 176 229 220
0.59376 -0.00606767 3.84945 138 209 183
-0.512202 -0.00567643 3.74392 151 209 208
0.0413291 -0.00577728 3.80195 88 165 144
-1.51003 -0.00439119 3.68362 147 208 212
-0.368369 -0.00433862 3.74898 157 223 198
0.627371 -0.00454465 3.85412 89 151 127
-1.91827 -0.00293884 3.63557 129 177 178
-1.98809 0.00105002 3.62584 103 156 169
0.629539 0.000546135 3.85629 85 147 129
-0.376056 0.00177383 3.75284 86 160 134
-0.366027 0.000417162 3.75339 79 135 116
0.624791 0.00169175 3.85355 140 215 193
1.75269 0.00189143 3.91949 90 157 128
-1.11631 0.00337954 3.73165 108 176 189
-0.0284773 0.00445287 3.8038 92 165 127
-0.332914 0.00679763 3.76075 176 235 207
0.092304 0.00707914 3.81804 145 220 192
-2.12489 0.00734708 3.6291 89 136 163
-2.12317 0.00680659 3.62718 89 136 163
1.65223 0.00768339 3.91443 92 153 117
-1.21471 0.00994904 3.72865 167 223 228
-0.178364 0.0106195 3.77047 85 163 140
-0.345207 0.0116451 3.75472 173 242 215
0.188349 0.0127044 3.82843 92 149 140
0.253479 0.0126755 3.82993 173 232 224
0.726727 0.0116572 3.86069 86 148 136
0.26913 0.0152423 3.83114 87 145 151
-0.512548 0.0155518 3.75209 216 247 240
-0.345686 0.0154951 3.75482 118 176 152
1.71486 0.0185788 3.91831 109 184 156
0.0956816 0.0191157 3.82112 159 217 199
-1.05287 0.0197464 3.73726 127 176 198
-0.582907 0.0208078 3.75059 76 153 139
-0.370437 0.0196162 3.75834 178 238 220
0.194418 0.0215493 3.82805 108 151 140
0.178802 0.0226844 3.82505 53 108 93
0.259218 0.0223022 3.83195 100 164 168
0.573354 0.0238083 3.85337 85 158 132
0.794634 0.0242567 3.86691 76 146 129
-0.623352 0.0240771 3.74989 94 157 155
-0.193879 0.0236911 3.77156 150 220 203
-0.189694 0.0243592 3.77379 79 151 131
0.0692172 0.0247182 3.82366 59 127 110
-1.02254 0.0257119 3.74666 175 234 236
-0.211308 0.0249733 3.76855 70 139 126
0.183816 0.0260724 3.82736 151 204 191
0.253368 0.0255374 3.83388 98 158 157
0.202049 0.0272295 3.83149 128 170 163
0.249414 0.0272214 3.82978 162 217 214
0.790161 0.0268902 3.8714 153 228 207
0.811481 0.0277191 3.8757 85 160 139
1.56282 0.0284625 3.91976 75 134 120
-0.231452 0.02727 3.76813 83 148 127
0.191814 0.0288908 3.83054 70 123 113
0.105948 0.0317121 3.82304 63 125 107
0.152845 0.0324483 3.82861 150 215 193
0.202818 0.0328621 3.82869 77 132 117
1.5148 0.0325197 3.91158 89 151 135
-0.193991 0.0329184 3.77185 164 228 206
0.226872 0.0329541 3.82902 129 151 157
0.570511 0.0329743 3.85306 69 143 117
0.679854 0.0336364 3.86796 171 228 220
0.244324 0.0348439 3.83156 151 198 190
0.0976417 0.0367095 3.82542 70 140 123
0.163313 0.0358706 3.82923 134 205 179
0.674619 0.0361798 3.86503 82 151 131
-0.239464 0.0352552 3.76432 164 232 207
-0.622973 0.0374188 3.75696 87 153 142
0.582383 0.0392703 3.86313 82 140 116
-0.874543 0.0388006 3.74774 74 145 135
0.211023 0.0397755 3.83044 100 153 143
0.246164 0.0389792 3.83609 90 142 135
0.571462 0.0403503 3.85355 84 156 126
-0.385759 0.039964 3.76509 79 153 127
0.198531 0.040522 3.83057 142 198 179
-0.582867 0.0412659 3.75317 76 151 129
-0.261274 0.0421183 3.76255 72 128 105
-0.232414 0.0417373 3.7732 172 227 208
-0.214278 0.0417669 3.77313 184 224 223
-1.30064 0.0416624 3.7293 171 237 236
0.565028 0.0443136 3.85823 87 151 129
0.646028 0.0437595 3.86547 164 237 215
1.71337 0.044548 3.92488 102 164 142
-0.993847 0.0437443 3.75508 98 169 166
-0.682711 0.0435091 3.75909 112 172 171
-0.261175 0.043243 3.76661 72 128 105
-0.0813118 0.0449026 3.81087 78 148 107
-0.874295 0.0445431 3.75017 151 211 203
1.64856 0.0477969 3.92202 90 158 135
0.554553 0.0478721 3.85351 184 235 227
0.57092 0.0488686 3.85609 80 142 124
-0.601275 0.0478251 3.75806 158 232 208
0.126387 0.047665 3.83238 148 207 187
0.693597 0.0486359 3.86804 167 223 194
0.0387537 0.050264 3.81757 74 154 117
0.198373 0.0498999 3.84028 58 136 113
0.592138 0.0499094 3.86319 92 164 142
0.75561 0.0506447 3.87678 198 244 238
-0.871653 0.049502 3.75421 74 135 121
0.213316 0.051777 3.83852 145 228 196
-0.877521 0.0514308 3.7512 111 172 158
-0.230641 0.0516717 3.77052 98 140 122
-0.188045 0.0518033 3.78523 131 179 167
0.0476718 0.0523581 3.83007 143 227 192
-0.915596 0.0519016 3.75771 103 177 165
-0.286283 0.0528727 3.76693 187 236 220
0.122866 0.0541339 3.83343 68 127 106
1.5353 0.0552624 3.91381 99 166 137
-0.422179 0.0542054 3.7654 72 151 132
1.54862 0.0556693 3.91932 71 147 115
-1.23292 0.0554704 3.73842 132 181 183
-0.867728 0.0557849 3.75852 77 148 128
-0.233729 0.0548178 3.77251 151 207 178
0.631023 0.0568874 3.86382 163 238 216
0.702665 0.0568172 3.87385 177 238 212
0.739163 0.0567445 3.87738 94 169 141
-0.0842957 0.0575651 3.80893 64 128 99
-0.0786051 0.0564169 3.82219 75 138 106
0.193094 0.0596662 3.83322 142 209 180
-0.234305 0.0591035 3.77303 70 131 103
-0.200002 0.0594992 3.78802 160 176 169
-0.204846 0.0601197 3.78804 245 253 243
0.207196 0.06188 3.83125 160 227 206
-1.22186 0.0611244 3.74185 187 237 235
-0.473594 0.060899 3.76242 157 230 220
-0.138474 0.0611439 3.80765 94 162 139
0.317157 0.0628071 3.83799 150 193 184
1.71099 0.0635445 3.92085 163 239 205
-0.87049 0.0619009 3.75632 81 155 143
-0.187335 0.0631769 3.80083 69 136 121
0.196464 0.0642546 3.83731 70 132 110
0.228961 0.0640473 3.83891 72 134 116
1.42001 0.0653764 3.91914 97 169 156
-0.325176 0.0637817 3.7711 76 166 131
-0.151203 0.0651593 3.80758 69 131 117
0.306441 0.0657709 3.83991 114 180 168
-0.342445 0.0651649 3.76846 148 222 196
0.186621 0.0668284 3.83402 127 184 163
-0.573005 0.0670263 3.76427 97 159 159
-0.0586091 0.0693117 3.82542 154 224 194
1.05096 0.0691146 3.89799 91 172 153
-0.234121 0.0688425 3.77742 89 151 129
0.720622 0.0726803 3.87657 93 169 138
-1.49064 0.0704575 3.70589 161 205 198
1.03019 0.0740908 3.90181 75 159 141
-1.33454 0.0721545 3.73599 80 140 129
-0.591521 0.0718685 3.76398 94 158 146
0.270969 0.0748037 3.8487 83 139 134
-0.341912 0.0743289 3.77478 72 146 122
0.200528 0.0752605 3.83874 70 138 115
-0.551206 0.0755881 3.76049 97 162 153
-1.35574 0.075287 3.73139 151 218 203
-0.506179 0.077674 3.76088 90 166 154
1.03339 0.0807534 3.90028 162 236 224
-0.06713 0.0803205 3.82677 134 207 175
0.0207085 0.0799601 3.83033 91 170 137
0.277065 0.080989 3.84671 68 132 120
-1.49887 0.0782971 3.70882 111 153 136
-1.44973 0.0793695 3.71781 78 146 135
-1.21731 0.0798944 3.74822 173 233 232
-0.174097 0.0820007 3.81365 75 148 122
-0.103979 0.0822726 3.82356 101 169 138
0.801711 0.0834558 3.89 83 163 146
-0.997208 0.0827502 3.7627 80 130 153
0.73212 0.0850362 3.87885 159 237 206
-1.46404 0.0832097 3.71431 135 195 184
-1.34241 0.0825021 3.73447 74 139 130
-1.00085 0.0835833 3.76054 180 231 247
-0.986498 0.0832705 3.76549 98 155 157
-0.460693 0.0830754 3.76984 154 215 205
-0.0524308 0.0858764 3.83046 161 235 205
-0.860555 0.0846242 3.76634 77 151 127
-0.579438 0.085337 3.77033 86 154 153
-0.190013 0.0855715 3.80301 77 141 122
0.744104 0.0900058 3.8835 91 179 143
-1.44979 0.0857425 3.71897 86 150 138
-0.998349 0.0873025 3.76487 174 223 237
0.295291 0.0901292 3.84933 111 163 156
-0.301619 0.0892295 3.77423 135 211 179
-0.233033 0.0901629 3.79085 140 207 175
-0.190311 0.0902295 3.80501 155 216 196
0.239692 0.093262 3.85244 78 134 121
-0.298691 0.0921389 3.77702 75 157 128
0.631285 0.0950339 3.87775 94 165 148
0.831827 0.0967821 3.89191 98 183 163
-0.122288 0.0965321 3.82395 173 236 220
-0.117572 0.0972934 3.82017 99 161 145
0.310875 0.0972222 3.85338 152 210 192
1.61412 0.100328 3.93088 94 157 137
1.68622 0.100358 3.93268 107 179 159
-0.62706 0.0982459 3.77819 92 154 136
-0.132508 0.0985255 3.82154 81 149 124
-0.129895 0.0999771 3.82586 95 161 142
0.125971 0.0992587 3.84723 72 140 115
0.225603 0.0998359 3.85001 124 192 169
-1.69855 0.0941135 3.54187 201 207 212
-0.559668 0.0999101 3.77052 135 194 190
-0.858006 0.101333 3.76942 148 221 199
-0.0890416 0.104644 3.82571 190 239 217
0.19307 0.105356 3.85421 154 225 199
-1.28895 0.103834 3.74852 61 153 136
0.744064 0.107762 3.88848 91 159 134
-0.855866 0.105454 3.76968 73 146 144
0.169402 0.110426 3.85094 149 223 195
0.0423735 0.111943 3.83764 53 119 100
-1.24556 0.109852 3.75405 144 216 194
-0.454184 0.110477 3.77773 75 137 121
-0.310366 0.109793 3.7831 142 223 190
-0.20116 0.111251 3.81517 148 224 193
0.821326 0.113932 3.89483 138 227 188
-0.313762 0.111057 3.78436 153 233 202
-0.235776 0.11248 3.80102 72 142 111
-0.857335 0.113387 3.77207 83 162 159
0.0437395 0.11467 3.83822 75 143 118
-0.120368 0.117776 3.82925 82 154 132
0.127221 0.118649 3.84845 136 194 170
0.053404 0.120699 3.84774 76 153 119
-0.604622 0.119923 3.78622 86 156 143
-0.550014 0.118743 3.77804 75 149 145
0.223859 0.121035 3.851 81 143 129
-1.47124 0.118764 3.72589 106 163 155
0.0382617 0.121803 3.84487 64 133 106
0.103752 0.122938 3.84745 134 197 165
0.19137 0.122212 3.85747 84 154 131
-1.47665 0.121505 3.72177 86 133 124
-0.40926 0.123519 3.78536 82 147 125
0.0288211 0.124581 3.8456 148 234 200
-0.0946476 0.125914 3.83573 77 148 115
0.169166 0.126872 3.85773 47 115 84
0.776427 0.128132 3.89339 94 168 142
-0.55041 0.12583 3.77983 159 227 226
-0.546102 0.126027 3.78074 87 160 158
-0.243767 0.12706 3.80134 134 218 184
-0.0463861 0.128159 3.84181 95 166 133
-0.000994374 0.128653 3.85584 158 218 184
0.182708 0.130057 3.86034 77 157 126
0.0509806 0.129774 3.84904 65 141 99
-0.194393 0.130683 3.82682 87 163 131
0.0803489 0.13217 3.85229 57 136 103
-1.2662 0.130711 3.75693 89 171 152
0.700049 0.13409 3.88874 77 156 129
-0.416785 0.13166 3.78667 85 150 125
-0.20923 0.132581 3.82209 67 139 103
0.321206 0.133892 3.86358 71 130 116
-0.375269 0.133898 3.79848 79 138 117
0.0996444 0.13475 3.851 43 111 88
-0.442216 0.133908 3.78603 60 126 115
0.0630087 0.135156 3.84582 49 126 89
0.112025 0.137336 3.85148 149 216 189
-0.507659 0.136807 3.78349 93 170 166
0.00974645 0.140184 3.85501 73 150 123
0.764998 0.141902 3.89465 71 141 118
0.26779 0.142496 3.86141 94 166 136
1.47947 0.145324 3.93363 113 175 169
-1.45414 0.138025 3.73438 136 203 188
-0.219007 0.143811 3.82273 70 131 95
0.268282 0.143845 3.86597 94 160 135
-0.662132 0.142208 3.79453 158 214 201
-0.572493 0.144418 3.78912 77 145 128
0.10855 0.147825 3.85519 68 130 106
-1.10668 0.144494 3.77684 102 165 163
-0.00922862 0.147602 3.85543 67 139 109
0.0105325 0.148604 3.85618 64 139 111
0.169921 0.149253 3.86861 150 216 191
-0.222901 0.14799 3.82019 135 204 171
-0.207486 0.149298 3.82712 65 137 101
-0.132644 0.148584 3.83886 157 217 183
-2.25552 0.14363 3.6518 106 154 158
-0.357509 0.150431 3.80948 187 237 219
-0.0323099 0.15215 3.85017 162 236 210
0.286132 0.151611 3.86456 63 129 104
0.328105 0.15212 3.86674 71 132 122
-0.44398 0.151115 3.79144 87 146 131
-0.38301 0.151369 3.80262 79 133 120
-0.36067 0.152446 3.80751 73 115 108
0.115042 0.155886 3.85944 153 212 192
-0.479926 0.155264 3.78641 75 136 126
-0.379832 0.154705 3.80354 158 211 197
-1.48865 0.154061 3.72945 143 212 197
0.227917 0.160231 3.8682 86 161 133
-0.321366 0.158934 3.81276 171 224 204
-1.47153 0.156407 3.73571 89 154 129
0.194072 0.1614 3.86515 63 145 122
-0.181199 0.161299 3.83403 93 166 134
-0.00984318 0.162992 3.85605 54 123 96
0.0433778 0.162056 3.85599 74 144 113
0.0496675 0.162923 3.85945 147 219 189
0.788675 0.164211 3.90264 53 114 80
-0.0291627 0.164212 3.85415 144 220 186
1.75009 0.168069 3.94957 110 183 157
-0.369224 0.162332 3.80856 155 203 185
0.184579 0.164722 3.86788 82 164 142
0.582301 0.166674 3.89002 168 235 220
-0.299656 0.166263 3.81324 72 141 108
-0.261413 0.165288 3.82509 250 251 249
-0.780497 0.166619 3.79259 200 242 254
-0.0183467 0.169611 3.85212 87 161 125
-1.18684 0.16661 3.77324 116 167 170
-0.532078 0.167836 3.79744 105 165 154
0.00654674 0.172786 3.85685 153 227 197
0.0660002 0.172979 3.86013 74 148 120
0.791904 0.174143 3.89855 148 230 178
0.274476 0.174363 3.86931 68 148 125
0.295814 0.173868 3.87118 71 124 114
-2.24488 0.16539 3.65796 195 228 221
-1.32219 0.172439 3.76383 67 132 117
-0.273506 0.176349 3.8237 71 143 107
0.217259 0.179583 3.87529 96 160 148
-1.47022 0.173275 3.74226 68 134 109
-0.448425 0.176593 3.79908 174 234 226
1.27157 0.181724 3.93007 76 162 122
-1.1671 0.176458 3.77492 141 208 187
-0.698212 0.177752 3.80157 90 160 147
0.230822 0.180483 3.86447 84 124 113
-1.74205 0.173032 3.68812 109 97 85
-1.43075 0.176284 3.74844 60 117 108
-0.331618 0.17917 3.8164 149 212 186
0.108264 0.183658 3.87008 83 151 134
0.914936 0.185122 3.91818 89 166 145
0.0382101 0.183994 3.86681 150 213 197
-0.453826 0.182169 3.80086 96 158 176
-0.283059 0.18393 3.82595 55 113 84
0.0409869 0.1858 3.86077 97 165 148
1.51184 0.191283 3.94519 112 184 162
-1.22605 0.183242 3.77745 176 236 226
0.0297067 0.188832 3.86506 173 237 218
1.59821 0.194443 3.94377 75 159 125
-1.23828 0.187468 3.77588 175 234 226
0.00340011 0.191736 3.85652 84 148 129
-0.706293 0.190574 3.80456 87 161 157
-0.404974 0.191872 3.81285 126 198 176
0.0166601 0.193128 3.86475 81 160 139
1.21533 0.197311 3.93503 93 175 153
1.54047 0.196622 3.94521 104 175 158
-1.22557 0.190427 3.77713 77 138 128
0.257642 0.195906 3.87556 220 255 255
0.0803211 0.196502 3.86887 91 152 132
-0.491716 0.192859 3.80409 200 240 255
-0.406825 0.194526 3.81218 69 138 118
-1.48402 0.191534 3.7412 122 186 164
-0.32711 0.196873 3.82744 51 115 85
0.641436 0.199471 3.90391 94 174 161
-0.0155435 0.199099 3.85882 51 138 110
0.0872024 0.200209 3.87102 77 136 116
-1.22635 0.198194 3.78014 159 219 209
-0.419711 0.199865 3.81101 78 151 129
-0.149195 0.203333 3.85086 83 148 123
1.32143 0.207428 3.94045 103 169 157
-0.52861 0.201159 3.81243 106 172 171
-0.449118 0.202545 3.80805 93 156 140
-0.308924 0.204229 3.83439 84 149 124
1.45837 0.210269 3.95313 106 175 165
-0.000248603 0.206096 3.86505 53 118 96
-0.531099 0.204196 3.81256 169 221 227
-0.316844 0.205651 3.8337 97 165 142
-0.0309737 0.205945 3.86193 77 155 124
-1.49127 0.201518 3.74745 155 219 189
0.0274534 0.209604 3.86974 94 154 130
0.00717717 0.20875 3.86662 160 236 202
0.0486981 0.210278 3.87445 79 143 114
-0.216457 0.210151 3.85003 157 242 204
-1.8414 0.194096 3.53966 216 219 224
-1.49936 0.205058 3.73847 139 204 178
-1.22311 0.208424 3.77988 158 221 212
-0.0240041 0.213019 3.86896 65 152 116
-1.47062 0.207164 3.75416 132 192 174
-0.381684 0.211846 3.82392 156 223 184
0.045429 0.214173 3.87432 143 202 174
-1.14412 0.211561 3.79388 176 236 226
1.2857 0.220142 3.94433 112 187 165
-0.418698 0.214263 3.82508 81 141 123
0.0454224 0.217373 3.87128 57 123 94
-0.410587 0.215431 3.82259 94 163 143
-0.298663 0.215478 3.83866 59 122 83
-1.50435 0.211799 3.73953 129 181 157
-1.49236 0.211732 3.74544 53 107 84
-1.02926 0.215275 3.79742 97 177 176
-0.378065 0.216254 3.82248 67 122 95
-0.372247 0.216584 3.82711 166 219 186
-0.244246 0.218114 3.84336 134 220 180
-0.184416 0.217821 3.85582 91 158 126
-0.372026 0.217132 3.82884 158 210 180
-0.0547819 0.220599 3.87092 80 158 127
-0.134619 0.221092 3.8561 55 136 103
0.0552286 0.22217 3.87317 157 227 197
0.79252 0.224772 3.91964 150 237 204
-0.892383 0.219558 3.80806 168 226 221
-0.806651 0.220323 3.81057 104 168 168
-0.616723 0.221636 3.81442 68 143 121
-0.078086 0.223408 3.86338 91 164 138
0.218059 0.225884 3.88596 105 173 162
-0.229676 0.224711 3.85495 63 143 112
-0.00195228 0.225688 3.87654 161 227 208
1.46526 0.23141 3.9521 113 182 172
-0.577207 0.226925 3.81969 84 153 138
0.0982591 0.23026 3.87543 89 149 131
-1.48836 0.223206 3.7531 68 137 117
-0.892039 0.226848 3.80778 92 161 151
0.00148364 0.23135 3.87905 71 145 127
0.0796049 0.230983 3.87516 66 133 112
-0.0347647 0.23154 3.86854 84 156 126
-0.366386 0.230395 3.83509 162 228 223
0.0993731 0.233822 3.88665 66 135 114
-0.378528 0.231956 3.83151 88 147 127
-0.264054 0.233784 3.8482 76 141 115
-0.226677 0.23307 3.85511 60 138 101
-1.31329 0.230505 3.78132 68 135 120
0.0131143 0.23632 3.8739 81 156 134
1.048 0.238947 3.93539 91 164 148
-0.548405 0.234081 3.82227 88 149 153
-0.474473 0.23409 3.82584 82 153 143
0.0655238 0.238834 3.88139 150 224 194
0.0232846 0.239169 3.8728 156 230 204
-0.260179 0.238555 3.85031 210 246 224
0.0278388 0.238909 3.87319 85 150 128
-0.0855235 0.239772 3.86599 100 180 151
-0.616235 0.238645 3.81908 79 153 135
-0.602491 0.238773 3.82139 86 169 147
-0.367918 0.239062 3.84073 94 159 133
-0.0708402 0.241736 3.86884 184 240 227
0.0421835 0.243718 3.87492 87 156 146
-0.627518 0.240675 3.82019 173 236 227
0.0760999 0.245696 3.88237 65 130 114
0.0468616 0.248317 3.8806 143 206 190
0.311904 0.248423 3.89154 195 236 238
-0.396051 0.246514 3.83804 82 152 129
-0.179698 0.248403 3.86306 78 144 115
-0.159505 0.248745 3.86335 77 157 128
-1.22391 0.243687 3.79057 104 158 158
-0.563908 0.247394 3.82472 67 130 128
-0.183295 0.251607 3.86215 149 227 186
-0.449232 0.252108 3.83185 101 174 152
0.0611616 0.253216 3.87955 154 212 194
-0.396433 0.255101 3.8407 89 150 130
0.0540111 0.257145 3.88426 145 219 191
1.13948 0.260335 3.94294 107 178 161
-0.368014 0.256528 3.84533 69 131 117
-0.318561 0.255964 3.84854 68 141 109
-0.199805 0.256873 3.86835 166 243 209
-0.192622 0.257607 3.8678 61 137 105
-0.177555 0.257549 3.86469 137 198 178
2.06809 0.26602 4.00339 220 255 244
0.0574773 0.258726 3.88184 53 121 96
-0.440664 0.257887 3.83922 161 228 196
-1.45336 0.254223 3.76761 86 155 134
-1.10103 0.256241 3.80337 105 174 171
0.532374 0.264093 3.9101 196 246 246
-1.79508 0.241212 3.55012 150 152 162
-1.09483 0.257733 3.80371 177 237 226
-0.495434 0.259942 3.83479 110 171 167
-0.446465 0.262238 3.83487 133 194 168
-0.273972 0.263131 3.85342 135 220 182
-0.174736 0.263747 3.86659 76 143 116
0.0562705 0.264988 3.88525 153 233 202
0.188416 0.267731 3.89477 69 138 125
-0.232191 0.266354 3.86491 65 138 98
0.929527 0.270942 3.93513 88 151 131
-0.302314 0.267006 3.85559 62 149 111
0.0493822 0.268697 3.88543 62 142 113
0.0540482 0.268395 3.88636 76 155 128
-1.50292 0.216365 3.11437 213 216 214
-0.31886 0.267616 3.85239 72 152 123
1.28481 0.274095 3.94685 97 172 150
-1.23647 0.266737 3.79938 188 236 230
-1.09839 0.267189 3.80583 166 229 220
0.109593 0.273233 3.88985 144 209 187
-0.518721 0.270183 3.83827 84 146 134
-0.328073 0.271244 3.85385 63 142 115
-0.463327 0.272051 3.83728 156 221 206
0.0821594 0.275044 3.88899 160 229 208
-1.23412 0.270715 3.80301 126 175 173
-0.448538 0.27379 3.84329 150 214 195
1.04779 0.280925 3.94654 82 151 136
-0.354777 0.275469 3.84686 161 218 203
-0.284475 0.275716 3.86115 64 142 105
0.0433963 0.278389 3.89298 68 140 120
0.0546274 0.278819 3.89295 92 174 151
-1.41913 0.272645 3.78114 71 142 122
-0.925214 0.277227 3.82051 110 165 178
-1.40028 0.274722 3.78228 141 210 189
-0.344523 0.280155 3.85192 77 147 124
1.26687 0.288108 3.95061 82 155 133
0.934372 0.28853 3.93341 64 147 109
-0.371309 0.283032 3.85127 167 223 210
-0.180193 0.283728 3.87459 148 222 188
-0.881798 0.282556 3.82072 169 232 223
-0.194915 0.287274 3.87575 131 204 172
-1.33316 0.2817 3.7914 190 238 232
1.14818 0.292762 3.9488 130 214 180
1.25675 0.292526 3.95164 91 171 142
-1.49468 0.27973 3.76751 140 203 183
-1.51387 0.281413 3.76161 118 183 158
0.0982494 0.293008 3.89459 149 220 204
-1.51746 0.283434 3.76197 49 117 94
-0.50099 0.290247 3.83793 70 128 110
-0.34258 0.291428 3.8593 92 159 130
0.918541 0.296762 3.93476 138 225 191
-0.511177 0.291868 3.84309 149 208 194
-0.407712 0.293246 3.85583 106 171 155
-0.343602 0.293228 3.86523 77 143 114
0.162761 0.298033 3.90274 67 128 118
0.939642 0.300093 3.93097 129 209 172
1.17048 0.30287 3.96325 81 140 109
0.944158 0.30265 3.93329 52 125 87
0.982712 0.303235 3.94601 91 171 148
-0.292759 0.29893 3.86643 70 139 112
0.234992 0.301184 3.91253 221 255 244
1.36175 0.304939 3.96082 91 160 149
-0.482169 0.298792 3.85062 92 152 142
0.0212094 0.301152 3.89245 163 232 212
0.176558 0.303565 3.90392 93 168 154
0.941367 0.306557 3.93167 145 232 188
0.0241677 0.30588 3.89744 62 139 118
-1.07503 0.301534 3.82 106 163 162
-0.932156 0.301485 3.82815 166 216 216
-0.454184 0.303391 3.85266 63 122 107
0.0632943 0.308038 3.89809 167 242 221
-0.497228 0.304973 3.84342 76 129 126
-1.08256 0.304546 3.81648 110 166 177
-1.08384 0.305246 3.81852 115 170 185
-0.285383 0.310142 3.87123 78 140 116
1.35361 0.317473 3.965 104 175 158
-0.934705 0.307145 3.82422 94 152 151
-0.50063 0.309319 3.84542 149 207 202
-1.50669 0.306492 3.77358 131 199 182
0.2029 0.316401 3.91007 90 171 156
-0.220295 0.315566 3.8803 47 121 93
-1.04058 0.312792 3.82219 210 249 251
-0.496023 0.315812 3.84941 142 208 197
-0.481335 0.31669 3.85446 81 154 138
-0.201546 0.320108 3.88161 134 204 174
1.14587 0.326528 3.95307 68 160 119
-1.50987 0.313468 3.77912 58 115 94
-0.496719 0.317724 3.855 145 214 203
-0.305579 0.32049 3.8674 208 255 222
-0.926746 0.319655 3.82855 164 217 220
0.0571349 0.328273 3.90472 78 144 132
-0.173355 0.328167 3.88675 66 141 113
-1.06812 0.323508 3.82514 172 232 231
-0.0971014 0.329827 3.89185 70 147 120
0.16192 0.332809 3.91022 71 143 131
-1.45267 0.327842 3.78631 217 255 251
-0.476904 0.334504 3.8661 150 222 210
1.41229 0.344532 3.97085 96 174 157
-1.45308 0.331273 3.79361 211 249 237
-0.258755 0.340127 3.87725 154 222 199
-0.47667 0.340122 3.86278 81 157 145
-0.171251 0.344985 3.89728 105 179 153
-0.508405 0.34245 3.8635 102 160 166
-0.614928 0.342484 3.85154 97 167 174
-0.230732 0.346614 3.88381 127 212 180
-1.26551 0.340588 3.80641 127 196 176
-1.20156 0.343336 3.82094 199 240 235
-0.927447 0.344686 3.83882 117 172 177
-1.15867 0.346346 3.82548 107 162 159
-0.259346 0.350731 3.88475 75 152 125
-0.299686 0.351815 3.878 68 146 115
-1.20813 0.349107 3.82257 194 241 233
2.00595 0.367403 4.01229 92 149 150
-0.89028 0.352486 3.84323 100 166 155
-0.522957 0.354135 3.85983 74 145 148
-0.916449 0.353311 3.83547 101 168 171
0.395993 0.3611 3.92598 78 158 141
0.203188 0.362619 3.921 69 141 128
-1.22141 0.353599 3.81993 100 161 163
-1.14153 0.356798 3.8312 206 243 251
-0.901763 0.357922 3.84115 62 131 120
0.625899 0.368644 3.94417 85 167 148
-1.53037 0.354336 3.78186 101 165 136
0.211071 0.367363 3.92782 175 231 226
-1.28296 0.358973 3.82105 151 205 188
-0.769032 0.362109 3.84906 106 165 184
0.253358 0.368303 3.92635 69 148 129
1.5136 0.374832 3.97696 153 225 203
-0.919758 0.364273 3.84261 95 164 181
-0.460334 0.366327 3.87181 176 236 228
1.32029 0.375465 3.97346 101 175 163
-0.468941 0.368225 3.87134 244 255 253
0.249092 0.372898 3.92568 161 237 213
-1.52891 0.361065 3.78499 142 211 184
1.51475 0.37955 3.97602 74 141 138
-0.929032 0.369139 3.8416 183 235 248
-1.16659 0.370175 3.82999 179 228 226
-1.02056 0.37312 3.83828 122 180 185
1.14082 0.386518 3.96977 78 159 140
-0.460992 0.380603 3.87718 85 154 143
-0.411497 0.385135 3.88552 78 148 141
-1.52545 0.381217 3.79046 108 174 155
-1.20691 0.387376 3.8347 74 143 128
-0.943056 0.3889 3.84771 65 136 156
-1.50969 0.385005 3.7948 58 115 94
-1.18194 0.390451 3.83797 130 176 177
-1.17616 0.390115 3.8374 165 210 213
-0.312127 0.394958 3.89297 72 154 125
-1.53191 0.387106 3.79256 125 187 169
-1.21629 0.392234 3.83021 183 241 230
-0.444254 0.398373 3.8863 68 139 129
0.1429 0.402236 3.92824 153 224 207
-0.301106 0.401454 3.89443 78 152 128
1.52725 0.410443 3.98526 104 157 144
-1.01769 0.399175 3.84724 173 244 234
-0.93818 0.398232 3.84975 89 157 164
1.12894 0.412859 3.97233 103 182 155
0.156571 0.409858 3.93245 152 229 208
0.724738 0.414563 3.95751 82 166 132
-0.907488 0.404206 3.85209 83 150 171
-0.0477956 0.411236 3.91863 170 230 224
-1.1921 0.404184 3.84092 207 231 229
-1.45055 0.402057 3.81031 68 143 121
-1.16302 0.40554 3.84018 165 224 216
-1.03944 0.406391 3.84654 168 233 224
-0.126594 0.412689 3.91482 187 247 239
0.548389 0.418742 3.95136 171 236 227
-1.80959 0.398202 3.75211 74 80 79
-1.14322 0.408032 3.84426 83 146 144
-0.0404173 0.416257 3.92055 57 126 111
-1.14333 0.409196 3.84746 80 147 144
-0.440489 0.413221 3.88523 90 148 153
-1.0374 0.411102 3.84845 84 144 143
-0.0245062 0.41888 3.92505 81 153 133
0.725599 0.423125 3.95968 70 148 111
0.00525323 0.421651 3.92498 51 137 113
-1.00849 0.413278 3.85052 188 244 249
0.0497051 0.422016 3.92757 84 162 145
-1.31433 0.412827 3.83169 143 203 179
0.754651 0.427523 3.96024 76 148 125
-0.0938891 0.424094 3.91829 80 154 142
-1.29065 0.419419 3.83716 71 134 114
-1.04991 0.422641 3.85463 180 239 219
-1.52514 0.416747 3.79885 62 115 88
-1.32224 0.422779 3.83065 78 144 125
-0.349255 0.43023 3.89914 61 142 123
0.500833 0.438254 3.95359 92 164 152
-0.0135941 0.438345 3.92786 93 172 159
0.0488589 0.439042 3.92867 157 238 199
-1.26957 0.430421 3.84251 70 138 115
-0.353721 0.437442 3.89941 55 136 109
0.0016915 0.440946 3.92621 85 163 146
1.91794 0.451268 4.02093 93 153 143
-0.799146 0.434209 3.86467 69 158 138
0.00201127 0.441457 3.92761 85 163 146
